ply
format ascii 1.0
comment Created by Open3D
element vertex 1684
property double x
property double y
property double z
end_header
-0.26529 -0.180313 1.02723
0.000332452 -0.180238 1.15063
-0.270295 -0.180199 1.00517
-0.330761 -0.180124 0.96555
-0.161262 -0.180049 1.04093
-0.239224 -0.179973 0.992586
-0.121474 -0.179973 1.04048
-0.219646 -0.179898 0.982052
-0.074531 -0.179822 1.04528
-0.112603 -0.179747 1.01692
-0.346564 -0.17971 0.889765
-0.0304045 -0.179635 1.03854
-0.18192 -0.179597 0.95266
-0.206941 -0.179521 0.930869
-0.0936316 -0.179486 0.977337
-0.250182 -0.17941 0.8898
-0.499783 -0.179334 0.755751
-0.196903 -0.179257 0.897954
-0.086691 -0.179262 0.942006
-0.10995 -0.179186 0.921155
-0.191677 -0.179109 0.871083
-0.232031 -0.179032 0.841709
-0.250792 -0.178994 0.822272
-0.0601433 -0.178924 0.908265
0.00376738 -0.178847 0.931055
-0.38909 -0.178808 0.724593
-0.181324 -0.178731 0.819331
-0.301315 -0.178701 0.74912
-0.406032 -0.178624 0.687636
-0.175973 -0.178546 0.793553
-0.290644 -0.178469 0.727117
-0.0988695 -0.17843 0.813014
-0.216484 -0.178401 0.743986
-0.221985 -0.178323 0.732163
-0.338639 -0.178245 0.664775
-0.374367 -0.178167 0.637863
-0.331846 -0.178128 0.649168
-0.103875 -0.178101 0.752928
-0.0493677 -0.178023 0.771162
-0.10204 -0.177944 0.735818
-0.193733 -0.177866 0.680976
-0.0419888 -0.177826 0.746929
-0.0475471 -0.177761 0.734858
-0.233491 -0.177722 0.63198
-0.0644472 -0.177643 0.707547
-0.0958582 -0.177564 0.682899
-0.164 -0.177485 0.639897
-0.204094 -0.17746 0.609617
-0.319683 -0.177381 0.542913
-0.41988 -0.177341 0.482953
-0.0802987 -0.177262 0.643854
-0.030883 -0.177183 0.659685
-0.253583 -0.177103 0.53947
-0.0179831 -0.177079 0.64704
0.00755346 -0.17704 0.649982
-0.172856 -0.17696 0.550941
-0.251408 -0.17688 0.502842
-0.219356 -0.1768 0.510056
-0.321782 -0.17672 0.450044
-0.0682198 -0.176697 0.566599
-0.0909773 -0.176657 0.545439
-0.113305 -0.176577 0.525505
-0.0992325 -0.176496 0.523784
-0.0388706 -0.176416 0.545219
-0.32696 -0.176335 0.392442
-0.258876 -0.176295 0.416743
-0.0587316 -0.176214 0.508103
-0.341517 -0.176193 0.3565
-0.0716124 -0.176112 0.482761
-0.281064 -0.176031 0.369357
-0.196567 -0.17599 0.401901
-0.258058 -0.175909 0.362498
0.0217113 -0.175828 0.493738
-0.068872 -0.175746 0.439813
-0.230725 -0.175665 0.350267
-0.35922 -0.175685 0.274773
0.0696662 -0.175603 0.480613
-0.282155 -0.175522 0.296112
-0.122946 -0.17544 0.367139
-0.156144 -0.175399 0.340904
0.119936 -0.175317 0.470387
-0.22532 -0.175235 0.289215
-0.310822 -0.175152 0.237933
-0.193082 -0.17507 0.288284
-0.123891 -0.175029 0.313285
-0.125628 -0.174946 0.303919
-0.134686 -0.174905 0.28981
-0.206213 -0.174844 0.244998
0.0925869 -0.174803 0.384831
-0.220675 -0.17472 0.219746
-0.102424 -0.174637 0.27043
-0.0938434 -0.174554 0.266291
-0.0587649 -0.174471 0.275413
-0.326429 -0.17443 0.132056
-0.245169 -0.174346 0.164291
-0.14522 -0.174263 0.205884
-0.397851 -0.17418 0.0711988
-0.0107696 -0.174138 0.255247
0.0217524 -0.174054 0.26316
-0.125149 -0.173971 0.181375
-0.00335887 -0.173887 0.233948
-0.33735 -0.173845 0.0574927
-0.173884 -0.173761 0.130926
-0.167346 -0.173677 0.125908
-0.272716 -0.173593 0.0649484
0.0101806 -0.173551 0.196969
-0.422241 -0.173467 -0.0274938
-0.215147 -0.173382 0.0678142
-0.138442 -0.173298 0.0979406
-0.072777 -0.173256 0.121378
-0.0047893 -0.173171 0.147168
-0.0414589 -0.173087 0.120642
-0.28345 -0.173002 -0.00853224
-0.206117 -0.172959 0.020773
-0.109367 -0.172875 0.0609914
-0.269438 -0.17279 -0.027187
-0.420753 -0.172705 -0.110975
-0.125793 -0.172662 0.0271766
-0.381054 -0.172577 -0.108562
-0.0681744 -0.178437 2.45649
-0.175627 -0.177954 2.39785
-0.145246 -0.177827 2.40315
-0.413621 -0.177546 2.26128
-0.152386 -0.177335 2.38326
-0.350673 -0.177125 2.27548
-0.487811 -0.176918 2.19826
-0.468105 -0.176816 2.19797
-0.508779 -0.176613 2.16897
-0.344577 -0.176492 2.24125
-0.0708446 -0.17637 2.3683
-0.214155 -0.176174 2.28795
-0.365431 -0.17613 2.2014
-0.151555 -0.17596 2.2993
-0.54213 -0.175842 2.09421
-0.45249 -0.175726 2.12923
-0.144808 -0.17561 2.27327
-0.473655 -0.175495 2.09906
-0.360246 -0.17538 2.14597
-0.405238 -0.175267 2.11369
-0.143549 -0.175218 2.23377
-0.350572 -0.17513 2.1201
-0.402795 -0.175018 2.08422
-0.311479 -0.174907 2.1201
-0.28347 -0.174797 2.12433
-0.243511 -0.174745 2.13363
-0.230499 -0.174636 2.13038
-0.623286 -0.174528 1.92422
-0.465248 -0.174421 1.99347
-0.272062 -0.174367 2.07947
-0.299203 -0.174261 2.05614
-0.521855 -0.174156 1.93505
-0.501763 -0.1741 1.93456
-0.361908 -0.173995 1.99474
-0.479294 -0.173938 1.92555
-0.232196 -0.173835 2.03936
-0.420387 -0.173733 1.93551
-0.113665 -0.173673 2.07844
-0.352954 -0.173612 1.9484
-0.468746 -0.17354 1.88029
-0.123903 -0.173439 2.04299
-0.234309 -0.173378 1.97741
-0.0457241 -0.173279 2.06198
-0.366694 -0.173217 1.89114
-0.438434 -0.17312 1.84555
-0.172201 -0.173058 1.96833
-0.664361 -0.172962 1.71252
-0.362546 -0.172901 1.85312
-0.392345 -0.172806 1.82848
-0.190668 -0.172745 1.91903
-0.377644 -0.172652 1.81579
-0.53484 -0.17259 1.72693
-0.219274 -0.172528 1.87445
-0.296759 -0.172466 1.82547
-0.118807 -0.172403 1.90421
-0.159081 -0.172317 1.87427
-0.170776 -0.172254 1.8582
-0.199286 -0.172167 1.83419
0.00676772 -0.172104 1.92702
-0.490786 -0.172019 1.66847
-0.253947 -0.171956 1.77671
0.0175346 -0.171872 1.90267
-0.259009 -0.171809 1.75424
-0.311292 -0.171746 1.71796
-0.0517641 -0.171683 1.83759
-0.288121 -0.17162 1.70929
-0.314413 -0.171552 1.68611
-0.346687 -0.171489 1.65987
-0.34225 -0.17141 1.65227
-0.628744 -0.171347 1.49894
-0.214629 -0.171283 1.69593
-0.195724 -0.171206 1.69556
-0.409314 -0.171142 1.57871
-0.181825 -0.171078 1.68242
-0.311899 -0.171014 1.60735
-0.547412 -0.17095 1.47958
-0.34614 -0.170886 1.57021
-0.260518 -0.170834 1.60278
-0.402435 -0.170763 1.52196
-0.262359 -0.170698 1.58201
-0.159853 -0.170634 1.6233
-0.279845 -0.170564 1.55344
-0.328771 -0.170499 1.51902
-0.229392 -0.170435 1.55878
-0.281571 -0.17037 1.52276
-0.26201 -0.170304 1.52262
-0.326709 -0.170239 1.48037
-0.108859 -0.170174 1.5794
-0.21272 -0.170138 1.517
-0.393199 -0.170073 1.41688
-0.109412 -0.170007 1.5489
-0.703578 -0.169941 1.24197
-0.196911 -0.169876 1.48545
0.0138617 -0.169811 1.58097
-0.337654 -0.169745 1.39539
-0.118737 -0.169679 1.49504
-0.19405 -0.169646 1.4469
-0.169292 -0.169584 1.44941
-0.436571 -0.169517 1.30599
-0.267603 -0.169457 1.38058
-0.291899 -0.16939 1.35867
-0.391588 -0.169324 1.29907
-0.409442 -0.169265 1.28024
-0.28251 -0.169198 1.33397
-0.310139 -0.169131 1.31044
-0.251428 -0.169097 1.32938
-0.290974 -0.16904 1.2997
-0.152314 -0.168973 1.35933
-0.106823 -0.168906 1.3724
-0.135229 -0.16885 1.34827
-0.281544 -0.168783 1.26545
-0.133787 -0.168716 1.32968
-0.417256 -0.168662 1.17801
-0.348156 -0.168628 1.2022
-0.19387 -0.16856 1.26972
-0.328508 -0.168508 1.19245
-0.147889 -0.16844 1.27316
-0.297725 -0.168372 1.18865
-0.583752 -0.168322 1.03567
-0.207 -0.168254 1.21448
-0.368697 -0.168186 1.12407
-0.124454 -0.168151 1.23589
-0.318289 -0.168103 1.129
-0.11069 -0.168034 1.22327
-0.20759 -0.167966 1.1653
-0.131638 -0.167919 1.19328
-0.148824 -0.16785 1.17519
-0.172568 -0.167781 1.15383
-0.232685 -0.167712 1.1143
-0.151806 -0.167701 1.14396
-0.395736 -0.167632 1.01253
-0.304071 -0.167563 1.04892
-0.376209 -0.167519 1.00283
-0.18733 -0.16745 1.08784
-0.0965324 -0.167381 1.12383
-0.361145 -0.167311 0.982117
0.0231081 -0.167304 1.16341
-0.0717652 -0.167234 1.10659
-0.170219 -0.167164 1.04799
-0.458345 -0.167094 0.894562
-0.238758 -0.167054 0.994317
-0.249644 -0.166984 0.97953
-0.428724 -0.166914 0.880658
-0.0957238 -0.166878 1.03701
-0.29279 -0.16684 0.928429
-0.0672186 -0.166769 1.03191
-0.135962 -0.166699 0.988248
-0.428016 -0.166628 0.832941
-0.306279 -0.166591 0.883749
-0.253456 -0.166555 0.900057
-0.155698 -0.166484 0.939684
-0.254058 -0.166414 0.881264
-0.145644 -0.166342 0.926244
-0.177603 -0.166307 0.900199
-0.17999 -0.166235 0.889798
-0.212712 -0.166164 0.864242
-0.173568 -0.166128 0.873762
-0.0678988 -0.166093 0.91655
-0.374978 -0.166022 0.753812
-0.342946 -0.165951 0.760672
-0.000286551 -0.165879 0.922859
-0.125456 -0.165843 0.850258
-0.236929 -0.16581 0.784438
-0.211922 -0.165738 0.787827
-0.259184 -0.165666 0.755094
-0.405598 -0.165594 0.672797
-0.136007 -0.165558 0.797611
-0.220418 -0.16549 0.746223
0.0502937 -0.165454 0.871612
-0.18512 -0.165382 0.744855
-0.128492 -0.165309 0.764131
-0.0567903 -0.165236 0.790957
-0.29816 -0.165206 0.660181
-0.0551773 -0.165133 0.772668
-0.174853 -0.165097 0.702907
-0.224432 -0.165024 0.669133
-0.174356 -0.164951 0.685199
-0.201124 -0.164914 0.661914
-0.251819 -0.164849 0.627419
-0.171625 -0.164775 0.658576
-0.310801 -0.164739 0.57911
-0.0559629 -0.164665 0.69761
-0.00875156 -0.164592 0.712308
-0.252178 -0.164564 0.580502
-0.0262833 -0.16449 0.684563
-0.222117 -0.164453 0.576804
-0.148047 -0.164379 0.604974
-0.181707 -0.164305 0.57929
0.155357 -0.164231 0.738981
-0.135216 -0.164194 0.583884
-0.254048 -0.164131 0.515367
-0.456835 -0.164094 0.404177
-0.264836 -0.164019 0.491377
0.00466735 -0.163945 0.617341
-0.459836 -0.16387 0.376315
0.235696 -0.163795 0.715318
-0.0729898 -0.163758 0.551218
-0.105496 -0.163733 0.52489
-0.29301 -0.163658 0.4224
0.0477667 -0.163583 0.584068
-0.369782 -0.163508 0.366586
-0.242855 -0.16347 0.420328
-0.382832 -0.163395 0.341653
-0.253612 -0.16332 0.397588
-0.150979 -0.163282 0.439207
-0.0567291 -0.16322 0.477313
-0.253471 -0.163182 0.369258
-0.186806 -0.163107 0.393958
-0.24827 -0.163031 0.354606
-0.0575846 -0.162955 0.441341
-0.00269761 -0.162879 0.46019
0.0396225 -0.162841 0.471706
-0.0140097 -0.162765 0.436317
-0.0765332 -0.162689 0.396494
-0.0753686 -0.162651 0.387456
-0.100178 -0.162628 0.365026
-0.302926 -0.162551 0.255121
0.0118811 -0.162475 0.404006
-0.289492 -0.162398 0.244814
-0.188905 -0.162322 0.286614
-0.320633 -0.162283 0.211175
-0.155726 -0.162207 0.285158
-0.219261 -0.16213 0.244931
-0.184239 -0.162053 0.253996
0.0861298 -0.162015 0.379639
-0.591353 -0.161937 0.0324724
-0.0330809 -0.16186 0.303197
-0.495155 -0.161783 0.0637605
-0.0925607 -0.161744 0.255548
-0.127038 -0.161667 0.229933
-0.257878 -0.161644 0.154559
-0.0603904 -0.161567 0.244947
-0.00206679 -0.161528 0.264628
-0.135722 -0.16145 0.189466
-0.219673 -0.161372 0.139169
-0.19831 -0.161295 0.141542
-0.286795 -0.161217 0.0890043
-0.0630064 -0.161178 0.191459
-0.34172 -0.1611 0.043829
-0.297771 -0.161022 0.0575425
0.00339127 -0.160943 0.199876
-0.0870923 -0.160904 0.145228
-0.143667 -0.160826 0.108714
-0.297986 -0.160747 0.0233415
-0.131745 -0.160708 0.0970797
-0.121146 -0.16063 0.0941882
0.0371902 -0.160551 0.165179
-0.0133348 -0.160472 0.131751
-0.208361 -0.160433 0.0248884
-0.0484285 -0.160354 0.096712
-0.342354 -0.160275 -0.0583806
-0.0652155 -0.160196 0.0720718
-0.232156 -0.160156 -0.0207143
-0.105527 -0.160077 0.0345052
-0.187211 -0.1646 2.3635
-0.103939 -0.164234 2.39909
-0.462708 -0.163953 2.2124
-0.275016 -0.163834 2.29644
0.0172413 -0.163578 2.43494
-0.273336 -0.163383 2.28108
-0.481861 -0.163266 2.16705
-0.103223 -0.163074 2.3478
-0.108728 -0.162959 2.33529
-0.0839086 -0.162864 2.33761
-0.188026 -0.162679 2.27696
-0.355267 -0.162565 2.18359
-0.291417 -0.162453 2.20578
-0.363712 -0.162341 2.1599
-0.270973 -0.162229 2.19655
-0.335364 -0.162118 2.15464
-0.246122 -0.162031 2.18916
-0.131713 -0.161922 2.23665
-0.42433 -0.161813 2.08063
-0.326165 -0.161705 2.12
-0.124893 -0.161599 2.21093
-0.128761 -0.161493 2.19929
-0.327395 -0.161444 2.0893
-0.339581 -0.161338 2.07352
-0.383662 -0.161234 2.04179
-0.362122 -0.161183 2.04195
-0.330874 -0.161079 2.0479
-0.286454 -0.161002 2.05998
-0.542303 -0.16095 1.9215
-0.173919 -0.160848 2.09602
-0.360175 -0.160747 1.99322
-0.363267 -0.160693 1.98117
-0.361641 -0.160593 1.97233
0.0648177 -0.160494 2.17589
-0.175741 -0.160438 2.04518
0.060624 -0.160339 2.15372
-0.440572 -0.160282 1.89272
-0.134646 -0.160184 2.03605
-0.238609 -0.160128 1.97369
-0.379924 -0.160031 1.89339
-0.20884 -0.159975 1.96858
-0.330594 -0.15988 1.89806
-0.264787 -0.159823 1.92063
-0.2765 -0.159758 1.9046
-0.19977 -0.159701 1.93265
-0.469189 -0.159609 1.78828
-0.381294 -0.159551 1.82194
-0.233885 -0.159461 1.88599
-0.359639 -0.159403 1.81284
-0.331482 -0.159315 1.81725
-0.510801 -0.159257 1.71734
-0.135429 -0.15917 1.89536
-0.144362 -0.159112 1.88067
-0.353718 -0.159026 1.76631
-0.31679 -0.158968 1.77457
-0.277502 -0.15891 1.78402
-0.351998 -0.158852 1.73659
-0.201997 -0.158772 1.80183
-0.237611 -0.158714 1.77386
-0.21978 -0.158656 1.77262
-0.227218 -0.158575 1.75921
-0.451285 -0.158516 1.63704
-0.393973 -0.158437 1.65599
-0.29016 -0.158378 1.69778
-0.186288 -0.158301 1.74
-0.333607 -0.158242 1.65625
-0.416012 -0.158183 1.60497
-0.338489 -0.158124 1.63366
-0.0992861 -0.158065 1.7432
-0.561758 -0.158003 1.50198
-0.158002 -0.157944 1.69381
-0.492958 -0.157885 1.51631
-0.620394 -0.157812 1.44285
-0.342401 -0.157752 1.57184
-0.127065 -0.157681 1.66975
-0.358244 -0.157621 1.54417
-0.395137 -0.157562 1.51575
-0.398014 -0.157502 1.50435
-0.377829 -0.157442 1.50448
-0.130647 -0.157382 1.61813
-0.18812 -0.157335 1.57919
-0.193255 -0.157274 1.5667
-0.168747 -0.157208 1.56917
-0.0794234 -0.157148 1.60392
-0.266423 -0.157088 1.50053
-0.355925 -0.157023 1.44598
-0.253717 -0.156967 1.48713
-0.430613 -0.156906 1.38882
-0.440994 -0.156845 1.37377
-0.238133 -0.156809 1.46483
-0.213478 -0.156747 1.46734
-0.377548 -0.156686 1.37548
-0.317798 -0.156625 1.39554
-0.296674 -0.156564 1.3963
-0.225768 -0.156503 1.42196
-0.146996 -0.156442 1.45157
-0.212008 -0.15638 1.40929
-0.223018 -0.156319 1.39403
-0.212264 -0.15629 1.38893
-0.312274 -0.156228 1.32918
-0.0848395 -0.156166 1.43317
-0.173152 -0.156108 1.37921
-0.343306 -0.156046 1.28443
-0.388592 -0.155984 1.25209
-0.355677 -0.155928 1.25873
-0.0454927 -0.155866 1.40415
-0.390093 -0.155835 1.22147
-0.361926 -0.155772 1.2259
-0.0369879 -0.155717 1.37855
-0.0470347 -0.155655 1.36389
-0.320726 -0.155592 1.21742
-0.457875 -0.155539 1.13901
-0.473191 -0.155476 1.12175
-0.321171 -0.155413 1.18816
-0.131897 -0.155393 1.27222
-0.167403 -0.15533 1.24489
-0.10223 -0.155267 1.26791
-0.355034 -0.155204 1.13195
-0.204478 -0.155154 1.19738
-0.396456 -0.155091 1.09186
-0.255795 -0.155027 1.15267
-0.347385 -0.15501 1.09624
-0.227705 -0.154947 1.14658
-0.348837 -0.154883 1.07652
-0.305043 -0.15482 1.08894
-0.329332 -0.154773 1.06691
-0.235124 -0.154709 1.10456
-0.347545 -0.154645 1.0389
-0.15627 -0.154613 1.12431
-0.197111 -0.154567 1.09401
-0.0902009 -0.154503 1.13804
-0.354784 -0.154439 0.996341
-0.238241 -0.154395 1.04471
-0.20606 -0.154331 1.05141
-0.165866 -0.154266 1.06213
-0.150089 -0.154202 1.06066
-0.282316 -0.154191 0.98382
-0.28013 -0.154127 0.975566
-0.441348 -0.154062 0.885621
-0.297847 -0.153997 0.948048
0.0399727 -0.153956 1.10703
-0.0470952 -0.153891 1.0542
-0.277214 -0.153826 0.929847
-0.234023 -0.153793 0.941327
-0.0861966 -0.153728 1.00597
-0.199179 -0.153689 0.939551
-0.281545 -0.153623 0.889117
-0.228335 -0.153558 0.906483
-0.369435 -0.153492 0.826706
-0.326041 -0.153487 0.837611
-0.200304 -0.153421 0.891269
-0.281846 -0.153355 0.8413
-0.263727 -0.153289 0.841174
-0.413305 -0.153253 0.756436
-0.375724 -0.153187 0.766061
-0.1812 -0.153154 0.853293
-0.166172 -0.153087 0.851661
-0.291485 -0.153021 0.779871
-0.21618 -0.152986 0.80757
-0.334585 -0.152919 0.739255
-0.119015 -0.152853 0.837939
-0.0829898 -0.15282 0.845965
-0.476411 -0.152753 0.640174
-0.163308 -0.152719 0.786768
-0.362991 -0.152652 0.677867
-0.325849 -0.152585 0.68739
-0.329323 -0.152518 0.676616
-0.218323 -0.152485 0.722175
-0.188684 -0.152418 0.727979
-0.28137 -0.152385 0.671682
-0.227612 -0.152318 0.689566
-0.135746 -0.15225 0.726517
-0.0836818 -0.152183 0.743578
-0.125925 -0.152149 0.71256
-0.278188 -0.152115 0.626537
0.0361999 -0.15205 0.774721
-0.127239 -0.151982 0.684073
-0.28295 -0.151914 0.5973
-0.379829 -0.151846 0.539956
-0.116019 -0.151812 0.66201
-0.195157 -0.151778 0.612594
-0.271071 -0.151714 0.565651
-0.329081 -0.151646 0.527783
-0.234048 -0.151578 0.566449
-0.309375 -0.151543 0.51897
-0.0827547 -0.151475 0.62345
-0.0968416 -0.151407 0.607589
-0.291881 -0.151378 0.500124
-0.536538 -0.151309 0.368999
-0.205556 -0.151274 0.524711
-0.155978 -0.151206 0.540724
-0.119947 -0.151137 0.549977
-0.395143 -0.151068 0.403628
-0.150382 -0.150999 0.517269
-0.155207 -0.150964 0.505118
-0.239117 -0.150936 0.453234
-0.107516 -0.150867 0.510325
-0.0329034 -0.150798 0.538935
-0.180112 -0.150728 0.456647
-0.215414 -0.150693 0.429294
-0.142891 -0.150624 0.456893
-0.0789686 -0.150554 0.480204
-0.299973 -0.150484 0.361064
-0.398915 -0.150458 0.301683
-0.198259 -0.150423 0.392347
-0.0187617 -0.150353 0.473487
-0.115158 -0.150283 0.416694
-0.201708 -0.150213 0.364836
-0.0686484 -0.150177 0.421733
-0.0482199 -0.150107 0.423386
-0.0338313 -0.150037 0.422031
0.17316 -0.149966 0.516991
-0.0147246 -0.149896 0.414525
-0.30586 -0.149861 0.259366
-0.372104 -0.149825 0.216658
-0.1099 -0.149764 0.338981
-0.310255 -0.149693 0.230323
-0.267024 -0.149658 0.242375
-0.273663 -0.149587 0.230597
-0.459791 -0.149516 0.129086
-0.248164 -0.149445 0.226465
-0.0410786 -0.149374 0.321587
-0.127823 -0.149338 0.268693
-0.0768138 -0.149267 0.285798
-0.0854828 -0.149196 0.273077
-0.0216036 -0.149124 0.296643
0.0120924 -0.149088 0.304002
-0.213705 -0.149017 0.182751
-0.0954978 -0.148945 0.233515
-0.213961 -0.148873 0.165957
-0.210955 -0.148838 0.158004
-0.143196 -0.148766 0.183579
-0.12325 -0.148694 0.18526
-0.102113 -0.148622 0.18755
-0.143824 -0.148632 0.155779
-0.249495 -0.14856 0.0946831
-0.136676 -0.148488 0.142844
-0.0398231 -0.148416 0.183036
0.0517077 -0.148379 0.219406
0.0169047 -0.148307 0.193792
-0.387157 -0.148235 -0.0164395
-0.122809 -0.148162 0.107547
-0.179981 -0.148126 0.0695998
-0.1405 -0.148053 0.0811751
-0.0790621 -0.14798 0.103742
-0.0245589 -0.147944 0.121656
-0.146956 -0.147871 0.0523271
-0.11847 -0.147798 0.0584532
-0.313772 -0.147725 -0.0473018
-0.303602 -0.147688 -0.0515209
0.0116573 -0.147615 0.098027
-0.35932 -0.150925 2.24157
-0.38019 -0.150513 2.22648
-0.426973 -0.150254 2.19588
-0.314974 -0.149997 2.24466
-0.231078 -0.149886 2.27689
-0.142427 -0.149724 2.3124
-0.1687 -0.149614 2.28956
-0.0963973 -0.149436 2.31723
-0.390293 -0.14926 2.1618
-0.370418 -0.149153 2.16205
-0.165568 -0.149046 2.2548
-0.336976 -0.14896 2.15906
-0.221311 -0.148854 2.20723
-0.499649 -0.148749 2.05841
-0.0977241 -0.148644 2.24972
-0.428552 -0.14854 2.07467
-0.457615 -0.148436 2.0505
-0.261781 -0.148333 2.13879
-0.221692 -0.148231 2.1492
-0.432554 -0.148152 2.03372
-0.277561 -0.148051 2.10159
-0.329574 -0.148005 2.06495
-0.146919 -0.147905 2.14667
-0.0470065 -0.147805 2.18701
-0.391201 -0.147707 2.0053
-0.20354 -0.147658 2.08858
-0.296526 -0.14756 2.0325
-0.238434 -0.147463 2.05195
-0.269955 -0.147413 2.02569
-0.380079 -0.147317 1.96105
-0.300175 -0.147221 1.99142
-0.44668 -0.147169 1.90774
-0.273251 -0.147074 1.98489
-0.208348 -0.147022 2.00693
-0.323498 -0.146954 1.93929
-0.406759 -0.146902 1.88727
-0.563615 -0.146809 1.79928
-0.56732 -0.146757 1.78706
-0.101377 -0.146666 2.01047
-0.178088 -0.146576 1.96254
-0.392282 -0.146523 1.84511
-0.377079 -0.146434 1.84314
-0.54971 -0.146382 1.74652
-0.26122 -0.146294 1.88118
-0.188682 -0.146242 1.90716
-0.29949 -0.146156 1.84217
-0.481684 -0.146103 1.74082
-0.277039 -0.146045 1.833
-0.158879 -0.145992 1.88184
-0.252842 -0.145908 1.82526
-0.064001 -0.145855 1.90946
-0.357152 -0.145774 1.75328
-0.288022 -0.14572 1.77765
-0.336675 -0.145667 1.74313
-0.174011 -0.145587 1.81486
-0.290897 -0.145533 1.74626
-0.0954264 -0.145454 1.83438
-0.172962 -0.1454 1.78547
-0.354631 -0.145347 1.68451
-0.273524 -0.145293 1.71494
-0.18594 -0.145239 1.74862
-0.263139 -0.145166 1.70033
-0.215519 -0.145112 1.71405
-0.399599 -0.145037 1.61238
-0.219385 -0.144983 1.69241
-0.39999 -0.14491 1.59247
-0.33048 -0.144856 1.61718
-0.401348 -0.144784 1.57209
-0.386432 -0.14473 1.56952
-0.430042 -0.144692 1.53732
-0.354061 -0.144632 1.56542
-0.0524671 -0.144578 1.70622
-0.491477 -0.144523 1.47673
-0.313121 -0.144454 1.55624
-0.266091 -0.144399 1.56979
-0.226295 -0.144332 1.58001
-0.470387 -0.144277 1.44802
-0.342697 -0.144222 1.50193
-0.114693 -0.144167 1.60601
-0.460054 -0.144111 1.42342
0.0429062 -0.144056 1.665
-0.290984 -0.144 1.48817
-0.384942 -0.143954 1.4311
-0.204926 -0.143891 1.5114
-0.388273 -0.143836 1.40986
-0.419863 -0.14378 1.38422
-0.192071 -0.143719 1.4884
-0.450741 -0.143663 1.34923
-0.261256 -0.143612 1.43403
-0.21202 -0.143556 1.44885
-0.657856 -0.143519 1.21566
-0.156615 -0.143463 1.45649
-0.322274 -0.143405 1.36393
-0.470265 -0.143349 1.28016
-0.564923 -0.143292 1.22308
-0.293939 -0.143236 1.34882
-0.306807 -0.143179 1.33265
-0.0295227 -0.143123 1.46157
-0.172167 -0.143066 1.38054
-0.424055 -0.143037 1.24418
-0.409349 -0.14298 1.24184
-0.159458 -0.142924 1.3571
-0.205905 -0.142866 1.32421
-0.233031 -0.142811 1.30093
-0.309015 -0.142754 1.25329
-0.190825 -0.142697 1.30274
-0.275683 -0.142668 1.24996
-0.441544 -0.142614 1.15732
-0.370661 -0.142557 1.18315
-0.508021 -0.142499 1.10487
-0.0787082 -0.142447 1.3098
-0.149925 -0.142389 1.26461
-0.226167 -0.142331 1.21692
-0.367 -0.14228 1.13676
0.000312324 -0.142251 1.31012
-0.297619 -0.142193 1.15162
-0.33912 -0.142135 1.12134
-0.149108 -0.142086 1.2066
-0.385147 -0.142028 1.07907
-0.30882 -0.141969 1.10774
-0.348202 -0.141921 1.07829
-0.207198 -0.141892 1.13854
-0.0774592 -0.141834 1.19395
-0.227263 -0.141775 1.10959
-0.276018 -0.141728 1.07544
0.119113 -0.14167 1.26358
-0.135565 -0.141611 1.12682
-0.335267 -0.141552 1.01756
-0.0846915 -0.141536 1.13227
-0.289584 -0.141477 1.02043
-0.342038 -0.141418 0.984824
-0.377826 -0.141359 0.95756
-0.39344 -0.141315 0.939968
-0.336556 -0.141256 0.959062
0.058488 -0.141197 1.14725
-0.119061 -0.141137 1.04915
-0.0356038 -0.141125 1.08026
-0.0837038 -0.141065 1.0469
-0.141931 -0.141005 1.00849
0.00698929 -0.140945 1.07367
-0.338957 -0.140905 0.89089
-0.108092 -0.140845 0.99706
-0.13326 -0.140815 0.97438
-0.0201351 -0.140755 1.0217
-0.252881 -0.140694 0.896095
-0.0670906 -0.140655 0.979183
-0.192445 -0.140595 0.907296
-0.320534 -0.140534 0.834053
0.00240702 -0.140504 0.985473
-0.16998 -0.140466 0.88946
-0.293184 -0.140405 0.818689
-0.39063 -0.140345 0.760808
-0.22035 -0.140284 0.836803
-0.0618571 -0.140223 0.906916
-0.0106195 -0.140217 0.92183
-0.350277 -0.140156 0.742885
-0.232704 -0.140095 0.792568
-0.0703825 -0.140034 0.864636
-0.274316 -0.139973 0.753589
-0.0835468 -0.139937 0.83915
-0.0620733 -0.139906 0.839922
-0.350977 -0.139845 0.68642
-0.183772 -0.139784 0.760984
-0.327524 -0.139722 0.680081
-0.286061 -0.139688 0.690983
-0.235717 -0.139626 0.70715
-0.0256938 -0.139595 0.802242
-0.109204 -0.139534 0.751502
-0.0507372 -0.139472 0.771762
-0.215761 -0.13941 0.68029
0.055971 -0.139377 0.80633
-0.298003 -0.139346 0.619461
-0.353731 -0.139284 0.582666
-0.0952128 -0.139221 0.703006
-0.301887 -0.139159 0.590762
-0.210519 -0.139097 0.627551
-0.424322 -0.139065 0.510827
-0.298201 -0.139034 0.564051
-0.138768 -0.138971 0.634902
-0.476736 -0.138908 0.457065
-0.3723 -0.138846 0.500443
-0.0483767 -0.138783 0.653576
-0.343455 -0.138752 0.49624
-0.366827 -0.13872 0.474762
-0.0751611 -0.138658 0.611775
-0.326928 -0.138595 0.477105
-0.12663 -0.138532 0.56848
-0.187416 -0.1385 0.528327
-0.0846859 -0.138437 0.570939
-0.153948 -0.138374 0.527568
-0.302611 -0.13831 0.444509
0.145151 -0.13828 0.658596
0.0356966 -0.138249 0.594146
-0.229788 -0.138185 0.452706
-0.0893704 -0.138121 0.514229
-0.114644 -0.138058 0.492919
-0.331197 -0.137994 0.375982
-0.267888 -0.137962 0.397954
-0.190622 -0.137898 0.427947
-0.117589 -0.137834 0.455837
-0.194644 -0.137802 0.407649
-0.200213 -0.137773 0.395103
-0.277705 -0.137709 0.34776
-0.2272 -0.137645 0.364429
-0.154986 -0.13758 0.391965
-0.00169801 -0.137516 0.46005
-0.194624 -0.137484 0.353973
-0.179174 -0.137419 0.353161
-0.194429 -0.137355 0.337008
-0.411372 -0.13729 0.220025
-0.331426 -0.137258 0.250416
-0.101699 -0.137193 0.356789
-0.181154 -0.13716 0.307495
0.167429 -0.1371 0.473165
-0.240507 -0.137035 0.26074
-0.134436 -0.137002 0.304232
-0.168045 -0.136937 0.278993
-0.369859 -0.136872 0.169664
-0.0904764 -0.136807 0.300946
-0.279276 -0.136774 0.197035
0.0933499 -0.136709 0.37496
-0.345063 -0.136643 0.147379
-0.0845332 -0.136578 0.269282
-0.226557 -0.136545 0.188791
-0.0288325 -0.136479 0.279314
-0.200524 -0.136413 0.185141
-0.266047 -0.136348 0.144065
-0.394715 -0.136315 0.0702843
-0.0924178 -0.136249 0.21314
-0.000880181 -0.136183 0.250629
-0.346194 -0.136117 0.0697056
-0.209668 -0.136083 0.128556
-0.22442 -0.136017 0.112935
-0.0727424 -0.135951 0.180541
0.0656266 -0.135918 0.240337
-0.222565 -0.13589 0.0866583
-0.251187 -0.135824 0.0641467
-0.16622 -0.135757 0.0984418
-0.384596 -0.135691 -0.0189212
-0.0550846 -0.135657 0.136484
-0.236623 -0.135591 0.0375619
-0.245074 -0.135524 0.0251967
-0.148494 -0.13549 0.0641603
-0.275159 -0.135424 -0.00729023
-0.131431 -0.135357 0.0564692
-0.286465 -0.13529 -0.0291394
-0.212527 -0.135256 -0.00146389
-0.352473 -0.135189 -0.079506
-0.00927904 -0.137237 2.38081
-0.196898 -0.136793 2.28378
-0.0725887 -0.136555 2.33882
-0.0881481 -0.136385 2.32265
-0.22155 -0.136151 2.24884
-0.226139 -0.136049 2.2369
-0.0207423 -0.135966 2.3296
-0.417989 -0.135802 2.12259
-0.501015 -0.135639 2.07268
-0.406489 -0.135539 2.11034
-0.446314 -0.13544 2.08083
-0.314034 -0.135341 2.13738
-0.320129 -0.135242 2.12475
-0.242461 -0.135164 2.1536
-0.608828 -0.135066 1.96085
-0.242908 -0.134969 2.13424
-0.0513859 -0.134872 2.22045
-0.0303678 -0.134776 2.2214
-0.27563 -0.134681 2.08922
-0.416208 -0.134586 2.00939
-0.385937 -0.134492 2.01498
-0.399053 -0.134448 1.99785
-0.23062 -0.134354 2.07255
-0.310828 -0.134284 2.02245
-0.348955 -0.134216 1.99334
-0.0631454 -0.134146 2.12626
-0.363311 -0.134054 1.96667
-0.213066 -0.134008 2.03133
-0.176184 -0.133916 2.04028
-0.366918 -0.133826 1.93542
-0.305596 -0.133779 1.95567
-0.246397 -0.13369 1.97577
-0.261548 -0.133642 1.95781
-0.261255 -0.133554 1.94847
-0.343057 -0.133467 1.89806
-0.368952 -0.13342 1.87476
-0.462682 -0.133334 1.8184
-0.441571 -0.133286 1.81862
-0.412423 -0.133225 1.82317
-0.281237 -0.133177 1.87845
-0.408511 -0.133094 1.80531
-0.434211 -0.133046 1.78217
-0.18524 -0.132964 1.89715
-0.335134 -0.132916 1.81194
-0.309369 -0.132835 1.81531
-0.13312 -0.132786 1.8932
-0.280165 -0.132706 1.81016
-0.208152 -0.132658 1.83595
-0.278451 -0.132579 1.79129
-0.396077 -0.132531 1.72228
-0.303536 -0.132478 1.75846
-0.350154 -0.132429 1.72497
-0.40403 -0.132353 1.68851
-0.324301 -0.132304 1.71821
-0.19734 -0.13223 1.77216
-0.267287 -0.132181 1.72705
-0.416047 -0.132132 1.64255
-0.230866 -0.132058 1.72561
-0.369762 -0.132009 1.64606
-0.336262 -0.131937 1.65327
-0.52454 -0.131888 1.54905
-0.387024 -0.131838 1.60774
-0.23232 -0.131789 1.67503
-0.322141 -0.131739 1.62007
-0.104723 -0.131673 1.71915
-0.287275 -0.131624 1.61784
-0.374456 -0.131555 1.56469
-0.459598 -0.131506 1.51211
-0.490169 -0.131439 1.48725
-0.18475 -0.131389 1.62998
-0.226858 -0.131339 1.59895
-0.227833 -0.131289 1.5885
-0.120054 -0.131239 1.63244
-0.392291 -0.131189 1.48638
-0.25746 -0.131134 1.54396
-0.337278 -0.131084 1.49413
-0.271041 -0.131021 1.51765
-0.220321 -0.130971 1.53311
-0.283495 -0.13092 1.49163
-0.37477 -0.13087 1.43612
-0.566556 -0.130819 1.33036
-0.243801 -0.130768 1.48188
-0.153111 -0.130717 1.51737
-0.218674 -0.130672 1.47461
-0.294094 -0.130621 1.42707
-0.239324 -0.130563 1.44484
-0.295188 -0.130512 1.4071
-0.328263 -0.130454 1.38093
-0.163092 -0.130409 1.45357
-0.192407 -0.130358 1.42914
-0.290401 -0.130306 1.37038
-0.0853776 -0.130255 1.46314
-0.368206 -0.130219 1.31157
-0.343741 -0.130167 1.31407
-0.159556 -0.130113 1.39652
-0.259662 -0.130061 1.33675
-0.12918 -0.130009 1.39229
-0.357597 -0.129958 1.26839
-0.357243 -0.129906 1.25889
-0.125119 -0.129878 1.3646
-0.452033 -0.129826 1.19149
-0.246026 -0.129774 1.28484
-0.219268 -0.129722 1.28858
-0.272692 -0.12967 1.25224
-0.310274 -0.129618 1.22384
0.14784 -0.129565 1.44328
-0.280251 -0.129513 1.21964
-0.213163 -0.129487 1.24286
-0.0459453 -0.129434 1.31689
-0.235424 -0.129383 1.21253
-0.116183 -0.129331 1.2626
0.170543 -0.129278 1.39642
-0.225537 -0.129229 1.18874
-0.265717 -0.129176 1.15913
-0.143662 -0.129123 1.21065
-0.387598 -0.129096 1.07842
-0.177117 -0.129048 1.17402
-0.254349 -0.128995 1.12592
-0.393084 -0.128942 1.04709
-0.0910886 -0.128895 1.18843
-0.21293 -0.128842 1.11806
-0.189776 -0.128815 1.11942
-0.0951365 -0.128761 1.15731
-0.305498 -0.128716 1.04247
-0.352046 -0.128663 1.00979
-0.415113 -0.128609 0.968861
-0.542592 -0.128555 0.895738
0.00738898 -0.128511 1.16106
-0.365025 -0.128484 0.964684
-0.404409 -0.12843 0.935639
-0.0864809 -0.128376 1.08526
-0.333273 -0.128333 0.952188
-0.276368 -0.128279 0.97132
-0.469047 -0.128225 0.865672
-0.092908 -0.128171 1.04444
-0.409958 -0.128143 0.8758
-0.225747 -0.128102 0.958229
-0.256687 -0.128047 0.933491
-0.372615 -0.127993 0.866272
-0.294224 -0.127938 0.896223
-0.307944 -0.127898 0.879678
-0.259596 -0.127871 0.893777
-0.136872 -0.127816 0.945924
-0.401732 -0.127761 0.804292
0.00126398 -0.127706 0.996598
-0.3792 -0.127667 0.79668
-0.294129 -0.127612 0.830046
-0.286002 -0.127584 0.824079
-0.185261 -0.127529 0.8653
-0.364785 -0.127474 0.7664
-0.237634 -0.127436 0.820287
-0.0550045 -0.127381 0.902485
-0.306388 -0.127325 0.767689
-0.487054 -0.127297 0.667371
-0.219318 -0.127242 0.792155
-0.180778 -0.127205 0.801733
-0.262089 -0.12715 0.752014
-0.199599 -0.127094 0.774209
-0.289034 -0.127038 0.720452
-0.093408 -0.12701 0.808325
-0.380123 -0.126975 0.655272
-0.0831775 -0.126919 0.794735
0.0659125 -0.126862 0.860284
-0.0577679 -0.126806 0.789459
0.00980663 -0.12675 0.814273
-0.38673 -0.126722 0.60611
-0.298843 -0.126688 0.640362
-0.156213 -0.126631 0.702735
-0.210359 -0.126575 0.666731
-0.325449 -0.126518 0.600268
-0.409986 -0.12649 0.548141
-0.247283 -0.126433 0.620595
-0.329292 -0.1264 0.569903
-0.207328 -0.126343 0.622009
0.00137205 -0.126286 0.717495
-0.1888 -0.126258 0.612588
-0.11344 -0.126201 0.641425
-0.177049 -0.126144 0.60079
0.0187746 -0.126087 0.689883
-0.450594 -0.126055 0.445524
0.12576 -0.126026 0.723918
-0.0884521 -0.125969 0.608023
-0.0245196 -0.125911 0.631213
-0.280878 -0.125854 0.49427
-0.295308 -0.125796 0.478304
0.0523219 -0.125768 0.642375
-0.273088 -0.12571 0.47094
-0.354169 -0.125679 0.420743
-0.403989 -0.125621 0.387124
-0.248547 -0.125563 0.456149
-0.133752 -0.125534 0.503841
-0.33185 -0.125477 0.396116
-0.225065 -0.125418 0.440846
-0.112657 -0.12536 0.4884
-0.248363 -0.125302 0.411909
0.151592 -0.125273 0.602222
-0.0273137 -0.125243 0.503139
-0.115872 -0.125185 0.450252
-0.548316 -0.125126 0.225436
-0.134898 -0.125097 0.422509
-0.244951 -0.125039 0.358908
-0.172298 -0.12498 0.386674
-0.20744 -0.124922 0.360555
-0.314553 -0.124863 0.298463
-0.249751 -0.124833 0.321269
-0.199734 -0.124775 0.337763
-0.0529918 -0.124716 0.402633
-0.113374 -0.124657 0.363953
-0.362425 -0.124657 0.228764
-0.32321 -0.124598 0.239901
-0.00208116 -0.124539 0.392008
0.0495299 -0.12448 0.409368
-0.103592 -0.12445 0.323273
-0.325368 -0.124391 0.203961
-0.16302 -0.124332 0.276725
-0.19997 -0.124272 0.249851
-0.320241 -0.124242 0.180214
-0.643081 -0.124183 0.0104177
-0.178911 -0.124123 0.234139
-0.322637 -0.124064 0.153925
-0.247137 -0.124034 0.182207
-0.187172 -0.123974 0.20386
-0.366163 -0.123914 0.106049
-0.243055 -0.123854 0.159299
-0.170208 -0.123824 0.186287
-0.0727924 -0.123764 0.226713
-0.212872 -0.123704 0.148405
-0.0652121 -0.123644 0.213979
-0.144749 -0.123614 0.164808
-0.277651 -0.123585 0.0889025
-0.106922 -0.123525 0.166042
-0.320009 -0.123464 0.0512877
0.0104783 -0.123434 0.207158
0.213245 -0.123374 0.300352
-0.227806 -0.123313 0.0716501
-0.124378 -0.123253 0.115201
0.0658116 -0.123222 0.200955
-0.165594 -0.123162 0.0771111
-0.179032 -0.123101 0.0622637
-0.297332 -0.12307 -0.00620271
-0.236411 -0.12301 0.0161521
0.0729471 -0.122949 0.162738
-0.276388 -0.122888 -0.0200094
-0.394418 -0.122857 -0.0883075
-0.449533 -0.122796 -0.123922
-0.0904803 -0.123136 2.30145
-0.182503 -0.122919 2.24844
-0.452377 -0.122704 2.1065
-0.165512 -0.122551 2.24164
-0.195833 -0.122398 2.2182
-0.536704 -0.122247 2.03947
-0.31113 -0.122172 2.14231
-0.227994 -0.122079 2.17434
-0.102475 -0.121932 2.2288
-0.194854 -0.12184 2.17309
-0.247242 -0.121749 2.13738
-0.0692109 -0.121658 2.21689
-0.171372 -0.121568 2.15632
-0.457767 -0.121477 2.00363
-0.210223 -0.121407 2.11748
-0.34883 -0.121318 2.0387
-0.34517 -0.12123 2.03105
-0.15252 -0.121142 2.11791
-0.126039 -0.121101 2.12059
-0.41539 -0.121013 1.96647
-0.216818 -0.120926 2.05632
-0.227355 -0.12084 2.04161
-0.290876 -0.120797 1.99937
-0.237984 -0.120711 2.0164
-0.0180995 -0.120626 2.11691
-0.200694 -0.120542 2.01618
-0.201498 -0.120499 2.00536
-0.35112 -0.120437 1.92061
-0.256823 -0.120394 1.95736
-0.276822 -0.120312 1.93794
-0.369913 -0.120269 1.88102
-0.411651 -0.120187 1.85073
-0.515409 -0.120107 1.78942
-0.24455 -0.120064 1.91451
-0.198801 -0.119984 1.92796
-0.377375 -0.119941 1.82836
-0.255751 -0.119862 1.87975
-0.290892 -0.119819 1.85188
-0.38818 -0.119741 1.79382
-0.0138759 -0.119665 1.97153
-0.292967 -0.119622 1.82173
-0.339548 -0.119578 1.78819
-0.0959938 -0.119524 1.89999
-0.402943 -0.119481 1.73629
-0.122682 -0.119406 1.86699
-0.11843 -0.119363 1.85891
-0.396959 -0.119289 1.71021
-0.256339 -0.119245 1.77034
-0.403556 -0.119173 1.6873
-0.571118 -0.119129 1.59336
-0.129653 -0.119058 1.80465
-0.304962 -0.119014 1.70686
-0.509129 -0.118966 1.59474
-0.361692 -0.118922 1.65835
-0.361003 -0.118853 1.64923
-0.393626 -0.118809 1.62283
-0.249536 -0.118741 1.68541
-0.425577 -0.118697 1.58732
-0.391292 -0.118652 1.5944
-0.644548 -0.118586 1.45831
-0.260683 -0.118541 1.64021
-0.219714 -0.118476 1.65122
-0.301775 -0.118451 1.59961
-0.389718 -0.118407 1.54564
-0.246376 -0.118345 1.60778
-0.308464 -0.1183 1.56675
-0.346171 -0.118237 1.53841
-0.16137 -0.118192 1.62085
-0.336092 -0.118146 1.52353
-0.262415 -0.118085 1.55089
-0.525701 -0.118039 1.40932
-0.250413 -0.117994 1.53704
-0.540952 -0.117949 1.38186
-0.519419 -0.117903 1.38273
-0.174516 -0.117852 1.54545
-0.131901 -0.117806 1.55688
-0.263379 -0.11776 1.48128
-0.2849 -0.117702 1.46101
-0.192002 -0.117657 1.49761
-0.494363 -0.1176 1.33691
-0.175012 -0.117565 1.48645
-0.0890275 -0.117519 1.51963
-0.368544 -0.117473 1.37006
-0.312597 -0.117429 1.38816
-0.281086 -0.117383 1.39413
-0.484263 -0.117329 1.28301
-0.0661342 -0.117283 1.48231
-0.466534 -0.117236 1.27236
-0.191831 -0.11719 1.39997
-0.30127 -0.117143 1.33552
-0.0345713 -0.117113 1.45865
-0.353097 -0.117062 1.28984
-0.227882 -0.117015 1.34274
-0.410998 -0.116968 1.2415
-0.316351 -0.116918 1.27926
-0.177802 -0.116871 1.33887
-0.35347 -0.116824 1.24138
-0.0975183 -0.116781 1.35959
0.0299579 -0.116733 1.4137
-0.342801 -0.116704 1.21716
-0.273388 -0.116657 1.24225
-0.316451 -0.116609 1.21114
-0.0393268 -0.116561 1.34011
-0.35548 -0.116514 1.17245
-0.122767 -0.116467 1.27924
-0.154977 -0.11642 1.25355
-0.128645 -0.116395 1.25644
-0.184132 -0.116348 1.21916
-0.638937 -0.1163 0.982225
-0.246334 -0.116252 1.16901
-0.295788 -0.116205 1.13476
-0.402377 -0.116157 1.07197
-0.210347 -0.116109 1.1585
-0.309835 -0.116061 1.09928
-0.266769 -0.116039 1.11051
-0.0289972 -0.115991 1.21994
-0.229096 -0.115943 1.11045
-0.127503 -0.115895 1.15181
-0.462196 -0.11585 0.97493
-0.259973 -0.115802 1.06663
-0.299046 -0.115778 1.0369
-0.205052 -0.115729 1.07451
-0.495636 -0.115686 0.919673
-0.529835 -0.115637 0.893205
-0.367536 -0.115589 0.964998
-0.29796 -0.115546 0.99023
-0.296051 -0.115522 0.981032
-0.115618 -0.115473 1.06192
-0.500096 -0.115424 0.860367
-0.350886 -0.115375 0.925669
-0.088712 -0.115334 1.0472
-0.376528 -0.115285 0.894011
-0.372923 -0.115236 0.886543
-0.269004 -0.115211 0.928404
-0.249047 -0.115171 0.928818
-0.231328 -0.115122 0.928437
-0.434734 -0.115073 0.817506
0.0361788 -0.115023 1.04375
-0.328218 -0.114974 0.852342
-0.410318 -0.11496 0.80087
0.0314892 -0.11491 1.01259
-0.00873044 -0.114861 0.983302
-0.410768 -0.114811 0.77312
-0.492255 -0.114761 0.723225
-0.208189 -0.114723 0.855695
-0.0750548 -0.114699 0.912252
-0.373569 -0.114649 0.753874
-0.0452778 -0.114599 0.90891
-0.0571406 -0.114549 0.893881
-0.225976 -0.114512 0.799898
-0.270128 -0.114462 0.768747
-0.377109 -0.114437 0.705292
-0.405629 -0.114386 0.681977
-0.390477 -0.114336 0.680509
-0.417968 -0.114301 0.657196
-0.124779 -0.11425 0.794769
-0.283344 -0.114225 0.705559
-0.0723341 -0.114174 0.802063
-0.572261 -0.114124 0.54311
-0.411955 -0.114073 0.614286
-0.149938 -0.114039 0.735733
-0.337002 -0.113988 0.633246
-0.188493 -0.113963 0.697618
-0.0587882 -0.113912 0.753536
-0.519137 -0.113861 0.51444
-0.273304 -0.11381 0.628446
0.00172071 -0.113776 0.756402
-0.103142 -0.113751 0.694126
-0.0844744 -0.1137 0.69458
-0.30112 -0.113648 0.57739
-0.0403771 -0.113597 0.698906
-0.0524148 -0.113546 0.684044
-0.266553 -0.11352 0.56717
0.314159 -0.113488 0.84798
-0.317504 -0.113436 0.523336
0.0858582 -0.113385 0.716217
-0.243189 -0.113333 0.542905
-0.332917 -0.113307 0.488274
-0.178798 -0.113255 0.556566
-0.235771 -0.113204 0.519325
0.00276693 -0.113152 0.629852
-0.117254 -0.11312 0.560318
-0.138675 -0.113094 0.539878
-0.0995015 -0.113042 0.550753
-0.248258 -0.11299 0.467676
-0.299309 -0.112938 0.433464
-0.354673 -0.112886 0.397107
-0.268251 -0.11286 0.430629
-0.0249838 -0.112808 0.54361
-0.120521 -0.112755 0.4872
-0.288062 -0.112725 0.393935
-0.106793 -0.112698 0.47491
-0.237688 -0.112646 0.400852
-0.0484175 -0.112593 0.48689
-0.315406 -0.112541 0.344811
-0.288961 -0.112488 0.349461
-0.107581 -0.112462 0.430532
-0.127503 -0.112409 0.41202
-0.371579 -0.112356 0.281444
-0.283638 -0.112303 0.316889
-0.35582 -0.112277 0.271211
-0.251097 -0.112247 0.314121
-0.207637 -0.112194 0.327356
-0.141811 -0.112141 0.351787
-0.182569 -0.112114 0.321851
-0.32394 -0.112061 0.242705
-0.0270452 -0.112008 0.382704
-0.0939101 -0.111954 0.340837
-0.0865106 -0.111901 0.336115
-0.0826728 -0.111874 0.328517
-0.102535 -0.111821 0.310186
-0.11064 -0.111767 0.297746
-0.15117 -0.111714 0.269106
-0.113598 -0.111687 0.278408
0.0181274 -0.111633 0.335918
-0.0767837 -0.111579 0.280122
-0.266015 -0.111525 0.177179
-0.127203 -0.111498 0.237134
-0.188155 -0.111469 0.197301
-0.328233 -0.111415 0.118966
-0.235825 -0.111361 0.156886
-0.167313 -0.111334 0.181721
-0.399121 -0.11128 0.0575563
-0.344546 -0.111226 0.0765954
-0.0843066 -0.111199 0.197318
-0.302343 -0.111145 0.0800734
-0.340897 -0.11109 0.0525829
-0.344469 -0.111036 0.0425962
-0.116881 -0.111009 0.147027
-0.218692 -0.110954 0.0879427
-0.209401 -0.1109 0.0844224
-0.192673 -0.110845 0.0846343
-0.231139 -0.110818 0.0560701
-0.314695 -0.110763 0.00616212
-0.138403 -0.110708 0.0861907
-0.078824 -0.110653 0.107876
-0.391283 -0.110626 -0.0576507
-0.179744 -0.110571 0.0400371
-0.572803 -0.110516 -0.164561
-0.323987 -0.110488 -0.0494268
-0.402887 -0.110433 -0.0969234
-0.294444 -0.109577 2.16138
-0.344728 -0.109275 2.132
-0.372803 -0.109081 2.11108
-0.330349 -0.108943 2.12411
-0.149928 -0.108753 2.20743
-0.15996 -0.108668 2.19293
0.0936954 -0.108532 2.31157
-0.159674 -0.108465 2.17499
-0.214397 -0.108381 2.13818
-0.0662423 -0.108298 2.20282
-0.211823 -0.108166 2.12183
-0.286466 -0.108084 2.07509
-0.33246 -0.108001 2.04267
-0.376742 -0.107919 2.01112
-0.301885 -0.107838 2.03915
-0.337002 -0.107757 2.0122
-0.256239 -0.10772 2.04205
-0.262384 -0.107657 2.02912
-0.114538 -0.107577 2.09367
0.0343941 -0.107497 2.15877
-0.259744 -0.107459 2.00124
-0.525185 -0.10738 1.85916
-0.366031 -0.107302 1.92938
-0.113861 -0.107224 2.0461
-0.266704 -0.107186 1.95926
0.0224616 -0.107109 2.09449
-0.406225 -0.107033 1.87079
-0.320843 -0.106995 1.9031
-0.230388 -0.10692 1.93897
-0.480376 -0.106845 1.80462
-0.237385 -0.106807 1.91577
-0.399398 -0.106753 1.82488
0.0221712 -0.106714 2.02534
-0.199457 -0.106641 1.90517
-0.26733 -0.106603 1.86093
-0.228128 -0.106531 1.87118
-0.307998 -0.106492 1.82097
-0.186637 -0.106421 1.8723
-0.406076 -0.106351 1.75322
-0.304989 -0.106312 1.79353
-0.34401 -0.106243 1.76466
-0.138909 -0.106204 1.85699
-0.590579 -0.106136 1.62179
-0.141043 -0.106097 1.83637
-0.154784 -0.106049 1.81956
-0.0794196 -0.10601 1.84707
-0.246624 -0.105944 1.7541
-0.358496 -0.105904 1.68801
-0.116907 -0.105839 1.79944
-0.370996 -0.1058 1.66226
-0.386333 -0.10576 1.64448
-0.372469 -0.105696 1.64205
-0.150045 -0.105656 1.74316
-0.23394 -0.105593 1.69185
-0.236736 -0.105553 1.68038
-0.228135 -0.105511 1.6747
-0.0959235 -0.105471 1.73075
-0.333805 -0.105431 1.60177
-0.613112 -0.10537 1.45274
-0.145888 -0.10533 1.67634
-0.152 -0.105269 1.6639
-0.337611 -0.105229 1.5611
-0.329123 -0.10517 1.55595
-0.223146 -0.10513 1.59897
-0.429021 -0.10509 1.48607
-0.0202693 -0.105052 1.68042
-0.277824 -0.105011 1.5417
-0.278657 -0.104954 1.53188
-0.419464 -0.104914 1.45156
-0.426408 -0.104873 1.43817
-0.156768 -0.104817 1.56359
-0.449182 -0.104777 1.4075
-0.232094 -0.104736 1.50616
-0.285607 -0.104695 1.46954
-0.500758 -0.104654 1.35211
-0.305523 -0.104606 1.44011
-0.36796 -0.104566 1.39905
-0.133066 -0.104525 1.50667
-0.42848 -0.104472 1.34955
-0.264703 -0.104431 1.42163
-0.208014 -0.10439 1.44018
-0.0184493 -0.104349 1.52518
-0.289929 -0.104307 1.37967
-0.358245 -0.104276 1.33542
-0.216596 -0.104225 1.39681
-0.165627 -0.104184 1.41256
-0.216294 -0.104143 1.3775
-0.38088 -0.104093 1.28576
-0.246073 -0.104051 1.34346
-0.271698 -0.10401 1.32095
-0.247503 -0.103976 1.32309
-0.152951 -0.103935 1.36069
-0.00525769 -0.103899 1.42467
-0.213484 -0.103851 1.3111
-0.201469 -0.103809 1.30746
-0.171213 -0.103768 1.31296
-0.134246 -0.103726 1.32182
-0.323022 -0.103684 1.21782
-0.247051 -0.103658 1.24563
-0.202343 -0.103616 1.25839
-0.121957 -0.103571 1.28912
-0.0953867 -0.103529 1.29283
-0.199405 -0.103486 1.23126
-0.199213 -0.103442 1.22188
-0.101744 -0.103402 1.26101
-0.186611 -0.103379 1.20836
-0.361114 -0.103336 1.1116
-0.208595 -0.103293 1.17837
-0.513442 -0.10325 1.01645
-0.421873 -0.103208 1.05276
-0.204636 -0.103165 1.1519
-0.403738 -0.103122 1.04289
-0.308264 -0.10308 1.08116
-0.345144 -0.103058 1.05252
-0.203968 -0.103015 1.11368
-0.229161 -0.102972 1.09166
-0.140319 -0.102929 1.12668
-0.382736 -0.102887 0.996043
-0.110817 -0.102844 1.12262
-0.287549 -0.102801 1.02488
-0.219801 -0.102779 1.04858
-0.243876 -0.102738 1.02712
-0.114038 -0.102694 1.08269
-0.119685 -0.102651 1.07054
-0.300192 -0.102607 0.970966
-0.174909 -0.102567 1.02417
-0.361043 -0.102546 0.920981
-0.258712 -0.102502 0.962857
-0.14066 -0.102458 1.01261
-0.105203 -0.102419 1.02089
-0.149985 -0.102375 0.989246
-0.236311 -0.102332 0.93684
-0.221658 -0.10231 0.934087
0.038092 -0.102266 1.05474
-0.472444 -0.102228 0.790029
-0.0386538 -0.102184 0.997723
-0.424132 -0.10214 0.795795
-0.231943 -0.102095 0.882711
-0.17586 -0.102073 0.900718
-0.38044 -0.102036 0.788987
-0.425862 -0.101992 0.757129
-0.346726 -0.101948 0.787562
-0.0520248 -0.101903 0.925789
-0.518551 -0.101859 0.683415
-0.0930694 -0.101845 0.885828
-0.365137 -0.101801 0.740701
-0.0407263 -0.101756 0.893826
-0.0978567 -0.101711 0.856192
-0.171536 -0.101667 0.810295
-0.315855 -0.101654 0.72779
-0.240001 -0.101609 0.756678
-0.284883 -0.101564 0.725211
-0.29293 -0.101519 0.712173
-0.367949 -0.101475 0.665661
-0.393138 -0.10143 0.644076
-0.279013 -0.101418 0.69078
-0.145773 -0.101373 0.748428
-0.259905 -0.101328 0.682402
-0.325515 -0.101283 0.640649
-0.421847 -0.101237 0.583548
-0.612268 -0.101215 0.47847
-0.387267 -0.101182 0.581542
-0.332917 -0.101136 0.599812
-0.414927 -0.101091 0.549914
-0.336342 -0.101045 0.580326
-0.0715344 -0.101022 0.7029
-0.308245 -0.100977 0.575685
-0.0163801 -0.100931 0.71277
-0.291153 -0.100899 0.565971
-0.169007 -0.100853 0.618219
-0.106536 -0.10083 0.639662
-0.31613 -0.100785 0.526061
-0.201143 -0.100739 0.574762
-0.0756435 -0.100693 0.628732
-0.123401 -0.100647 0.596086
-0.18802 -0.100638 0.553382
-0.111327 -0.100592 0.58298
-0.186502 -0.100546 0.536656
-0.368511 -0.1005 0.436927
-0.0513412 -0.100454 0.5868
-0.499887 -0.100431 0.352813
-0.408121 -0.100384 0.390006
-0.129793 -0.100338 0.520492
-0.0512786 -0.100291 0.551083
-0.202331 -0.100284 0.465161
-0.457399 -0.100238 0.32898
-0.103715 -0.100191 0.497187
-0.0880316 -0.100145 0.496407
-0.297582 -0.100098 0.383022
-0.326767 -0.100074 0.358786
0.0476823 -0.100028 0.537422
-0.146605 -0.0999808 0.431703
-0.298736 -0.0999339 0.347075
-0.269863 -0.0998869 0.352961
-0.191903 -0.0998634 0.382338
-0.493142 -0.0998339 0.222396
-0.110823 -0.0997868 0.405036
-0.220486 -0.0997396 0.341698
-0.32725 -0.099716 0.278743
-0.201308 -0.0996688 0.333229
-0.233498 -0.0996215 0.308661
-0.072341 -0.0995742 0.38078
-0.282979 -0.0995505 0.265921
-0.0887863 -0.0995031 0.354579
-0.220635 -0.0994556 0.280229
-0.0718217 -0.0994081 0.346223
-0.299977 -0.0993843 0.222637
-0.343697 -0.0993366 0.192387
-0.15241 -0.099289 0.279652
-0.284778 -0.0992601 0.204219
-0.216869 -0.0992362 0.228695
-0.377418 -0.0991884 0.140074
-0.401106 -0.0991406 0.119897
-0.0251685 -0.0990927 0.299544
-0.347162 -0.0990687 0.129102
-0.304637 -0.0990207 0.142066
-0.352912 -0.0989726 0.109642
-0.232013 -0.0989245 0.161819
-0.532184 -0.0989005 0.0023208
-0.431682 -0.0988523 0.0443206
-0.381092 -0.098804 0.0613773
-0.148034 -0.0987558 0.169681
-0.191754 -0.0987316 0.138441
-0.401274 -0.0986832 0.0254782
-0.10371 -0.0986348 0.16607
-0.115023 -0.0986105 0.151058
0.0636395 -0.098562 0.232221
-0.248295 -0.0985135 0.0680986
-0.277416 -0.0984648 0.0453959
-0.359936 -0.0984405 -0.00518618
-0.306779 -0.0983918 0.013272
-0.168965 -0.098343 0.0740722
-0.120206 -0.0982942 0.0903581
-0.0404919 -0.0982698 0.120926
-0.394047 -0.0982209 -0.0639226
-0.122042 -0.0981719 0.0640215
-0.218431 -0.0981475 0.006562
-0.170624 -0.0980984 0.0224295
-0.17249 -0.0957168 2.18021
-0.0511386 -0.0954521 2.23679
-0.297578 -0.0953289 2.10547
-0.304921 -0.0952064 2.09371
-0.298048 -0.0950846 2.08907
-0.186582 -0.0949638 2.13672
-0.360824 -0.0948882 2.04022
-0.327848 -0.0948285 2.04688
-0.049405 -0.0947102 2.17803
-0.301047 -0.0946356 2.04286
-0.258943 -0.0945613 2.05457
-0.270541 -0.0944872 2.03945
-0.246261 -0.0944134 2.04227
-0.197592 -0.0943399 2.0573
-0.225329 -0.0942667 2.03413
-0.284316 -0.0941938 1.99535
-0.359367 -0.0941221 1.94852
-0.0986455 -0.0940509 2.06957
-0.0541285 -0.0940176 2.08138
-0.249378 -0.0939637 1.97394
-0.244156 -0.0938937 1.96725
-0.0480258 -0.0938603 2.0549
-0.296234 -0.0937909 1.92151
-0.369128 -0.0937221 1.87577
-0.0672603 -0.0936885 2.01633
-0.217373 -0.0936204 1.93199
-0.359653 -0.093553 1.85156
-0.437307 -0.0935192 1.80239
-0.467793 -0.0934525 1.77787
-0.361325 -0.0933864 1.82182
-0.137254 -0.0933526 1.92355
-0.249682 -0.0932872 1.85805
-0.277131 -0.0932532 1.83405
-0.167464 -0.0932056 1.87905
-0.0453197 -0.0931716 1.92986
-0.192772 -0.0931077 1.84686
-0.322995 -0.0930736 1.77151
-0.194285 -0.0930104 1.82659
-0.368331 -0.0929481 1.73029
-0.155527 -0.0929139 1.82649
-0.363175 -0.0928523 1.71338
-0.41826 -0.0928179 1.67566
-0.594113 -0.0927572 1.57845
-0.439125 -0.0927227 1.64579
0.00339387 -0.0926801 1.85718
-0.0560523 -0.0926455 1.81732
0.0454613 -0.0925864 1.85879
-0.310344 -0.0925518 1.67078
-0.508878 -0.0924936 1.56222
-0.32403 -0.0924588 1.64456
-0.343989 -0.092424 1.6245
-0.338248 -0.0923666 1.61809
-0.176256 -0.0923317 1.68903
-0.192351 -0.0922752 1.67169
-0.254063 -0.0922402 1.6308
-0.461291 -0.092202 1.51728
-0.348708 -0.092167 1.56356
-0.197828 -0.0921318 1.629
-0.304515 -0.092077 1.56636
0.020909 -0.0920418 1.7191
-0.41655 -0.0919879 1.49107
-0.50813 -0.0919526 1.43532
-0.38593 -0.0918996 1.48711
-0.483885 -0.0918642 1.4282
-0.43494 -0.0918287 1.44276
-0.387002 -0.0917944 1.45677
-0.224251 -0.0917588 1.52824
-0.0993268 -0.0917232 1.58081
-0.297647 -0.091672 1.47235
-0.316437 -0.0916363 1.45308
-0.135116 -0.0915861 1.53443
-0.160109 -0.0915503 1.51208
-0.382828 -0.0915145 1.39089
-0.108552 -0.0914786 1.5182
-0.348715 -0.0914471 1.38814
-0.191338 -0.0914112 1.45702
-0.420844 -0.0913628 1.33294
-0.281977 -0.0913267 1.3926
-0.134472 -0.0912906 1.45658
-0.231317 -0.0912431 1.39883
-0.393463 -0.0912069 1.30801
-0.523391 -0.0911819 1.23287
-0.241214 -0.0911422 1.36436
-0.216468 -0.0911059 1.36702
-0.213932 -0.0910695 1.35858
-0.42461 -0.0910239 1.2439
-0.138554 -0.0909874 1.37725
-0.354197 -0.0909509 1.25975
