ply
format ascii 1.0
comment Created by Open3D
element vertex 1687
property double x
property double y
property double z
end_header
-0.309117 -0.17596 2.22052
-0.28619 -0.175842 2.22218
-0.27672 -0.175726 2.21711
-0.312235 -0.17561 2.18956
-0.236422 -0.175495 2.21767
-0.330399 -0.17538 2.16089
-0.32658 -0.175267 2.15301
-0.295717 -0.175218 2.15769
-0.303757 -0.17513 2.14351
-0.327025 -0.175018 2.1221
-0.324098 -0.174907 2.11379
-0.38018 -0.174797 2.07597
-0.382382 -0.174745 2.0642
-0.251096 -0.174636 2.12008
-0.292068 -0.174528 2.08983
-0.348877 -0.174421 2.05165
-0.332306 -0.174367 2.04935
-0.357838 -0.174261 2.02682
-0.335849 -0.174156 2.02806
-0.267541 -0.1741 2.05167
-0.324649 -0.173995 2.01337
-0.361702 -0.173938 1.98434
-0.335963 -0.173835 1.98747
-0.327059 -0.173733 1.98218
-0.372858 -0.173673 1.94885
-0.369972 -0.173612 1.93989
-0.270894 -0.17354 1.97922
-0.360382 -0.173439 1.92475
-0.315858 -0.173378 1.93664
-0.270631 -0.173279 1.94953
-0.310358 -0.173217 1.91931
-0.418258 -0.17312 1.85563
-0.333574 -0.173058 1.88764
-0.355006 -0.172962 1.86719
-0.322399 -0.172901 1.87319
-0.267919 -0.172806 1.89069
-0.337685 -0.172745 1.84552
-0.321216 -0.172652 1.84401
-0.295294 -0.17259 1.8467
-0.272802 -0.172528 1.84769
-0.326255 -0.172466 1.81072
-0.297519 -0.172403 1.81485
-0.228092 -0.172317 1.83976
-0.410997 -0.172254 1.73809
-0.275268 -0.172167 1.79619
-0.309391 -0.172104 1.76894
-0.271511 -0.172019 1.7781
-0.328578 -0.171956 1.7394
-0.256578 -0.171872 1.76561
-0.363376 -0.171809 1.70206
-0.238838 -0.171746 1.75419
-0.401548 -0.171683 1.6627
-0.398694 -0.17162 1.65401
-0.336446 -0.171552 1.67509
-0.306043 -0.171489 1.68019
-0.322531 -0.17141 1.66213
-0.253736 -0.171347 1.68644
-0.296177 -0.171283 1.65515
-0.320205 -0.171206 1.63332
-0.25079 -0.171142 1.65798
-0.229309 -0.171078 1.65868
-0.271372 -0.171014 1.62762
-0.320364 -0.17095 1.5931
-0.353308 -0.170886 1.56662
-0.393981 -0.170834 1.53604
-0.358284 -0.170763 1.54403
-0.313689 -0.170698 1.55635
-0.348539 -0.170634 1.52896
-0.340481 -0.170564 1.52312
-0.394247 -0.170499 1.48629
-0.27435 -0.170435 1.5363
-0.172569 -0.17037 1.57726
-0.361198 -0.170304 1.47303
-0.27137 -0.170239 1.50804
-0.223214 -0.170174 1.52222
-0.249535 -0.170138 1.49859
-0.336003 -0.170073 1.44548
-0.255233 -0.170007 1.47599
-0.365141 -0.169941 1.41118
-0.275623 -0.169876 1.4461
-0.318479 -0.169811 1.4148
-0.236206 -0.169745 1.44611
-0.324872 -0.169679 1.39197
-0.221346 -0.169646 1.43325
-0.266762 -0.169584 1.40068
-0.270447 -0.169517 1.38905
-0.369355 -0.169457 1.3297
-0.195114 -0.16939 1.40706
-0.315131 -0.169324 1.3373
-0.368238 -0.169265 1.30084
-0.299187 -0.169198 1.32563
-0.255372 -0.169131 1.33782
-0.263746 -0.169097 1.32322
-0.313253 -0.16904 1.28856
-0.231591 -0.168973 1.3197
-0.304273 -0.168906 1.27367
-0.361863 -0.16885 1.23496
-0.281385 -0.168783 1.26553
-0.322646 -0.168716 1.23525
-0.358279 -0.168662 1.2075
-0.184324 -0.168628 1.28412
-0.203974 -0.16856 1.26467
-0.198481 -0.168508 1.25747
-0.215806 -0.16844 1.2392
-0.218071 -0.168372 1.22848
-0.295069 -0.168322 1.18001
-0.293887 -0.168254 1.17103
-0.126003 -0.168186 1.24542
-0.26945 -0.168151 1.16339
-0.2939 -0.168103 1.14119
-0.17509 -0.168034 1.19107
-0.183417 -0.167966 1.17738
-0.271874 -0.167919 1.12316
-0.277616 -0.16785 1.11079
-0.256699 -0.167781 1.11177
-0.21997 -0.167712 1.12065
-0.166549 -0.167701 1.13659
-0.197204 -0.167632 1.1118
-0.23328 -0.167563 1.08432
-0.298519 -0.167519 1.04168
-0.254188 -0.16745 1.05441
-0.210416 -0.167381 1.06689
-0.251394 -0.167311 1.03699
-0.284693 -0.167304 1.00951
-0.192702 -0.167234 1.04612
-0.281425 -0.167164 0.992386
-0.180539 -0.167094 1.03347
-0.253626 -0.167054 0.986882
-0.229365 -0.166984 0.989669
-0.190002 -0.166914 1.00002
-0.294202 -0.166878 0.937775
-0.277177 -0.16684 0.936235
-0.301352 -0.166769 0.914845
-0.208892 -0.166699 0.951783
-0.251697 -0.166628 0.921101
-0.223523 -0.166591 0.925127
-0.241201 -0.166555 0.906184
-0.246827 -0.166484 0.89412
-0.202487 -0.166414 0.90705
-0.225047 -0.166342 0.886542
-0.232299 -0.166307 0.872851
-0.201529 -0.166235 0.879029
-0.180485 -0.166164 0.880355
-0.199595 -0.166128 0.860748
-0.19789 -0.166093 0.851554
-0.304418 -0.166022 0.789091
-0.163372 -0.165951 0.85046
-0.233875 -0.165879 0.806065
-0.163207 -0.165843 0.831382
-0.124148 -0.16581 0.840829
-0.180225 -0.165738 0.803676
-0.20465 -0.165666 0.782361
-0.220801 -0.165594 0.765195
-0.170297 -0.165558 0.780466
-0.125342 -0.16549 0.793761
-0.228481 -0.165454 0.732224
-0.188235 -0.165382 0.743298
-0.119424 -0.165309 0.768665
-0.275334 -0.165236 0.681685
-0.202904 -0.165206 0.707809
-0.195986 -0.165133 0.702264
-0.208066 -0.165097 0.686301
-0.150994 -0.165024 0.705852
-0.196804 -0.164951 0.673974
-0.217564 -0.164914 0.653694
-0.174646 -0.164849 0.666005
-0.247746 -0.164775 0.620516
-0.156178 -0.164739 0.656421
-0.251528 -0.164665 0.599827
-0.253115 -0.164592 0.590127
-0.212597 -0.164564 0.600292
-0.254311 -0.16449 0.570549
-0.186452 -0.164453 0.594637
-0.177486 -0.164379 0.590254
-0.152888 -0.164305 0.5937
-0.214509 -0.164231 0.554048
-0.18547 -0.164194 0.558756
-0.165088 -0.164131 0.559848
-0.127289 -0.164094 0.56895
-0.204925 -0.164019 0.521332
-0.166572 -0.163945 0.531721
-0.207356 -0.16387 0.502555
-0.218944 -0.163795 0.487998
-0.180154 -0.163758 0.497636
-0.23176 -0.163733 0.461759
-0.163106 -0.163658 0.487352
-0.179362 -0.163583 0.470504
-0.181131 -0.163508 0.460911
-0.228756 -0.16347 0.427378
-0.196417 -0.163395 0.43486
-0.112641 -0.16332 0.468074
-0.179781 -0.163282 0.424806
-0.120228 -0.16322 0.445563
-0.171541 -0.163182 0.410222
-0.177864 -0.163107 0.398429
-0.151556 -0.163031 0.402963
-0.213831 -0.162955 0.363218
-0.116874 -0.162879 0.403101
-0.131427 -0.162841 0.386181
-0.142541 -0.162765 0.372051
-0.201216 -0.162689 0.334152
-0.213558 -0.162651 0.318361
-0.0953751 -0.162628 0.367427
-0.149985 -0.162551 0.331591
-0.232301 -0.162475 0.281915
-0.157411 -0.162398 0.310854
-0.171098 -0.162322 0.295517
-0.175255 -0.162283 0.283864
-0.152259 -0.162207 0.286891
-0.195009 -0.16213 0.257057
-0.192795 -0.162053 0.249718
-0.185184 -0.162015 0.243981
-0.19717 -0.161937 0.229564
-0.165269 -0.16186 0.237103
-0.218904 -0.161783 0.201886
-0.190075 -0.161744 0.206791
-0.167019 -0.161667 0.209942
-0.21021 -0.161644 0.178393
-0.125214 -0.161567 0.212535
-0.124371 -0.161528 0.203476
-0.175336 -0.16145 0.169659
-0.224212 -0.161372 0.1369
-0.178932 -0.161295 0.151231
-0.139749 -0.161217 0.162527
-0.206749 -0.161178 0.119588
-0.204801 -0.1611 0.112288
-0.144536 -0.161022 0.13416
-0.242169 -0.160943 0.0770954
-0.137612 -0.160904 0.119968
-0.226717 -0.160826 0.0671892
-0.271698 -0.160747 0.0364857
-0.17866 -0.160708 0.0736225
-0.186468 -0.16063 0.0615273
-0.149425 -0.160551 0.0718707
-0.181253 -0.160472 0.0477917
-0.105876 -0.160433 0.0761313
-0.145443 -0.160354 0.0482049
-0.180901 -0.160275 0.0223461
-0.110854 -0.160196 0.0492528
-0.164995 -0.160156 0.0128658
-0.190099 -0.160077 -0.0077808
-0.259456 -0.1646 2.32738
-0.250651 -0.164234 2.32573
-0.248017 -0.163953 2.31974
-0.209144 -0.163834 2.32937
-0.293467 -0.163578 2.27958
-0.255078 -0.163383 2.29021
-0.222571 -0.163266 2.29669
-0.370632 -0.163074 2.21409
-0.291748 -0.162959 2.24378
-0.235973 -0.162864 2.26158
-0.297139 -0.162679 2.2224
-0.22112 -0.162565 2.25067
-0.256555 -0.162453 2.22321
-0.262373 -0.162341 2.21057
-0.302176 -0.162229 2.18095
-0.316919 -0.162118 2.16386
-0.233323 -0.162031 2.19556
-0.252903 -0.161922 2.17606
-0.27211 -0.161813 2.15674
-0.319898 -0.161705 2.12314
-0.304218 -0.161599 2.12127
-0.390021 -0.161493 2.06866
-0.263216 -0.161444 2.12139
-0.137663 -0.161338 2.17448
-0.33453 -0.161234 2.06635
-0.363872 -0.161183 2.04107
-0.355702 -0.161079 2.03548
-0.315102 -0.161002 2.04566
-0.294773 -0.16095 2.04526
-0.333689 -0.160848 2.01614
-0.393018 -0.160747 1.9768
-0.252048 -0.160693 2.03678
-0.300078 -0.160593 2.00311
-0.251672 -0.160494 2.01764
-0.238682 -0.160438 2.0137
-0.241796 -0.160339 2.00251
-0.303916 -0.160282 1.96105
-0.24774 -0.160184 1.9795
-0.241054 -0.160128 1.97246
-0.365515 -0.160031 1.90059
-0.283558 -0.159975 1.93122
-0.361552 -0.15988 1.88258
-0.163829 -0.159823 1.9711
-0.23704 -0.159758 1.92433
-0.319004 -0.159701 1.87303
-0.300132 -0.159609 1.87281
-0.293277 -0.159551 1.86595
-0.320932 -0.159461 1.84246
-0.232606 -0.159403 1.87635
-0.270076 -0.159315 1.84796
-0.288112 -0.159257 1.82869
-0.322132 -0.15917 1.80201
-0.362384 -0.159112 1.77166
-0.300798 -0.159026 1.79277
-0.348739 -0.158968 1.7586
-0.272296 -0.15891 1.78662
-0.369081 -0.158852 1.72805
-0.372729 -0.158772 1.71647
-0.319962 -0.158714 1.73269
-0.315621 -0.158656 1.7247
-0.357803 -0.158575 1.69391
-0.320301 -0.158516 1.70253
-0.385434 -0.158437 1.66026
-0.328383 -0.158378 1.67867
-0.284673 -0.158301 1.69081
-0.36376 -0.158242 1.64117
-0.33434 -0.158183 1.6458
-0.33188 -0.158124 1.63697
-0.321682 -0.158065 1.63201
-0.279042 -0.158003 1.64333
-0.332663 -0.157944 1.60648
-0.252385 -0.157885 1.63659
-0.279554 -0.157812 1.61327
-0.220814 -0.157752 1.63263
-0.26889 -0.157681 1.59884
-0.339125 -0.157621 1.55373
-0.175616 -0.157562 1.62551
-0.306013 -0.157502 1.55035
-0.264421 -0.157442 1.56119
-0.247613 -0.157382 1.55965
-0.326842 -0.157335 1.50983
-0.334144 -0.157274 1.49626
-0.283901 -0.157208 1.51159
-0.302542 -0.157148 1.49236
-0.307828 -0.157088 1.47983
-0.343166 -0.157023 1.45236
-0.23266 -0.156967 1.49765
-0.219295 -0.156906 1.49448
-0.321093 -0.156845 1.43373
-0.242646 -0.156809 1.46258
-0.268553 -0.156747 1.4398
-0.259856 -0.156686 1.43432
-0.29172 -0.156625 1.40858
-0.271798 -0.156564 1.40874
-0.24468 -0.156503 1.41251
-0.309465 -0.156442 1.37033
-0.266776 -0.15638 1.38191
-0.289691 -0.156319 1.36069
-0.22573 -0.15629 1.3822
-0.22799 -0.156228 1.37133
-0.24928 -0.156166 1.35095
-0.253189 -0.156108 1.3392
-0.243658 -0.156046 1.33425
-0.309733 -0.155984 1.29152
-0.242532 -0.155928 1.31531
-0.269934 -0.155866 1.29193
-0.315614 -0.155835 1.25871
-0.273491 -0.155772 1.27011
-0.204077 -0.155717 1.295
-0.212573 -0.155655 1.28112
-0.240777 -0.155592 1.25739
-0.202301 -0.155539 1.2668
-0.249768 -0.155476 1.23346
-0.325532 -0.155413 1.18598
-0.21676 -0.155393 1.22978
-0.305344 -0.15533 1.17592
-0.20422 -0.155267 1.21691
-0.323102 -0.155204 1.14792
-0.180324 -0.155154 1.20946
-0.183327 -0.155091 1.19842
-0.283138 -0.155027 1.139
-0.241401 -0.15501 1.14923
-0.260807 -0.154947 1.13003
-0.235024 -0.154883 1.13343
-0.309308 -0.15482 1.0868
-0.197369 -0.154773 1.1329
-0.239323 -0.154709 1.10246
-0.327201 -0.154645 1.04907
-0.260132 -0.154613 1.07238
-0.221907 -0.154567 1.08161
-0.247881 -0.154503 1.0592
-0.254621 -0.154439 1.04642
-0.2294 -0.154395 1.04913
-0.206355 -0.154331 1.05126
-0.338541 -0.154266 0.975796
-0.236749 -0.154202 1.01733
-0.374232 -0.154191 0.937862
-0.260211 -0.154127 0.985525
-0.162974 -0.154062 1.02481
-0.245338 -0.153997 0.974303
-0.275312 -0.153956 0.949393
-0.180208 -0.153891 0.987641
-0.261393 -0.153826 0.937758
-0.128937 -0.153793 0.99387
-0.215929 -0.153728 0.941102
-0.239385 -0.153689 0.919448
-0.301244 -0.153623 0.879268
-0.152711 -0.153558 0.944295
-0.241777 -0.153492 0.890535
-0.303433 -0.153487 0.848915
-0.304904 -0.153421 0.83897
-0.11817 -0.153355 0.923138
-0.17274 -0.153289 0.886667
-0.153758 -0.153253 0.88621
-0.172514 -0.153187 0.867666
-0.293265 -0.153154 0.79726
-0.21991 -0.153087 0.824792
-0.223052 -0.153021 0.814087
-0.151247 -0.152986 0.840037
-0.244236 -0.152919 0.78443
-0.176519 -0.152853 0.809186
-0.266219 -0.15282 0.754351
-0.18034 -0.152753 0.788209
-0.211314 -0.152719 0.762765
-0.191035 -0.152652 0.763845
-0.203869 -0.152585 0.748379
-0.211399 -0.152518 0.735578
-0.174291 -0.152485 0.744191
-0.249042 -0.152418 0.6978
-0.164066 -0.152385 0.730334
-0.162317 -0.152318 0.722214
-0.221369 -0.15225 0.683705
-0.191356 -0.152183 0.689741
-0.203656 -0.152149 0.673694
-0.263638 -0.152115 0.633812
-0.157849 -0.15205 0.677697
-0.23479 -0.151982 0.630297
-0.23199 -0.151914 0.622781
-0.210838 -0.151846 0.624452
-0.237067 -0.151812 0.601486
-0.173036 -0.151778 0.623655
-0.253091 -0.151714 0.574641
-0.287297 -0.151646 0.548675
-0.144454 -0.151578 0.611246
-0.161846 -0.151543 0.592735
-0.116582 -0.151475 0.606537
-0.17125 -0.151407 0.570385
-0.212795 -0.151378 0.539667
-0.205804 -0.151309 0.534366
-0.12464 -0.151274 0.565169
-0.136251 -0.151206 0.550588
-0.201745 -0.151137 0.509078
-0.206726 -0.151068 0.497836
-0.276386 -0.150999 0.454267
-0.21319 -0.150964 0.476127
-0.299842 -0.150936 0.422872
-0.23458 -0.150867 0.446793
-0.207654 -0.150798 0.45156
-0.186974 -0.150728 0.453216
-0.197559 -0.150693 0.438222
-0.183668 -0.150624 0.436504
-0.118454 -0.150554 0.460461
-0.244564 -0.150484 0.388768
-0.24077 -0.150458 0.380756
-0.190543 -0.150423 0.396205
-0.182001 -0.150353 0.391868
-0.174453 -0.150283 0.387046
-0.103954 -0.150213 0.413713
-0.133885 -0.150177 0.389115
-0.13977 -0.150107 0.377611
-0.166278 -0.150037 0.355808
-0.163715 -0.149966 0.348554
-0.2962 -0.149896 0.273787
-0.232881 -0.149861 0.295855
-0.0821163 -0.149825 0.361651
-0.148284 -0.149764 0.319789
-0.193782 -0.149693 0.288559
-0.148675 -0.149658 0.30155
-0.221841 -0.149587 0.256508
-0.0899434 -0.149516 0.31401
-0.125315 -0.149445 0.28789
-0.241215 -0.149374 0.221519
-0.209599 -0.149338 0.227806
-0.19917 -0.149267 0.22462
-0.18762 -0.149196 0.222009
-0.227969 -0.149124 0.19346
-0.207649 -0.149088 0.194131
-0.210401 -0.149017 0.184403
-0.180078 -0.148945 0.191226
-0.182852 -0.148873 0.181512
-0.211844 -0.148838 0.15756
-0.122588 -0.148766 0.193883
-0.199447 -0.148694 0.147162
-0.185852 -0.148622 0.145681
-0.212364 -0.148632 0.121509
-0.138295 -0.14856 0.150283
-0.160794 -0.148488 0.130785
-0.145986 -0.148416 0.129954
-0.220759 -0.148379 0.0831731
-0.241736 -0.148307 0.0644714
-0.160758 -0.148235 0.09676
-0.190127 -0.148162 0.0738883
-0.199831 -0.148126 0.0596745
-0.202264 -0.148053 0.0502928
-0.149581 -0.14798 0.0684825
-0.181193 -0.147944 0.0433388
-0.135052 -0.147871 0.0582795
-0.20365 -0.147798 0.0158634
-0.180194 -0.147725 0.0194874
-0.0795906 -0.147688 0.0604847
-0.171971 -0.147615 0.0062128
-0.158724 -0.150925 2.34187
-0.314125 -0.150513 2.25952
-0.265361 -0.150254 2.27669
-0.287888 -0.149997 2.25821
-0.242941 -0.149886 2.27096
-0.330771 -0.149724 2.21823
-0.225993 -0.149614 2.26091
-0.252086 -0.149436 2.23939
-0.293215 -0.14926 2.21033
-0.272108 -0.149153 2.2112
-0.233749 -0.149046 2.22071
-0.308211 -0.14896 2.17344
-0.227462 -0.148854 2.20415
-0.168504 -0.148749 2.22398
-0.222857 -0.148644 2.18716
-0.340951 -0.14854 2.11847
-0.2905 -0.148436 2.13406
-0.299322 -0.148333 2.12001
-0.231855 -0.148231 2.14412
-0.296518 -0.148152 2.10174
-0.354006 -0.148051 2.06337
-0.297225 -0.148005 2.08112
-0.372466 -0.147905 2.03389
-0.302669 -0.147805 2.05918
-0.318084 -0.147707 2.04186
-0.314519 -0.147658 2.03309
-0.241653 -0.14756 2.05993
-0.259706 -0.147463 2.04131
-0.231723 -0.147413 2.04481
-0.265391 -0.147317 2.01839
-0.318976 -0.147221 1.98202
-0.30472 -0.147169 1.97872
-0.305123 -0.147074 1.96895
-0.350101 -0.147022 1.93606
-0.282587 -0.146954 1.95974
-0.41367 -0.146902 1.88382
-0.347168 -0.146809 1.9075
-0.315534 -0.146757 1.91296
-0.374596 -0.146666 1.87386
-0.33191 -0.146576 1.88563
-0.33417 -0.146523 1.87417
-0.367418 -0.146434 1.84797
-0.324248 -0.146382 1.85925
-0.288056 -0.146294 1.86776
-0.228416 -0.146242 1.8873
-0.40626 -0.146156 1.78879
-0.346589 -0.146103 1.80836
-0.348221 -0.146045 1.79741
-0.295245 -0.145992 1.81366
-0.302644 -0.145908 1.80036
-0.265468 -0.145855 1.80873
-0.362947 -0.145774 1.75038
-0.302751 -0.14572 1.77028
-0.345402 -0.145667 1.73877
-0.284012 -0.145587 1.75986
-0.353852 -0.145533 1.71478
-0.355526 -0.145454 1.70433
-0.282181 -0.1454 1.73086
-0.259282 -0.145347 1.73218
-0.308886 -0.145293 1.69726
-0.195261 -0.145239 1.74396
-0.333002 -0.145166 1.6654
-0.303357 -0.145112 1.67013
-0.335851 -0.145037 1.64425
-0.236374 -0.144983 1.68392
-0.315989 -0.14491 1.63447
-0.264288 -0.144856 1.65027
-0.271562 -0.144784 1.63698
-0.427431 -0.14473 1.54902
-0.318265 -0.144692 1.5932
-0.350468 -0.144632 1.56721
-0.240364 -0.144578 1.61227
-0.342739 -0.144523 1.55109
-0.193007 -0.144454 1.6163
-0.219775 -0.144399 1.59295
-0.30102 -0.144332 1.54265
-0.256678 -0.144277 1.55488
-0.320291 -0.144222 1.51314
-0.332774 -0.144167 1.49697
-0.265899 -0.144111 1.5205
-0.368482 -0.144056 1.45931
-0.253505 -0.144 1.50691
-0.32103 -0.143954 1.46305
-0.251969 -0.143891 1.48788
-0.312769 -0.143836 1.44761
-0.320426 -0.14378 1.43394
-0.292065 -0.143719 1.4384
-0.263691 -0.143663 1.44276
-0.295761 -0.143612 1.41678
-0.298747 -0.143556 1.40548
-0.301662 -0.143519 1.39376
-0.227778 -0.143463 1.42091
-0.29215 -0.143405 1.37899
-0.247986 -0.143349 1.3913
-0.220739 -0.143292 1.39517
-0.264332 -0.143236 1.36363
-0.234092 -0.143179 1.36901
-0.294142 -0.143123 1.32926
-0.306061 -0.143066 1.31359
-0.34228 -0.143037 1.28507
-0.243964 -0.14298 1.32453
-0.219298 -0.142924 1.32718
-0.214946 -0.142866 1.31968
-0.256244 -0.142811 1.28933
-0.167349 -0.142754 1.32412
-0.240397 -0.142697 1.27796
-0.280301 -0.142668 1.24765
-0.252306 -0.142614 1.25193
-0.250082 -0.142557 1.24343
-0.149142 -0.142499 1.28431
-0.218993 -0.142447 1.23965
-0.325036 -0.142389 1.17705
-0.293093 -0.142331 1.18346
-0.263219 -0.14228 1.18865
-0.158129 -0.142251 1.2309
-0.191779 -0.142193 1.20454
-0.224239 -0.142135 1.17878
-0.306439 -0.142086 1.12793
-0.232022 -0.142028 1.15564
-0.308322 -0.141969 1.10799
-0.304036 -0.141921 1.10037
-0.282399 -0.141892 1.10094
-0.2493 -0.141834 1.10803
-0.220254 -0.141775 1.1131
-0.283965 -0.141728 1.07147
-0.203195 -0.14167 1.10242
-0.25658 -0.141611 1.06631
-0.181919 -0.141552 1.09423
-0.276724 -0.141536 1.03625
-0.266202 -0.141477 1.03212
-0.234269 -0.141418 1.03871
-0.244279 -0.141359 1.02433
-0.270804 -0.141315 1.00129
-0.185692 -0.141256 1.03449
-0.28434 -0.141197 0.975833
-0.24027 -0.141137 0.988543
-0.222526 -0.141125 0.986797
-0.231143 -0.141065 0.973181
-0.208457 -0.141005 0.975229
-0.220683 -0.140945 0.959832
-0.25666 -0.140905 0.932039
-0.284098 -0.140845 0.909056
-0.225505 -0.140815 0.928258
-0.23729 -0.140755 0.913122
-0.138035 -0.140694 0.953518
-0.258124 -0.140655 0.883667
-0.244894 -0.140595 0.881072
-0.200322 -0.140534 0.894159
-0.245974 -0.140504 0.861282
-0.210118 -0.140466 0.86939
-0.15955 -0.140405 0.885506
-0.262162 -0.140345 0.825042
-0.233998 -0.140284 0.829979
-0.201751 -0.140223 0.836969
-0.277485 -0.140217 0.788397
-0.149022 -0.140156 0.843513
-0.169379 -0.140095 0.82423
-0.285388 -0.140034 0.757133
-0.221973 -0.139973 0.779761
-0.225191 -0.139937 0.768327
-0.178668 -0.139906 0.781625
-0.182473 -0.139845 0.770672
-0.244689 -0.139784 0.730525
-0.204708 -0.139722 0.741489
-0.141642 -0.139688 0.763193
-0.228579 -0.139626 0.710719
-0.20256 -0.139595 0.713809
-0.200713 -0.139534 0.705748
-0.156632 -0.139472 0.718815
-0.255326 -0.13941 0.660507
-0.268243 -0.139377 0.644224
-0.220584 -0.139346 0.65817
-0.247344 -0.139284 0.635859
-0.204144 -0.139221 0.64854
-0.309154 -0.139159 0.587128
-0.2229 -0.139097 0.62136
-0.198919 -0.139065 0.623529
-0.222597 -0.139034 0.601853
-0.177601 -0.138971 0.615486
-0.150781 -0.138908 0.620043
-0.152462 -0.138846 0.610362
-0.272416 -0.138783 0.541557
-0.223823 -0.138752 0.556055
-0.211257 -0.13872 0.552547
-0.161075 -0.138658 0.568818
-0.175856 -0.138595 0.552642
-0.255297 -0.138532 0.504147
-0.220552 -0.1385 0.511759
-0.17841 -0.138437 0.524077
-0.233645 -0.138374 0.487719
-0.201674 -0.13831 0.494977
-0.322615 -0.13828 0.424713
-0.232958 -0.138249 0.459819
-0.18215 -0.138185 0.476525
-0.227907 -0.138121 0.444961
-0.1366 -0.138058 0.481941
-0.206513 -0.137994 0.438324
-0.143465 -0.137962 0.460165
-0.245891 -0.137898 0.400313
-0.157388 -0.137834 0.435938
-0.236786 -0.137802 0.386579
-0.212229 -0.137773 0.389095
-0.154364 -0.137709 0.409431
-0.165202 -0.137645 0.395428
-0.206693 -0.13758 0.366111
-0.216534 -0.137516 0.352632
-0.248279 -0.137484 0.327146
-0.225868 -0.137419 0.329814
-0.150268 -0.137355 0.359089
-0.118857 -0.13729 0.366282
-0.153498 -0.137258 0.33938
-0.128262 -0.137193 0.343507
-0.183572 -0.13716 0.306286
-0.199755 -0.1371 0.289573
-0.115408 -0.137035 0.32329
-0.102008 -0.137002 0.320446
-0.220787 -0.136937 0.252622
-0.159195 -0.136872 0.274996
-0.180545 -0.136807 0.255912
-0.195649 -0.136774 0.238849
-0.167217 -0.136709 0.244677
-0.16256 -0.136643 0.238631
-0.161311 -0.136578 0.230893
-0.230843 -0.136545 0.186649
-0.20005 -0.136479 0.193705
-0.235545 -0.136413 0.16763
-0.16657 -0.136348 0.193803
-0.159667 -0.136315 0.187808
-0.122742 -0.136249 0.197978
-0.20095 -0.136183 0.150595
-0.10107 -0.136117 0.192268
-0.20962 -0.136083 0.128579
-0.165151 -0.136017 0.142569
-0.186636 -0.135951 0.123595
-0.190673 -0.135918 0.112187
-0.124388 -0.13589 0.135747
-0.129308 -0.135824 0.125086
-0.137175 -0.135757 0.112965
-0.262102 -0.135691 0.042326
-0.234692 -0.135657 0.0466803
-0.179508 -0.135591 0.0661192
-0.178243 -0.135524 0.0586119
-0.154772 -0.13549 0.0610211
-0.243098 -0.135424 0.00874016
-0.136049 -0.135357 0.05416
-0.200682 -0.13529 0.0137519
-0.172461 -0.135256 0.0185691
-0.164414 -0.135189 0.0145236
-0.244452 -0.137237 2.26323
-0.195465 -0.136793 2.28449
-0.252652 -0.136555 2.24879
-0.278936 -0.136385 2.22726
-0.130336 -0.136151 2.29444
-0.240012 -0.136049 2.22996
-0.234161 -0.135966 2.22289
-0.220925 -0.135802 2.22112
-0.327454 -0.135639 2.15946
-0.37262 -0.135539 2.12727
-0.192335 -0.13544 2.20782
-0.194708 -0.135341 2.19704
-0.229299 -0.135242 2.17017
-0.296451 -0.135164 2.12661
-0.200728 -0.135066 2.1649
-0.314064 -0.134969 2.09867
-0.275924 -0.134872 2.10818
-0.223177 -0.134776 2.125
-0.269702 -0.134681 2.09219
-0.28319 -0.134586 2.0759
-0.271902 -0.134492 2.072
-0.30376 -0.134448 2.0455
-0.357833 -0.134354 2.00894
-0.312144 -0.134284 2.02179
-0.227064 -0.134216 2.05429
-0.246261 -0.134146 2.0347
-0.341078 -0.134054 1.97778
-0.269113 -0.134008 2.00331
-0.259392 -0.133916 1.99868
-0.321821 -0.133826 1.95797
-0.248098 -0.133779 1.98442
-0.303283 -0.13369 1.94733
-0.264244 -0.133642 1.95646
-0.271209 -0.133554 1.94349
-0.261788 -0.133467 1.9387
-0.25951 -0.13342 1.92948
-0.255492 -0.133334 1.92199
-0.361287 -0.133286 1.85877
-0.312284 -0.133225 1.87324
-0.383261 -0.133177 1.82744
-0.254261 -0.133094 1.88243
-0.332548 -0.133046 1.833
-0.287184 -0.132964 1.84618
-0.300712 -0.132916 1.82915
-0.307071 -0.132835 1.81646
-0.343253 -0.132786 1.78813
-0.311766 -0.132706 1.79436
-0.247833 -0.132658 1.81611
-0.317219 -0.132579 1.7719
-0.336218 -0.132531 1.7522
-0.313209 -0.132478 1.75362
-0.224232 -0.132429 1.78793
-0.353064 -0.132353 1.71399
-0.207615 -0.132304 1.77656
-0.34512 -0.13223 1.69827
-0.251311 -0.132181 1.73504
-0.346513 -0.132132 1.67731
-0.332954 -0.132058 1.67456
-0.289778 -0.132009 1.68605
-0.191336 -0.131937 1.72573
-0.345978 -0.131888 1.63833
-0.303063 -0.131838 1.64972
-0.201772 -0.131789 1.6903
-0.373903 -0.131739 1.59419
-0.328817 -0.131673 1.6071
-0.234759 -0.131624 1.6441
-0.30522 -0.131555 1.59931
-0.295204 -0.131506 1.59431
-0.243035 -0.131439 1.61082
-0.299489 -0.131389 1.57261
-0.278051 -0.131339 1.57335
-0.257791 -0.131289 1.57352
-0.317078 -0.131239 1.53392
-0.273544 -0.131189 1.54575
-0.290168 -0.131134 1.52761
-0.247491 -0.131084 1.53902
-0.320912 -0.131021 1.49272
-0.311647 -0.130971 1.48745
-0.272703 -0.13092 1.49703
-0.215317 -0.13087 1.51584
-0.188652 -0.130819 1.51931
-0.309499 -0.130768 1.44903
-0.238583 -0.130717 1.47464
-0.212208 -0.130672 1.47784
-0.213936 -0.130621 1.46715
-0.322427 -0.130563 1.40329
-0.216861 -0.130512 1.44626
-0.193171 -0.130454 1.44847
-0.296983 -0.130409 1.38662
-0.298921 -0.130358 1.37588
-0.255648 -0.130306 1.38775
-0.327681 -0.130255 1.34199
-0.291348 -0.130219 1.35
-0.315398 -0.130167 1.32824
-0.345227 -0.130113 1.30368
-0.235573 -0.130061 1.34879
-0.274248 -0.130009 1.31976
-0.299823 -0.129958 1.29728
-0.29526 -0.129906 1.28988
-0.239357 -0.129878 1.30748
-0.310157 -0.129826 1.26242
-0.292587 -0.129774 1.26156
-0.280917 -0.129722 1.25776
-0.159841 -0.12967 1.30867
-0.220462 -0.129618 1.26874
-0.324798 -0.129565 1.20696
-0.239089 -0.129513 1.24022
-0.193582 -0.129487 1.25265
-0.242138 -0.129434 1.21879
-0.276539 -0.129383 1.19197
-0.279646 -0.129331 1.18087
-0.312292 -0.129278 1.155
-0.291052 -0.129229 1.15599
-0.210576 -0.129176 1.1867
-0.269667 -0.129123 1.14765
-0.279194 -0.129096 1.13262
-0.343192 -0.129048 1.09098
-0.273727 -0.128995 1.11623
-0.279503 -0.128942 1.10388
-0.288311 -0.128895 1.08982
-0.277019 -0.128842 1.08602
-0.279995 -0.128815 1.07431
-0.240503 -0.128761 1.08463
-0.290223 -0.128716 1.05011
-0.285237 -0.128663 1.04319
-0.245548 -0.128609 1.05364
-0.271942 -0.128555 1.03106
-0.214183 -0.128511 1.05028
-0.288506 -0.128484 1.00294
-0.190901 -0.12843 1.04239
-0.316923 -0.128376 0.970039
-0.238898 -0.128333 0.999376
-0.21131 -0.128279 1.00385
-0.238822 -0.128225 0.980784
-0.241431 -0.128171 0.970182
-0.256141 -0.128143 0.952709
-0.263657 -0.128102 0.939275
-0.166501 -0.128047 0.978585
-0.22084 -0.127993 0.942159
-0.215727 -0.127938 0.935471
-0.25763 -0.127898 0.904835
-0.236744 -0.127871 0.905203
-0.253069 -0.127816 0.887826
-0.179279 -0.127761 0.915518
-0.317498 -0.127706 0.837218
-0.2689 -0.127667 0.85183
-0.256223 -0.127612 0.848999
-0.202938 -0.127584 0.865611
-0.264917 -0.127529 0.825472
-0.185463 -0.127474 0.856061
-0.216669 -0.127436 0.830769
-0.238163 -0.127381 0.810906
-0.290952 -0.127325 0.775407
-0.163529 -0.127297 0.829133
-0.213354 -0.127242 0.795137
-0.196529 -0.127205 0.793857
-0.191405 -0.12715 0.787356
-0.33543 -0.127094 0.706293
-0.187494 -0.127038 0.771222
-0.156243 -0.12701 0.776908
-0.232846 -0.126975 0.72891
-0.256635 -0.126919 0.708006
-0.268296 -0.126862 0.693179
-0.240021 -0.126806 0.698332
-0.2423 -0.12675 0.68822
-0.247799 -0.126722 0.675576
-0.101407 -0.126688 0.73908
-0.19741 -0.126631 0.682136
-0.244352 -0.126575 0.649734
-0.28598 -0.126518 0.620002
-0.275648 -0.12649 0.61531
-0.170325 -0.126433 0.659074
-0.231598 -0.1264 0.61875
-0.277138 -0.126343 0.587104
-0.199709 -0.126286 0.616954
-0.264935 -0.126258 0.574521
-0.231637 -0.126201 0.582327
-0.168764 -0.126144 0.604932
-0.171633 -0.126087 0.594679
-0.169441 -0.126055 0.586101
-0.204902 -0.126026 0.558587
-0.24579 -0.125969 0.529354
-0.272253 -0.125911 0.507346
-0.223073 -0.125854 0.523173
-0.210846 -0.125796 0.520535
-0.14137 -0.125768 0.545529
-0.184437 -0.12571 0.515265
-0.25098 -0.125679 0.472338
-0.236734 -0.125621 0.470752
-0.241292 -0.125563 0.459777
-0.138162 -0.125534 0.501636
-0.199286 -0.125477 0.462399
-0.180523 -0.125418 0.463118
-0.161854 -0.12536 0.463802
-0.166705 -0.125302 0.452738
-0.179078 -0.125273 0.436886
-0.244824 -0.125243 0.394384
-0.205568 -0.125185 0.405405
-0.263936 -0.125126 0.367626
-0.121508 -0.125097 0.429203
-0.271898 -0.125039 0.345435
-0.226344 -0.12498 0.359651
-0.174066 -0.124922 0.377242
-0.165641 -0.124863 0.372919
-0.161427 -0.124833 0.365431
-0.205181 -0.124775 0.33504
-0.260485 -0.124716 0.298886
-0.223424 -0.124657 0.308928
-0.172152 -0.124657 0.323901
-0.237844 -0.124598 0.282584
-0.234972 -0.124539 0.275562
-0.130613 -0.12448 0.319296
-0.221363 -0.12445 0.264388
-0.171976 -0.124391 0.280657
-0.216602 -0.124332 0.249933
-0.229769 -0.124272 0.234952
-0.174738 -0.124242 0.252966
-0.257439 -0.124183 0.203239
-0.203138 -0.124123 0.222026
-0.174136 -0.124064 0.228176
-0.195552 -0.124034 0.207999
-0.193662 -0.123974 0.200615
-0.174234 -0.123914 0.202013
-0.189054 -0.123854 0.1863
-0.212084 -0.123824 0.165348
-0.195593 -0.123764 0.165313
-0.190173 -0.123704 0.159755
-0.174187 -0.123644 0.159492
-0.229098 -0.123614 0.122633
-0.205528 -0.123585 0.124964
-0.181736 -0.123525 0.128635
-0.174245 -0.123464 0.12417
-0.155649 -0.123434 0.124094
-0.234626 -0.123374 0.076416
-0.115317 -0.123313 0.127895
-0.107093 -0.123253 0.123843
-0.153289 -0.123222 0.0914044
-0.267683 -0.123162 0.0260665
-0.211771 -0.123101 0.0458941
-0.135355 -0.12307 0.0747859
-0.181274 -0.12301 0.0437203
-0.253949 -0.122949 -0.000710173
-0.203725 -0.122888 0.0163222
-0.190168 -0.122857 0.0138178
-0.14359 -0.122796 0.0290492
-0.181495 -0.123136 2.25594
-0.194951 -0.122919 2.24221
-0.208153 -0.122704 2.22862
-0.204994 -0.122551 2.2219
-0.309565 -0.122398 2.16133
-0.229003 -0.122247 2.19332
-0.282468 -0.122172 2.15664
-0.297454 -0.122079 2.13961
-0.247509 -0.121932 2.15628
-0.277288 -0.12184 2.13187
-0.319411 -0.121749 2.10129
-0.251603 -0.121658 2.1257
-0.183222 -0.121568 2.15039
-0.32403 -0.121477 2.0705
-0.336063 -0.121407 2.05456
-0.27506 -0.121318 2.07558
-0.160136 -0.12123 2.12357
-0.333474 -0.121142 2.02743
-0.272942 -0.121101 2.04714
-0.260564 -0.121013 2.04389
-0.25202 -0.120926 2.03871
-0.287783 -0.12084 2.01139
-0.27211 -0.120797 2.00875
-0.291148 -0.120711 1.98981
-0.179243 -0.120626 2.03634
-0.221607 -0.120542 2.00573
-0.255391 -0.120499 1.97842
-0.315131 -0.120437 1.9386
-0.285014 -0.120394 1.94326
-0.259025 -0.120312 1.94684
-0.33729 -0.120269 1.89733
-0.33567 -0.120187 1.88872
-0.358747 -0.120107 1.86775
-0.27953 -0.120064 1.89702
-0.213439 -0.119984 1.92064
-0.341379 -0.119941 1.84636
-0.340701 -0.119862 1.83727
-0.249826 -0.119819 1.87242
-0.258386 -0.119741 1.85871
-0.278504 -0.119665 1.83922
-0.311465 -0.119622 1.81248
-0.288013 -0.119578 1.81396
-0.254521 -0.119524 1.82073
-0.364265 -0.119481 1.75563
-0.337544 -0.119406 1.75956
-0.344035 -0.119363 1.74611
-0.298794 -0.119289 1.7593
-0.331137 -0.119245 1.73294
-0.300927 -0.119173 1.73861
-0.275994 -0.119129 1.74092
-0.315809 -0.119058 1.71157
-0.269233 -0.119014 1.72472
-0.342134 -0.118966 1.67824
-0.35349 -0.118922 1.66245
-0.307659 -0.118853 1.67591
-0.314402 -0.118809 1.66244
-0.250909 -0.118741 1.68472
-0.348706 -0.118697 1.62575
-0.28554 -0.118652 1.64728
-0.272022 -0.118586 1.64457
-0.310692 -0.118541 1.6152
-0.22844 -0.118476 1.64686
-0.20888 -0.118451 1.64606
-0.328964 -0.118407 1.57601
-0.269654 -0.118345 1.59614
-0.247824 -0.1183 1.59707
-0.240241 -0.118237 1.59138
-0.325045 -0.118192 1.53901
-0.36925 -0.118146 1.50696
-0.293317 -0.118085 1.53544
-0.227888 -0.118039 1.55822
-0.344309 -0.117994 1.49009
-0.31258 -0.117949 1.49605
-0.335215 -0.117903 1.47483
-0.33877 -0.117852 1.46333
-0.281338 -0.117806 1.48216
-0.255806 -0.11776 1.48506
-0.291314 -0.117702 1.4578
-0.287742 -0.117657 1.44974
-0.319898 -0.1176 1.42414
-0.263959 -0.117565 1.44197
-0.360071 -0.117519 1.3841
-0.351583 -0.117473 1.37855
-0.279099 -0.117429 1.40491
-0.279325 -0.117383 1.39501
-0.307843 -0.117329 1.37122
-0.293959 -0.117283 1.3684
-0.19812 -0.117236 1.40657
-0.296752 -0.11719 1.34751
-0.325081 -0.117143 1.32362
-0.304942 -0.117113 1.32347
-0.333993 -0.117062 1.29939
-0.299448 -0.117015 1.30696
-0.138145 -0.116968 1.37792
-0.291891 -0.116918 1.29149
-0.302815 -0.116871 1.27636
-0.315779 -0.116824 1.26022
-0.232081 -0.116781 1.29231
-0.296469 -0.116733 1.25049
-0.201546 -0.116704 1.28778
-0.354408 -0.116657 1.20174
-0.282017 -0.116609 1.22836
-0.188782 -0.116561 1.26538
-0.251331 -0.116514 1.22453
-0.206817 -0.116467 1.23721
-0.280453 -0.11642 1.19081
-0.251737 -0.116395 1.19489
-0.29517 -0.116348 1.16364
-0.280747 -0.1163 1.16132
-0.235464 -0.116252 1.17444
-0.322805 -0.116205 1.12125
-0.231499 -0.116157 1.1574
-0.316428 -0.116109 1.10546
-0.308322 -0.116061 1.10004
-0.217059 -0.116039 1.13536
-0.350956 -0.115991 1.05896
-0.211008 -0.115943 1.11949
-0.246178 -0.115895 1.09247
-0.291228 -0.11585 1.06041
-0.253347 -0.115802 1.06994
-0.211182 -0.115778 1.08083
-0.228819 -0.115729 1.06262
-0.10984 -0.115686 1.11257
-0.2203 -0.115637 1.04797
-0.300589 -0.115589 0.998471
-0.205696 -0.115546 1.03636
-0.244496 -0.115522 1.00681
-0.301161 -0.115473 0.96915
-0.276242 -0.115424 0.972295
-0.270703 -0.115375 0.965761
-0.190034 -0.115334 0.99654
-0.211911 -0.115285 0.976319
-0.2172 -0.115236 0.964405
-0.299603 -0.115211 0.913104
-0.101338 -0.115171 1.00267
-0.257207 -0.115122 0.915498
-0.225899 -0.115073 0.921923
-0.290668 -0.115023 0.880322
-0.2287 -0.114974 0.902101
-0.206147 -0.11496 0.902955
-0.300335 -0.11491 0.846675
-0.280366 -0.114861 0.847484
-0.173948 -0.114811 0.89153
-0.331454 -0.114761 0.803626
-0.251605 -0.114723 0.833987
-0.221393 -0.114699 0.839083
-0.185171 -0.114649 0.848073
-0.165688 -0.114599 0.848705
-0.276208 -0.114549 0.784348
-0.30771 -0.114512 0.759031
-0.19462 -0.114462 0.806501
-0.295735 -0.114437 0.745979
-0.212588 -0.114386 0.778497
-0.229635 -0.114336 0.760931
-0.195974 -0.114301 0.768193
-0.273679 -0.11425 0.720319
-0.178263 -0.114225 0.758099
-0.241157 -0.114174 0.717651
-0.155648 -0.114124 0.751417
-0.224875 -0.114073 0.707827
-0.181381 -0.114039 0.720012
-0.257336 -0.113988 0.673079
-0.180896 -0.113963 0.701417
-0.272199 -0.113912 0.646831
-0.223434 -0.113861 0.662291
-0.146125 -0.11381 0.692036
-0.302599 -0.113776 0.604242
-0.200881 -0.113751 0.645256
-0.138271 -0.1137 0.667682
-0.278532 -0.113648 0.588683
-0.204203 -0.113597 0.616993
-0.263065 -0.113546 0.578719
-0.224404 -0.11352 0.588244
-0.264482 -0.113488 0.558659
-0.274785 -0.113436 0.544695
-0.211941 -0.113385 0.567317
-0.156298 -0.113333 0.58635
-0.231428 -0.113307 0.539018
-0.180914 -0.113255 0.555508
-0.229702 -0.113204 0.52236
-0.213805 -0.113152 0.521566
-0.23216 -0.11312 0.502866
-0.229985 -0.113094 0.494223
-0.188602 -0.113042 0.506203
-0.184144 -0.11299 0.499733
-0.290442 -0.112938 0.437897
-0.315797 -0.112886 0.416545
-0.247621 -0.11286 0.440944
-0.196857 -0.112808 0.457673
-0.24818 -0.112755 0.423371
-0.220128 -0.112725 0.427902
-0.155874 -0.112698 0.450369
-0.161014 -0.112646 0.439189
-0.191812 -0.112593 0.415193
-0.210946 -0.112541 0.397041
-0.218765 -0.112488 0.384559
-0.244882 -0.112462 0.361882
-0.187486 -0.112409 0.382029
-0.129636 -0.112356 0.402416
-0.156792 -0.112303 0.380312
-0.238741 -0.112277 0.329751
-0.255008 -0.112247 0.312165
-0.265069 -0.112194 0.29864
-0.176797 -0.112141 0.334294
-0.217291 -0.112114 0.30449
-0.243115 -0.112061 0.283117
-0.197206 -0.112008 0.297624
-0.201442 -0.111954 0.287071
-0.205254 -0.111901 0.276743
-0.234732 -0.111874 0.252488
-0.154068 -0.111821 0.284419
-0.24325 -0.111767 0.231441
-0.200941 -0.111714 0.24422
-0.283955 -0.111687 0.19323
-0.138874 -0.111633 0.257417
-0.149924 -0.111579 0.243552
-0.144015 -0.111525 0.238179
-0.250816 -0.111498 0.175327
-0.206275 -0.111469 0.188241
-0.216195 -0.111415 0.174985
-0.184376 -0.111361 0.182611
-0.223151 -0.111334 0.153802
-0.218799 -0.11128 0.147717
-0.187446 -0.111226 0.155145
-0.183984 -0.111199 0.147479
-0.247455 -0.111145 0.107517
-0.242913 -0.11109 0.101575
-0.179133 -0.111036 0.125265
-0.121442 -0.111009 0.144746
-0.196172 -0.110954 0.0992023
-0.138905 -0.1109 0.11967
-0.191554 -0.110845 0.0851939
-0.260868 -0.110818 0.0412059
-0.112991 -0.110763 0.107014
-0.184045 -0.110708 0.0633702
-0.145263 -0.110653 0.0746567
-0.25702 -0.110626 0.00948074
-0.191088 -0.110571 0.0343651
-0.224393 -0.110516 0.00964341
-0.17808 -0.110488 0.0235268
-0.174033 -0.110433 0.0175039
-0.121681 -0.109577 2.24776
-0.177958 -0.109275 2.21538
-0.263906 -0.109081 2.16552
-0.266004 -0.108943 2.15628
-0.175816 -0.108753 2.19448
-0.12396 -0.108668 2.21093
-0.201027 -0.108532 2.16421
-0.229881 -0.108465 2.13989
-0.312413 -0.108381 2.08917
-0.266312 -0.108298 2.10278
-0.29282 -0.108166 2.08134
-0.286492 -0.108084 2.07507
-0.286658 -0.108001 2.06557
-0.303292 -0.107919 2.04785
-0.26188 -0.107838 2.05916
-0.193355 -0.107757 2.08403
-0.287281 -0.10772 2.02653
-0.232132 -0.107657 2.04424
-0.255576 -0.107577 2.02315
-0.254264 -0.107497 2.01445
-0.219904 -0.107459 2.02116
-0.216516 -0.10738 2.0135
-0.282334 -0.107302 1.97123
-0.22708 -0.107224 1.98949
-0.274411 -0.107186 1.95541
-0.208479 -0.107109 1.97902
-0.24778 -0.107033 1.95001
-0.309482 -0.106995 1.90878
-0.206936 -0.10692 1.9507
-0.344979 -0.106845 1.87232
-0.314239 -0.106807 1.87735
-0.265134 -0.106753 1.89201
-0.268595 -0.106714 1.87995
-0.302212 -0.106641 1.85379
-0.330925 -0.106603 1.82913
-0.248727 -0.106531 1.86088
-0.280968 -0.106492 1.83449
-0.325947 -0.106421 1.80265
-0.225582 -0.106351 1.84347
-0.290817 -0.106312 1.80061
-0.284636 -0.106243 1.79434
-0.314488 -0.106204 1.7692
-0.285191 -0.106136 1.77449
-0.351828 -0.106097 1.73098
-0.207367 -0.106049 1.79327
-0.264842 -0.10601 1.75436
-0.249791 -0.105944 1.75252
-0.290944 -0.105904 1.72179
-0.256535 -0.105839 1.72962
-0.229395 -0.1058 1.73307
-0.340554 -0.10576 1.66737
-0.275684 -0.105696 1.69044
-0.255217 -0.105656 1.69058
-0.33714 -0.105593 1.64025
-0.26755 -0.105553 1.66497
-0.235454 -0.105511 1.67104
-0.384526 -0.105471 1.58645
-0.289849 -0.105431 1.62375
-0.178111 -0.10537 1.67025
-0.293223 -0.10533 1.60267
-0.256799 -0.105269 1.6115
-0.255152 -0.105229 1.60233
-0.328344 -0.10517 1.55634
-0.283351 -0.10513 1.56886
-0.306036 -0.10509 1.54756
-0.236663 -0.105052 1.57222
-0.324735 -0.105011 1.51824
-0.281789 -0.104954 1.53031
-0.242991 -0.104914 1.53979
-0.303918 -0.104873 1.49942
-0.255195 -0.104817 1.51438
-0.240721 -0.104777 1.51173
-0.27603 -0.104736 1.48419
-0.289224 -0.104695 1.46773
-0.264743 -0.104654 1.47011
-0.273248 -0.104606 1.45625
-0.344117 -0.104566 1.41097
-0.236576 -0.104525 1.45492
-0.281034 -0.104472 1.42327
-0.265834 -0.104431 1.42107
-0.246178 -0.10439 1.4211
-0.297106 -0.104349 1.38586
-0.268495 -0.104307 1.39039
-0.269801 -0.104276 1.37965
-0.270818 -0.104225 1.3697
-0.302143 -0.104184 1.3443
-0.297704 -0.104143 1.33679
-0.283454 -0.104093 1.33448
-0.237039 -0.104051 1.34798
-0.24616 -0.10401 1.33372
-0.322626 -0.103976 1.28553
-0.278845 -0.103935 1.29774
-0.193735 -0.103899 1.33043
-0.164188 -0.103851 1.33575
-0.293628 -0.103809 1.26138
-0.201323 -0.103768 1.2979
-0.314244 -0.103726 1.23182
-0.323325 -0.103684 1.21767
-0.233662 -0.103658 1.25232
-0.224704 -0.103616 1.24721
-0.31395 -0.103571 1.19312
-0.240358 -0.103529 1.22035
-0.226046 -0.103486 1.21794
-0.237998 -0.103442 1.20249
-0.329831 -0.103402 1.14697
-0.250633 -0.103379 1.17635
-0.330614 -0.103336 1.12685
-0.186139 -0.103293 1.1896
-0.281401 -0.10325 1.13247
-0.282909 -0.103208 1.12224
-0.274001 -0.103165 1.11722
-0.236527 -0.103122 1.1265
-0.237622 -0.10308 1.11648
-0.2802 -0.103058 1.08499
-0.281383 -0.103015 1.07497
-0.293751 -0.102972 1.05937
-0.19537 -0.102929 1.09915
-0.226715 -0.102887 1.07405
-0.191836 -0.102844 1.08211
-0.251024 -0.102801 1.04314
-0.282854 -0.102779 1.01706
-0.208928 -0.102738 1.04459
-0.232497 -0.102694 1.02346
-0.249206 -0.102651 1.00578
-0.293014 -0.102607 0.974555
-0.240799 -0.102567 0.991228
-0.313661 -0.102546 0.944672
-0.205092 -0.102502 0.989667
-0.216434 -0.102458 0.974719
-0.19456 -0.102419 0.976214
-0.23791 -0.102375 0.945284
-0.258608 -0.102332 0.925692
-0.235223 -0.10231 0.927304
-0.292337 -0.102266 0.889524
-0.279546 -0.102228 0.886478
-0.191826 -0.102184 0.921137
-0.216212 -0.10214 0.899755
-0.240114 -0.102095 0.878626
-0.258744 -0.102073 0.859276
-0.242117 -0.102036 0.858149
-0.182591 -0.101992 0.878765
-0.247296 -0.101948 0.837277
-0.277218 -0.101903 0.813193
-0.24992 -0.101859 0.81773
-0.178701 -0.101845 0.843013
-0.211225 -0.101801 0.817658
-0.242205 -0.101756 0.793087
-0.177891 -0.101711 0.816174
-0.288763 -0.101667 0.751681
-0.250892 -0.101654 0.760271
-0.211797 -0.101609 0.770781
-0.249481 -0.101564 0.742912
-0.20778 -0.101519 0.754748
-0.249848 -0.101475 0.724711
-0.186853 -0.10143 0.747218
-0.259712 -0.101418 0.70043
-0.119849 -0.101373 0.76139
-0.263587 -0.101328 0.680561
-0.210073 -0.101283 0.69837
-0.265819 -0.101237 0.661562
-0.269188 -0.101215 0.65001
-0.221908 -0.101182 0.664221
-0.273925 -0.101136 0.629308
-0.230659 -0.101091 0.642048
-0.227033 -0.101045 0.634981
-0.204278 -0.101022 0.636528
-0.218767 -0.100977 0.620424
-0.212407 -0.100931 0.614757
-0.276601 -0.100899 0.573247
-0.232931 -0.100853 0.586257
-0.23997 -0.10083 0.572945
-0.20006 -0.100785 0.584096
-0.235973 -0.100739 0.557347
-0.200529 -0.100693 0.566289
-0.182324 -0.100647 0.566625
-0.201097 -0.100638 0.546844
-0.212236 -0.100592 0.532526
-0.224991 -0.100546 0.517411
-0.297901 -0.1005 0.472232
-0.174954 -0.100454 0.524994
-0.16181 -0.100431 0.521852
-0.220537 -0.100384 0.483798
-0.238962 -0.100338 0.465907
-0.219069 -0.100291 0.467188
-0.244877 -0.100284 0.443888
-0.123406 -0.100238 0.495977
-0.208503 -0.100191 0.444793
-0.179689 -0.100145 0.450578
-0.187549 -0.100098 0.438038
-0.121653 -0.100074 0.461343
-0.111478 -0.100028 0.457842
-0.225356 -0.0999808 0.392328
-0.310402 -0.0999339 0.341241
-0.201303 -0.0998869 0.387241
-0.188541 -0.0998634 0.384019
-0.249 -0.0998339 0.344467
-0.214427 -0.0997868 0.353234
-0.184259 -0.0997396 0.359811
-0.237755 -0.099716 0.32349
-0.23957 -0.0996688 0.314098
-0.209559 -0.0996215 0.320631
-0.189508 -0.0995742 0.322197
-0.155191 -0.0995505 0.329815
-0.197127 -0.0995031 0.300408
-0.204442 -0.0994556 0.288326
-0.265275 -0.0994081 0.249497
-0.197866 -0.0993843 0.273693
-0.293947 -0.0993366 0.217262
-0.210706 -0.099289 0.250504
-0.121559 -0.0992601 0.285829
-0.235347 -0.0992362 0.219456
-0.220294 -0.0991884 0.218636
-0.211904 -0.0991406 0.214498
-0.159118 -0.0990927 0.23257
-0.240417 -0.0990687 0.182475
-0.199648 -0.0990207 0.19456
-0.237992 -0.0989726 0.167102
-0.22283 -0.0989245 0.16641
-0.213913 -0.0989005 0.161456
-0.184005 -0.0988523 0.168159
-0.204556 -0.098804 0.149645
-0.200068 -0.0987558 0.143664
-0.279541 -0.0987316 0.0945477
-0.217338 -0.0986832 0.117446
-0.221643 -0.0986348 0.107103
-0.163266 -0.0986105 0.126936
-0.260728 -0.098562 0.0700373
-0.117096 -0.0985135 0.133698
-0.234005 -0.0984648 0.0671013
-0.160049 -0.0984405 0.0947571
-0.155138 -0.0983918 0.0890927
-0.206896 -0.098343 0.055107
-0.176444 -0.0982942 0.062239
-0.234437 -0.0982698 0.0239535
-0.198602 -0.0982209 0.0337997
-0.193774 -0.0981719 0.0281556
-0.250583 -0.0981475 -0.00951392
-0.240373 -0.0980984 -0.0124447
-0.221219 -0.0957168 2.15584
-0.158369 -0.0954521 2.18318
-0.21432 -0.0953289 2.1471
-0.121054 -0.0952064 2.18565
-0.171407 -0.0950846 2.15239
-0.186722 -0.0949638 2.13665
-0.192695 -0.0948882 2.12429
-0.129856 -0.0948285 2.14588
-0.15052 -0.0947102 2.12747
-0.281103 -0.0946356 2.05283
-0.200135 -0.0945613 2.08398
-0.172961 -0.0944872 2.08824
-0.250717 -0.0944134 2.04004
-0.241819 -0.0943399 2.03519
-0.223173 -0.0942667 2.03521
-0.330574 -0.0941938 1.97222
-0.310741 -0.0941221 1.97283
-0.246647 -0.0940509 1.99557
-0.214849 -0.0940176 2.00102
-0.235666 -0.0939637 1.9808
-0.279247 -0.0938937 1.94971
-0.18861 -0.0938603 1.98461
-0.260431 -0.0937909 1.93941
-0.312526 -0.0937221 1.90407
-0.281095 -0.0936885 1.90941
-0.353326 -0.0936204 1.86401
-0.266708 -0.093553 1.89804
-0.301899 -0.0935192 1.8701
-0.27946 -0.0934525 1.87204
-0.317969 -0.0933864 1.8435
-0.303501 -0.0933526 1.84042
-0.355088 -0.0932872 1.80535
-0.306434 -0.0932532 1.8194
-0.298218 -0.0932056 1.81367
-0.20975 -0.0931716 1.84765
-0.268789 -0.0931077 1.80885
-0.328474 -0.0930736 1.76877
-0.252621 -0.0930104 1.79743
-0.265868 -0.0929481 1.78152
-0.341844 -0.0929139 1.73333
-0.295844 -0.0928523 1.74705
-0.320424 -0.0928179 1.72458
-0.292732 -0.0927572 1.72914
-0.196609 -0.0927227 1.76705
-0.302189 -0.0926801 1.70439
-0.316344 -0.0926455 1.68718
-0.24874 -0.0925864 1.71169
-0.304137 -0.0925518 1.67388
-0.341029 -0.0924936 1.64615
-0.307214 -0.0924588 1.65296
-0.250197 -0.092424 1.67139
-0.289616 -0.0923666 1.6424
-0.292088 -0.0923317 1.63111
-0.189405 -0.0922752 1.67317
-0.255028 -0.0922402 1.63032
-0.245748 -0.092202 1.62505
-0.276548 -0.092167 1.59964
-0.213417 -0.0921318 1.6212
-0.275593 -0.092077 1.58082
-0.281488 -0.0920418 1.5679
-0.173287 -0.0919879 1.6127
-0.352264 -0.0919526 1.51326
-0.236362 -0.0918996 1.5619
-0.308891 -0.0918642 1.5157
-0.257944 -0.0918287 1.53125
-0.203447 -0.0917944 1.54855
-0.323827 -0.0917588 1.47846
-0.351014 -0.0917232 1.45497
-0.259234 -0.091672 1.49155
-0.20357 -0.0916363 1.50952
-0.239339 -0.0915861 1.48231
-0.279302 -0.0915503 1.45249
-0.213956 -0.0915145 1.47532
-0.327829 -0.0914786 1.40856
-0.307213 -0.0914471 1.40889
-0.270997 -0.0914112 1.41719
-0.189567 -0.0913628 1.44858
-0.281244 -0.0913267 1.39296
-0.300093 -0.0912906 1.37377
-0.275138 -0.0912431 1.37692
-0.291397 -0.0912069 1.35904
-0.241187 -0.0911819 1.37397
-0.301057 -0.0911422 1.33444
-0.304621 -0.0911059 1.32294
-0.298145 -0.0910695 1.31647
-0.249331 -0.0910239 1.33154
-0.296184 -0.0909874 1.29843
-0.225924 -0.0909509 1.32389
-0.247194 -0.0909143 1.30359
-0.261288 -0.0908776 1.28689
-0.352882 -0.0908512 1.23105
-0.211028 -0.0908075 1.29262
-0.188406 -0.0907708 1.29431
-0.26067 -0.0907339 1.24857
-0.230735 -0.0906912 1.25417
-0.362416 -0.0906543 1.17875
-0.299246 -0.0906232 1.20052
-0.180817 -0.0905861 1.25017
-0.281291 -0.090557 1.19006
-0.290932 -0.0905199 1.17569
-0.299705 -0.0904828 1.16177
-0.200334 -0.0904419 1.20209
-0.280349 -0.0904047 1.15257
-0.244063 -0.0903711 1.16106
-0.196426 -0.0903337 1.17539
-0.294458 -0.0903088 1.11638
-0.162982 -0.0902714 1.17265
-0.232046 -0.090234 1.12866
-0.269043 -0.0901965 1.10071
-0.25873 -0.0901575 1.09649
-0.330707 -0.0901213 1.05102
-0.322331 -0.0901011 1.04506
-0.19915 -0.0900634 1.09725
-0.213212 -0.0900253 1.08084
-0.179212 -0.0899875 1.08845
-0.283099 -0.0899497 1.02714
-0.203236 -0.0899118 1.05771
-0.302968 -0.0898741 0.998486
-0.314246 -0.0898549 0.982704
-0.248808 -0.0898169 1.00609
-0.326278 -0.0897788 0.958043
-0.292937 -0.0897406 0.965409
-0.229536 -0.0897025 0.987816
-0.258382 -0.0896652 0.964071
-0.278858 -0.089646 0.943725
-0.210714 -0.0896077 0.968535
-0.229687 -0.0895693 0.949798
-0.326108 -0.0895309 0.892348
-0.171667 -0.0894945 0.96025
-0.30929 -0.089456 0.882221
-0.280957 -0.0894368 0.886327
-0.189845 -0.0893982 0.922686
-0.290396 -0.0893595 0.863226
-0.238517 -0.0893241 0.879849
-0.266452 -0.0892853 0.856719
-0.193401 -0.0892465 0.884094
-0.233682 -0.0892271 0.853938
-0.17934 -0.0891883 0.871979
-0.25622 -0.0891537 0.824224
-0.238588 -0.0891147 0.823932
-0.316782 -0.0890757 0.775739
-0.190795 -0.0890367 0.829648
-0.265314 -0.0890171 0.78242
-0.287378 -0.0889835 0.762073
-0.249001 -0.0889443 0.772208
-0.172184 -0.0889051 0.801575
-0.257423 -0.0888658 0.749927
-0.181073 -0.0888462 0.77817
-0.277438 -0.0888068 0.720979
-0.206751 -0.088774 0.747018
-0.329871 -0.0887346 0.676472
-0.198417 -0.0886951 0.733224
-0.18166 -0.0886753 0.731709
-0.27571 -0.0886357 0.67573
-0.280903 -0.0886038 0.663828
-0.211506 -0.0885642 0.689595
-0.19036 -0.0885245 0.691249
-0.192778 -0.0885046 0.680185
-0.216279 -0.0884648 0.659536
-0.25436 -0.088425 0.631609
-0.18629 -0.0883851 0.656771
-0.208043 -0.088354 0.636605
-0.170327 -0.088334 0.645645
-0.212865 -0.088294 0.615534
-0.192579 -0.088254 0.616846
-0.252603 -0.0882139 0.578016
-0.174408 -0.0881737 0.608308
-0.261767 -0.0881335 0.555835
-0.205174 -0.0881234 0.573872
-0.226065 -0.0880831 0.554652
-0.324581 -0.0880428 0.496632
-0.269866 -0.0880024 0.515239
-0.193681 -0.0879822 0.543592
-0.228172 -0.0879418 0.517618
-0.17258 -0.0879013 0.536697
-0.198504 -0.0878607 0.515031
-0.155928 -0.0878313 0.52707
-0.277355 -0.087811 0.456655
-0.182154 -0.0877703 0.495583
-0.199082 -0.0877296 0.478459
-0.252671 -0.0876889 0.443017
-0.148776 -0.0876685 0.485295
-0.161065 -0.0876276 0.470524
-0.151103 -0.0875868 0.466891
-0.242448 -0.0875458 0.412617
-0.254644 -0.0875048 0.39793
-0.176425 -0.0874967 0.42678
-0.169016 -0.0874556 0.421915
-0.175693 -0.0874145 0.410019
-0.314455 -0.0873734 0.332093
-0.196363 -0.0873528 0.381541
-0.201331 -0.0873116 0.370533
-0.285394 -0.0872703 0.319991
-0.261517 -0.087229 0.323432
-0.250801 -0.0872083 0.319224
-0.246536 -0.087167 0.31288
-0.180321 -0.0871255 0.337524
-0.165793 -0.087084 0.336337
-0.180279 -0.0870425 0.320656
-0.194181 -0.0870352 0.303464
-0.167498 -0.0869937 0.308386
-0.225045 -0.086952 0.271206
-0.259793 -0.0869312 0.244329
-0.15264 -0.0868895 0.289521
-0.268252 -0.0868477 0.223342
-0.193157 -0.0868059 0.252531
-0.161049 -0.086785 0.259115
-0.127747 -0.0867431 0.267428
-0.291503 -0.0867011 0.177226
-0.227558 -0.0866592 0.200886
-0.17125 -0.0866381 0.219602
-0.197719 -0.0865961 0.198079
-0.20836 -0.086554 0.184481
-0.178186 -0.0865118 0.191304
-0.300159 -0.0864907 0.120913
-0.161634 -0.0864485 0.181934
-0.17888 -0.0864062 0.165082
-0.198979 -0.0863639 0.146816
-0.170129 -0.0863427 0.15187
-0.268748 -0.0863003 0.0943663
-0.167795 -0.0862579 0.136662
-0.282713 -0.0862154 0.0710349
-0.24245 -0.0861941 0.0818279
