ply
format ascii 1.0
comment Created by Open3D
element vertex 1699
property double x
property double y
property double z
end_header
-0.209564 0.0263009 1.43493
-0.212749 0.0262803 1.42482
-0.210217 0.0262751 1.41556
-0.20965 0.0262645 1.40602
-0.212787 0.0262441 1.39595
-0.21224 0.0262335 1.38643
-0.215322 0.0262133 1.3764
-0.214794 0.0262027 1.36689
-0.217819 0.0261826 1.3569
-0.217309 0.026172 1.3474
-0.218289 0.0261574 1.33771
-0.217794 0.0261468 1.32823
-0.220695 0.0261271 1.31831
-0.220219 0.0261165 1.30884
-0.219753 0.0261058 1.29939
-0.222599 0.0260863 1.2895
-0.222151 0.0260756 1.28006
-0.222923 0.0260617 1.27047
-0.22249 0.026051 1.26105
-0.222067 0.0260402 1.25163
-0.224785 0.0260212 1.24182
-0.224381 0.0260104 1.23242
-0.227029 0.0259915 1.22265
-0.226643 0.0259808 1.21326
-0.224235 0.0259754 1.20413
-0.226817 0.0259567 1.1944
-0.226456 0.0259459 1.18503
-0.226104 0.0259351 1.17568
-0.228621 0.0259166 1.16598
-0.228288 0.0259058 1.15664
-0.225912 0.0259004 1.14755
-0.228359 0.0258822 1.1379
-0.22805 0.0258713 1.12858
-0.227751 0.0258604 1.11927
-0.230129 0.0258424 1.10966
-0.229848 0.0258315 1.10036
-0.227505 0.025826 1.0913
-0.22724 0.025815 1.08202
-0.229552 0.0257973 1.07246
-0.229306 0.0257863 1.06319
-0.229069 0.0257753 1.05393
-0.231308 0.0257578 1.04441
-0.228997 0.0257523 1.03538
-0.228784 0.0257412 1.02614
-0.228581 0.0257302 1.01691
-0.230752 0.0257129 1.00744
-0.230567 0.0257018 0.998224
-0.230391 0.0256907 0.989015
-0.228113 0.0256852 0.980024
-0.230213 0.0256681 0.970602
-0.230061 0.025657 0.961413
-0.22992 0.0256459 0.952232
-0.231941 0.0256291 0.94285
-0.229689 0.0256235 0.933889
-0.229571 0.0256123 0.924729
-0.229463 0.0256012 0.915577
-0.229365 0.02559 0.906431
-0.23132 0.0255734 0.897106
-0.229198 0.0255675 0.888162
-0.22902 0.0255566 0.879048
-0.228955 0.0255453 0.869932
-0.230835 0.025529 0.860652
-0.230788 0.0255177 0.851552
-0.228821 0.0255115 0.842625
-0.228557 0.0255008 0.833558
-0.228536 0.0254895 0.824478
-0.230345 0.0254734 0.815253
-0.230342 0.0254621 0.806189
-0.228531 0.0254555 0.797281
-0.22818 0.025445 0.788259
-0.228202 0.0254337 0.779216
-0.229941 0.0254178 0.770045
-0.22998 0.0254064 0.761017
-0.228326 0.0253995 0.752128
-0.227888 0.0253893 0.743152
-0.227952 0.0253779 0.734145
-0.229618 0.0253623 0.725027
-0.2297 0.0253508 0.716037
-0.22758 0.0253451 0.707214
-0.227677 0.0253336 0.698236
-0.227785 0.0253221 0.689266
-0.227903 0.0253106 0.680303
-0.229501 0.0252953 0.671247
-0.227407 0.0252895 0.662452
-0.227547 0.025278 0.653511
-0.227698 0.0252664 0.644578
-0.227858 0.0252549 0.635653
-0.226568 0.025247 0.626829
-0.225961 0.0252375 0.617967
-0.227496 0.0252224 0.608978
-0.227689 0.0252108 0.600082
-0.227892 0.0251991 0.591194
-0.225845 0.0251933 0.582448
-0.226064 0.0251817 0.573574
-0.226292 0.02517 0.564707
-0.226531 0.0251583 0.555847
-0.22573 0.0251493 0.547054
-0.225981 0.0251376 0.538209
-0.226243 0.0251259 0.529372
-0.226514 0.0251142 0.520543
-0.224508 0.0251083 0.511841
-0.224795 0.0250965 0.503025
-0.225092 0.0250848 0.494217
-0.225398 0.025073 0.485417
-0.224511 0.0250643 0.476683
-0.22483 0.0250525 0.467898
-0.22516 0.0250407 0.45912
-0.225499 0.0250289 0.45035
-0.224761 0.0250198 0.441637
-0.223889 0.0250111 0.432937
-0.224254 0.0249992 0.424189
-0.224628 0.0249874 0.415448
-0.223935 0.0249782 0.406761
-0.223075 0.0249695 0.398086
-0.224437 0.0249552 0.389329
-0.224844 0.0249432 0.380619
-0.223236 0.0249365 0.371995
-0.223343 0.0249253 0.363311
-0.223775 0.0249134 0.354623
-0.224217 0.0249014 0.345943
-0.222315 0.0248954 0.337352
-0.222773 0.0248834 0.328686
-0.22324 0.0248714 0.320029
-0.223718 0.0248594 0.311379
-0.221837 0.0248534 0.30281
-0.22233 0.0248413 0.294175
-0.223654 0.0248272 0.285523
-0.224164 0.0248151 0.276904
-0.222303 0.0248091 0.268359
-0.222828 0.024797 0.259755
-0.223363 0.0247849 0.251158
-0.221517 0.0247789 0.242629
-0.222068 0.0247667 0.234047
-0.222628 0.0247546 0.225473
-0.223198 0.0247425 0.216907
-0.221374 0.0247364 0.208401
-0.22196 0.0247242 0.199849
-0.222555 0.024712 0.191306
-0.220746 0.0247059 0.182816
-0.221357 0.0246937 0.174287
-0.221978 0.0246815 0.165767
-0.222609 0.0246693 0.157254
-0.220821 0.0246632 0.148787
-0.221467 0.0246509 0.140289
-0.222123 0.0246386 0.1318
-0.220351 0.0246325 0.123349
-0.221022 0.0246202 0.114874
-0.221704 0.0246079 0.106408
-0.22163 0.0245975 0.0979572
-0.220644 0.0245894 0.0895221
-0.221999 0.0245755 0.0810731
-0.222712 0.0245631 0.0726385
-0.220975 0.024557 0.0642285
-0.221704 0.0245446 0.0558086
-0.222442 0.0245322 0.0473971
-0.22072 0.024526 0.0390039
-0.221474 0.0245136 0.0306072
-0.222238 0.0245012 0.0222189
-0.220531 0.024495 0.0138427
-0.221311 0.0244826 0.00546925
-0.108242 0.0402663 1.66638
-0.121875 0.0401922 1.65416
-0.130654 0.0401378 1.64278
-0.134638 0.0401031 1.63222
-0.143329 0.0400492 1.6209
-0.147268 0.0400147 1.61039
-0.155826 0.0399614 1.59914
-0.159697 0.0399272 1.58868
-0.157062 0.0399195 1.57928
-0.160917 0.0398854 1.56884
-0.164745 0.0398515 1.55843
-0.168543 0.0398177 1.54804
-0.17231 0.0397841 1.53767
-0.176042 0.0397507 1.52732
-0.179737 0.0397174 1.51699
-0.179083 0.0397018 1.50735
-0.182749 0.0396687 1.49706
-0.186373 0.0396358 1.48679
-0.185749 0.0396201 1.47717
-0.187389 0.0395953 1.46722
-0.190929 0.0395628 1.45701
-0.19033 0.0395471 1.44742
-0.19383 0.0395148 1.43724
-0.19728 0.0394828 1.42708
-0.19671 0.039467 1.41751
-0.200115 0.0394352 1.40739
-0.199564 0.0394193 1.39784
-0.200948 0.0393957 1.38803
-0.200413 0.0393798 1.3785
-0.203719 0.0393485 1.36844
-0.203203 0.0393326 1.35892
-0.206458 0.0393016 1.3489
-0.205961 0.0392856 1.3394
-0.209163 0.0392548 1.32941
-0.206688 0.0392468 1.32019
-0.206216 0.0392308 1.31072
-0.209368 0.0392003 1.30077
-0.208915 0.0391842 1.29131
-0.212009 0.039154 1.28139
-0.211575 0.0391379 1.27195
-0.214609 0.039108 1.26207
-0.212173 0.0390999 1.2529
-0.211764 0.0390837 1.24348
-0.214742 0.0390541 1.23364
-0.214352 0.0390379 1.22423
-0.217265 0.0390085 1.21442
-0.216893 0.0389923 1.20504
-0.216531 0.0389761 1.19565
-0.217343 0.0389552 1.18614
-0.216996 0.0389389 1.17677
-0.216659 0.0389226 1.16741
-0.219452 0.0388938 1.15769
-0.219133 0.0388775 1.14834
-0.221855 0.0388491 1.13866
-0.219492 0.0388409 1.12957
-0.219197 0.0388245 1.12024
-0.221853 0.0387964 1.1106
-0.221577 0.03878 1.10129
-0.221311 0.0387635 1.09199
-0.221055 0.038747 1.0827
-0.22157 0.0387275 1.07333
-0.221328 0.038711 1.06406
-0.221096 0.0386945 1.05479
-0.223623 0.0386671 1.04523
-0.22341 0.0386505 1.03598
-0.223206 0.0386339 1.02673
-0.220908 0.0386256 1.01771
-0.223371 0.0385985 1.0082
-0.223192 0.0385819 0.998978
-0.223022 0.0385652 0.989761
-0.225413 0.0385384 0.980294
-0.223142 0.0385301 0.971304
-0.222996 0.0385134 0.962109
-0.22286 0.0384966 0.95292
-0.225183 0.0384702 0.943503
-0.225065 0.0384535 0.934331
-0.222821 0.0384451 0.925368
-0.222719 0.0384283 0.916209
-0.224972 0.0384022 0.906839
-0.224888 0.0383854 0.897696
-0.224813 0.0383685 0.888561
-0.224749 0.0383516 0.879432
-0.224777 0.0383344 0.870304
-0.224726 0.0383174 0.86119
-0.224685 0.0383005 0.852084
-0.224655 0.0382835 0.842985
-0.224634 0.0382665 0.833893
-0.224579 0.0382497 0.824812
-0.224572 0.0382327 0.815735
-0.224575 0.0382156 0.806665
-0.224587 0.0381986 0.797603
-0.22461 0.0381815 0.788547
-0.224471 0.0381651 0.779513
-0.224507 0.038148 0.770473
-0.224553 0.0381308 0.76144
-0.224609 0.0381137 0.752415
-0.224675 0.0380965 0.743396
-0.22445 0.0380805 0.734408
-0.224529 0.0380633 0.725405
-0.224618 0.0380461 0.716409
-0.224717 0.0380288 0.707421
-0.222928 0.0380189 0.698576
-0.224514 0.0379959 0.689497
-0.224636 0.0379786 0.680531
-0.224768 0.0379613 0.671572
-0.22491 0.037944 0.662621
-0.222824 0.0379353 0.653827
-0.222982 0.0379179 0.644889
-0.224826 0.037894 0.63585
-0.225001 0.0378766 0.626929
-0.222935 0.0378679 0.618158
-0.223126 0.0378505 0.60925
-0.223327 0.037833 0.60035
-0.223538 0.0378155 0.591458
-0.223758 0.037798 0.582573
-0.223275 0.0377833 0.573737
-0.223509 0.0377657 0.564867
-0.223753 0.0377482 0.556005
-0.224006 0.0377306 0.547151
-0.221988 0.0377218 0.538429
-0.222257 0.0377042 0.529588
-0.222536 0.0376866 0.520755
-0.224257 0.0376634 0.511854
-0.222259 0.0376546 0.503156
-0.222561 0.0376369 0.494345
-0.222873 0.0376192 0.485543
-0.223195 0.0376015 0.476748
-0.221218 0.0375926 0.468071
-0.221555 0.0375749 0.45929
-0.221903 0.0375571 0.450516
-0.22226 0.0375393 0.441751
-0.221609 0.0375254 0.433038
-0.221979 0.0375076 0.424287
-0.222359 0.0374897 0.415545
-0.222748 0.0374719 0.40681
-0.220813 0.0374629 0.398178
-0.221219 0.0374451 0.389457
-0.221634 0.0374271 0.380744
-0.222059 0.0374092 0.372039
-0.220145 0.0374002 0.36343
-0.220586 0.0373823 0.354739
-0.221036 0.0373643 0.346056
-0.221497 0.0373462 0.337381
-0.220771 0.0373328 0.328754
-0.221244 0.0373147 0.320094
-0.221727 0.0372967 0.311442
-0.219849 0.0372877 0.302872
-0.220347 0.0372696 0.294234
-0.220856 0.0372515 0.285605
-0.221374 0.0372333 0.276983
-0.219517 0.0372243 0.268435
-0.220051 0.0372061 0.259828
-0.220595 0.0371879 0.251229
-0.220007 0.037174 0.242667
-0.219312 0.0371606 0.234113
-0.219882 0.0371424 0.225536
-0.220461 0.0371241 0.216968
-0.21864 0.037115 0.208459
-0.220255 0.0370928 0.199884
-0.220856 0.0370745 0.191339
-0.220453 0.03706 0.182822
-0.219667 0.037047 0.174317
-0.220294 0.0370287 0.165795
-0.22093 0.0370103 0.157281
-0.219145 0.0370011 0.148813
-0.219797 0.0369827 0.140313
-0.22046 0.0369643 0.131822
-0.218689 0.036955 0.12337
-0.219367 0.0369366 0.114894
-0.220055 0.0369181 0.106426
-0.220752 0.0368996 0.097966
-0.219003 0.0368904 0.0895371
-0.219716 0.0368718 0.0810921
-0.220439 0.0368533 0.0726554
-0.218705 0.036844 0.0642434
-0.219444 0.0368254 0.0558215
-0.220192 0.0368068 0.047408
-0.218474 0.0367975 0.0390128
-0.219237 0.0367789 0.0306142
-0.220011 0.0367602 0.022224
-0.218308 0.0367509 0.0138458
-0.219097 0.0367322 0.00547049
-0.0872003 0.0536533 1.61029
-0.105775 0.053528 1.59739
-0.114669 0.0534552 1.58608
-0.123526 0.0533827 1.5748
-0.132323 0.0533105 1.56357
-0.136347 0.0532642 1.55311
-0.140357 0.053218 1.54267
-0.148987 0.0531469 1.53153
-0.152928 0.0531011 1.52113
-0.156844 0.0530556 1.51076
-0.160732 0.0530102 1.50041
-0.164591 0.052965 1.49009
-0.163968 0.052944 1.48045
-0.167804 0.0528991 1.47015
-0.169649 0.0528648 1.46017
-0.169051 0.0528438 1.45056
-0.172822 0.0527993 1.44031
-0.176554 0.052755 1.43009
-0.180243 0.052711 1.41989
-0.179685 0.0526898 1.41032
-0.183339 0.0526461 1.40016
-0.186946 0.0526027 1.39001
-0.186418 0.0525814 1.38047
-0.187998 0.0525489 1.37063
-0.187485 0.0525276 1.3611
-0.191007 0.0524847 1.35103
-0.190513 0.0524634 1.34151
-0.19399 0.0524209 1.33147
-0.193516 0.0523995 1.32197
-0.196946 0.0523572 1.31196
-0.194481 0.0523465 1.30275
-0.197858 0.0523046 1.29277
-0.197418 0.0522831 1.2833
-0.200744 0.0522416 1.27336
-0.200323 0.0522201 1.26391
-0.203595 0.0521789 1.254
-0.203193 0.0521573 1.24457
-0.200768 0.0521465 1.2354
-0.203989 0.0521056 1.22553
-0.203613 0.052084 1.21612
-0.206775 0.0520435 1.20628
-0.206417 0.0520218 1.19689
-0.209519 0.0519817 1.18709
-0.207128 0.0519709 1.17796
-0.206795 0.0519491 1.16859
-0.20984 0.0519094 1.15883
-0.209526 0.0518876 1.14947
-0.209221 0.0518657 1.14013
-0.21221 0.0518264 1.13041
-0.209852 0.0518154 1.12132
-0.209572 0.0517935 1.11199
-0.2125 0.0517546 1.10231
-0.212239 0.0517326 1.09301
-0.211987 0.0517106 1.0837
-0.214854 0.0516722 1.07407
-0.21253 0.0516611 1.06501
-0.212303 0.051639 1.05573
-0.215104 0.051601 1.04614
-0.214895 0.0515789 1.03688
-0.214697 0.0515567 1.02762
-0.217433 0.0515191 1.01807
-0.215142 0.051508 1.00905
-0.214967 0.0514857 0.999818
-0.214803 0.0514635 0.990593
-0.217479 0.0514263 0.98109
-0.217332 0.051404 0.971881
-0.217196 0.0513816 0.962679
-0.214937 0.0513704 0.953692
-0.21755 0.0513337 0.944239
-0.217438 0.0513113 0.93506
-0.217335 0.0512888 0.925887
-0.219877 0.0512526 0.916475
-0.217645 0.0512413 0.907519
-0.217566 0.0512188 0.898369
-0.217498 0.0511963 0.889226
-0.219973 0.0511604 0.879862
-0.219922 0.0511378 0.870736
-0.217717 0.0511265 0.861808
-0.217682 0.0511039 0.852694
-0.217658 0.0510812 0.843588
-0.220072 0.0510459 0.834282
-0.220065 0.0510231 0.825193
-0.217886 0.0510118 0.816293
-0.217895 0.050989 0.807216
-0.220238 0.0509541 0.797957
-0.220265 0.0509313 0.788898
-0.220302 0.0509085 0.779846
-0.21815 0.050897 0.770974
-0.218202 0.0508741 0.761935
-0.22048 0.0508397 0.752732
-0.220551 0.0508168 0.74371
-0.218419 0.0508053 0.734861
-0.218505 0.0507823 0.725852
-0.218601 0.0507593 0.71685
-0.220813 0.0507253 0.707703
-0.220926 0.0507023 0.698719
-0.218821 0.0506907 0.689898
-0.218951 0.0506676 0.680927
-0.21909 0.0506445 0.671962
-0.219239 0.0506213 0.663006
-0.219398 0.0505981 0.654056
-0.219311 0.0505762 0.645132
-0.219484 0.050553 0.636198
-0.219666 0.0505297 0.627271
-0.219858 0.0505065 0.618353
-0.217801 0.0504948 0.609582
-0.219887 0.0504618 0.600561
-0.220102 0.0504384 0.591665
-0.220328 0.0504151 0.582777
-0.218291 0.0504034 0.57403
-0.218532 0.0503799 0.565155
-0.218783 0.0503565 0.556288
-0.219044 0.050333 0.547428
-0.217453 0.0503191 0.538679
-0.219062 0.0502887 0.529761
-0.219346 0.0502652 0.520925
-0.21964 0.0502416 0.512096
-0.218195 0.050227 0.503365
-0.217955 0.0502062 0.494578
-0.218275 0.0501825 0.485771
-0.218604 0.0501589 0.476971
-0.218943 0.0501352 0.46818
-0.218609 0.0501149 0.459428
-0.218962 0.0500912 0.450652
-0.219324 0.0500674 0.441883
-0.21807 0.050052 0.433195
-0.217749 0.0500317 0.424471
-0.218137 0.0500079 0.415724
-0.218535 0.049984 0.406985
-0.217325 0.0499684 0.39832
-0.217016 0.0499482 0.389625
-0.218946 0.0499166 0.380849
-0.219376 0.0498926 0.372141
-0.217465 0.0498806 0.363529
-0.217911 0.0498566 0.354836
-0.218367 0.0498326 0.34615
-0.218833 0.0498086 0.337472
-0.216942 0.0497965 0.328883
-0.217424 0.0497724 0.320219
-0.217915 0.0497483 0.311564
-0.218416 0.0497242 0.302916
-0.216547 0.0497121 0.294349
-0.217064 0.0496879 0.285716
-0.218961 0.0496567 0.277052
-0.217106 0.0496446 0.268502
-0.217646 0.0496203 0.259892
-0.218196 0.049596 0.251291
-0.218755 0.0495717 0.242698
-0.216921 0.0495596 0.23417
-0.217496 0.0495352 0.225591
-0.218081 0.0495108 0.217021
-0.216263 0.0494986 0.20851
-0.216863 0.0494742 0.199953
-0.217473 0.0494498 0.191405
-0.218093 0.0494253 0.182866
-0.216296 0.049413 0.174377
-0.216932 0.0493885 0.165852
-0.217578 0.049364 0.157335
-0.215796 0.0493517 0.148864
-0.216457 0.0493271 0.140361
-0.217128 0.0493025 0.131867
-0.215362 0.0492902 0.123412
-0.216048 0.0492655 0.114933
-0.216745 0.0492408 0.106462
-0.217451 0.0492161 0.0979991
-0.215706 0.0492037 0.0895673
-0.217635 0.0491729 0.0811093
-0.218364 0.0491481 0.0726708
-0.216633 0.0491357 0.064257
-0.217377 0.0491109 0.0558332
-0.218131 0.0490861 0.047418
-0.216416 0.0490736 0.039021
-0.217185 0.0490488 0.0306206
-0.217965 0.0490239 0.0222286
-0.216264 0.0490114 0.0138487
-0.21706 0.0489865 0.00547163
-0.0918819 0.0668187 1.5404
-0.105699 0.0666948 1.52843
-0.114652 0.0666038 1.51724
-0.123555 0.0665131 1.50608
-0.127665 0.0664549 1.49568
-0.13646 0.0663651 1.48459
-0.140515 0.0663074 1.47423
-0.14455 0.0662498 1.4639
-0.141988 0.0662366 1.45455
-0.146008 0.0661792 1.44424
-0.150002 0.066122 1.43396
-0.153969 0.0660651 1.42369
-0.157905 0.0660084 1.41345
-0.161809 0.065952 1.40323
-0.165677 0.0658958 1.39302
-0.16515 0.0658692 1.38346
-0.16899 0.0658134 1.37329
-0.166487 0.0658 1.36402
-0.170294 0.0657445 1.35388
-0.174058 0.0656893 1.34376
-0.173576 0.0656625 1.33424
-0.177304 0.0656076 1.32416
-0.180985 0.0655531 1.31409
-0.180532 0.0655262 1.3046
-0.184173 0.0654721 1.29457
-0.181718 0.0654586 1.28536
-0.185312 0.0654048 1.27536
-0.184895 0.0653778 1.2659
-0.188443 0.0653245 1.25594
-0.188045 0.0652974 1.24649
-0.191546 0.0652444 1.23656
-0.191167 0.0652173 1.22713
-0.192575 0.0651783 1.21749
-0.192211 0.0651512 1.20808
-0.191857 0.0651239 1.19867
-0.195262 0.0650718 1.18882
-0.194927 0.0650445 1.17943
-0.198277 0.0649928 1.1696
-0.195897 0.0649792 1.16048
-0.195587 0.0649518 1.15111
-0.198887 0.0649006 1.14133
-0.198596 0.0648731 1.13198
-0.201836 0.0648223 1.12223
-0.201564 0.0647949 1.1129
-0.199217 0.0647811 1.10381
-0.202402 0.0647308 1.0941
-0.202155 0.0647032 1.08479
-0.201917 0.0646756 1.07549
-0.205047 0.0646258 1.06583
-0.204828 0.0645981 1.05654
-0.202516 0.0645842 1.04749
-0.205585 0.0645349 1.03787
-0.205391 0.0645072 1.0286
-0.205207 0.0644793 1.01934
-0.208218 0.0644305 1.00977
-0.205932 0.0644166 1.00074
-0.205772 0.0643887 0.991507
-0.208719 0.0643404 0.981969
-0.208578 0.0643125 0.972751
-0.208446 0.0642845 0.96354
-0.211329 0.0642367 0.954044
-0.209077 0.0642227 0.945057
-0.20897 0.0641946 0.935869
-0.208873 0.0641665 0.926688
-0.211696 0.0641193 0.917242
-0.211617 0.0640911 0.908078
-0.209391 0.064077 0.899119
-0.209328 0.0640488 0.889968
-0.212089 0.0640021 0.880571
-0.212045 0.0639738 0.871437
-0.21201 0.0639455 0.86231
-0.209811 0.0639313 0.85338
-0.212508 0.0638852 0.844032
-0.212497 0.0638567 0.834928
-0.212497 0.0638283 0.825831
-0.212505 0.0637998 0.816742
-0.210334 0.0637855 0.80784
-0.212973 0.0637399 0.79855
-0.213006 0.0637114 0.789483
-0.213049 0.0636828 0.780424
-0.213101 0.0636541 0.771372
-0.213469 0.0636234 0.762304
-0.213536 0.0635947 0.753267
-0.213612 0.063566 0.744238
-0.213699 0.0635373 0.735216
-0.211575 0.0635229 0.726366
-0.214084 0.0634784 0.717181
-0.214194 0.0634496 0.708182
-0.214314 0.0634207 0.699191
-0.214444 0.0633918 0.690207
-0.212347 0.0633773 0.681386
-0.212493 0.0633483 0.672416
-0.214946 0.0633044 0.663297
-0.215109 0.0632754 0.654343
-0.213033 0.0632609 0.645546
-0.213212 0.0632318 0.636606
-0.213401 0.0632026 0.627673
-0.215788 0.0631594 0.61861
-0.21381 0.0631443 0.609831
-0.213945 0.0631156 0.600926
-0.214168 0.0630863 0.592024
-0.2144 0.063057 0.58313
-0.214643 0.0630277 0.574244
-0.212614 0.063013 0.565497
-0.214946 0.0629703 0.556506
-0.215211 0.0629409 0.547643
-0.215487 0.0629115 0.538787
-0.213479 0.0628968 0.530064
-0.213771 0.0628673 0.521222
-0.214072 0.0628378 0.512388
-0.214383 0.0628082 0.503561
-0.212397 0.0627934 0.494859
-0.214678 0.0627512 0.48595
-0.215013 0.0627216 0.477147
-0.215357 0.0626919 0.468351
-0.213391 0.0626771 0.459673
-0.213751 0.0626474 0.450892
-0.214121 0.0626176 0.442118
-0.214501 0.0625878 0.433353
-0.212556 0.0625729 0.424696
-0.214786 0.0625313 0.415866
-0.215189 0.0625014 0.407124
-0.215601 0.0624715 0.39839
-0.213677 0.0624565 0.389758
-0.214106 0.0624266 0.381037
-0.214544 0.0623966 0.372325
-0.214992 0.0623665 0.363621
-0.213089 0.0623515 0.355011
-0.213553 0.0623214 0.34632
-0.214027 0.0622913 0.337638
-0.212139 0.0622762 0.329044
-0.214334 0.0622352 0.32032
-0.214831 0.062205 0.311662
-0.215338 0.0621748 0.303012
-0.213471 0.0621596 0.294441
-0.213993 0.0621293 0.285805
-0.214525 0.062099 0.277177
-0.213376 0.0620794 0.268604
-0.213221 0.0620535 0.26001
-0.213779 0.062023 0.251404
-0.214346 0.0619926 0.242807
-0.212516 0.0619774 0.234276
-0.213099 0.0619469 0.225693
-0.213692 0.0619163 0.217118
-0.21262 0.0618963 0.208587
-0.212486 0.0618704 0.200043
-0.214669 0.0618299 0.19146
-0.215295 0.0617993 0.182918
-0.2135 0.0617839 0.174427
-0.214142 0.0617533 0.165899
-0.214793 0.0617225 0.15738
-0.213013 0.0617071 0.148906
-0.21368 0.0616764 0.140401
-0.214357 0.0616455 0.131905
-0.212593 0.0616301 0.123447
-0.213285 0.0615993 0.114965
-0.213987 0.0615684 0.106492
-0.214699 0.0615374 0.0980267
-0.212957 0.0615219 0.0895925
-0.213684 0.0614909 0.0811421
-0.214422 0.0614599 0.0727001
-0.212694 0.0614444 0.0642828
-0.213447 0.0614133 0.0558557
-0.21421 0.0613822 0.047437
-0.212498 0.0613666 0.0390367
-0.213277 0.0613355 0.0306328
-0.214065 0.0613043 0.0222375
-0.212369 0.0612886 0.0138542
-0.213173 0.0612574 0.00547381
-0.0854235 0.0799767 1.47268
-0.0993268 0.0798279 1.46085
-0.108357 0.0797184 1.44976
-0.112566 0.079648 1.43941
-0.121517 0.0795394 1.42839
-0.125685 0.0794694 1.41808
-0.129838 0.0793995 1.40779
-0.133973 0.0793299 1.39752
-0.138087 0.0792605 1.38726
-0.142179 0.0791914 1.37703
-0.146244 0.0791226 1.36682
-0.148277 0.0790701 1.35691
-0.147786 0.0790379 1.34735
-0.1518 0.0789696 1.3372
-0.15578 0.0789016 1.32706
-0.159725 0.078834 1.31694
-0.159274 0.0788017 1.30742
-0.16319 0.0787344 1.29734
-0.167065 0.0786676 1.28728
-0.164613 0.0786513 1.27805
-0.168452 0.0785848 1.26802
-0.168046 0.0785523 1.25855
-0.171848 0.0784862 1.24855
-0.175602 0.0784206 1.23857
-0.175226 0.078388 1.22913
-0.178939 0.0783227 1.21918
-0.176529 0.0783064 1.21001
-0.176179 0.0782736 1.20059
-0.179854 0.0782089 1.19068
-0.179523 0.078176 1.18128
-0.183153 0.0781117 1.17141
-0.182841 0.0780788 1.16202
-0.18435 0.0780315 1.15243
-0.184053 0.0779985 1.14306
-0.187581 0.0779352 1.13325
-0.187303 0.0779022 1.1239
-0.187035 0.0778691 1.11455
-0.190519 0.0778063 1.10479
-0.188178 0.0777897 1.09569
-0.191604 0.0777275 1.08596
-0.19137 0.0776943 1.07665
-0.191146 0.077661 1.06734
-0.194523 0.0775993 1.05765
-0.194318 0.0775659 1.04836
-0.19201 0.0775492 1.0393
-0.195333 0.0774881 1.02966
-0.195153 0.0774546 1.02039
-0.194983 0.0774211 1.01113
-0.198252 0.0773605 1.00153
-0.198101 0.077327 0.992283
-0.195827 0.0773102 0.983262
-0.199038 0.0772502 0.973699
-0.198911 0.0772165 0.964479
-0.198794 0.0771828 0.955266
-0.201947 0.0771234 0.945745
-0.199701 0.0771065 0.936755
-0.199609 0.0770727 0.927565
-0.199526 0.0770388 0.918382
-0.202625 0.07698 0.908912
-0.202561 0.0769461 0.899747
-0.200342 0.0769291 0.890785
-0.203376 0.0768709 0.881355
-0.203336 0.0768369 0.872213
-0.203306 0.0768028 0.863077
-0.203287 0.0767687 0.853949
-0.201095 0.0767516 0.845016
-0.204078 0.076694 0.835646
-0.204083 0.0766598 0.826541
-0.204097 0.0766255 0.817443
-0.207014 0.0765686 0.808114
-0.204849 0.0765514 0.799213
-0.204888 0.0765171 0.790138
-0.204936 0.0764827 0.781071
-0.204994 0.0764482 0.772011
-0.205646 0.0764092 0.762913
-0.205719 0.0763747 0.753869
-0.205801 0.0763401 0.744832
-0.205893 0.0763055 0.735802
-0.20869 0.0762499 0.72658
-0.206573 0.0762326 0.717732
-0.20669 0.0761979 0.708725
-0.206816 0.0761631 0.699727
-0.206952 0.0761284 0.690735
-0.207098 0.0760935 0.681752
-0.2076 0.076056 0.672752
-0.20776 0.0760211 0.663784
-0.207929 0.0759862 0.654823
-0.208109 0.0759512 0.645871
-0.20604 0.0759337 0.637072
-0.208723 0.0758794 0.627973
-0.208926 0.0758444 0.619044
-0.209139 0.0758093 0.610122
-0.207091 0.0757917 0.601347
-0.207321 0.0757565 0.592439
-0.20756 0.0757213 0.583538
-0.210186 0.0756677 0.574505
-0.208159 0.0756501 0.565754
-0.208422 0.0756148 0.556877
-0.208694 0.0755794 0.548008
-0.208977 0.075544 0.539146
-0.209269 0.0755086 0.530292
-0.207269 0.0754909 0.521568
-0.209843 0.0754379 0.512609
-0.210159 0.0754024 0.503779
-0.210485 0.0753668 0.494956
-0.208506 0.075349 0.486256
-0.208847 0.0753134 0.477447
-0.209199 0.0752777 0.468646
-0.20956 0.0752419 0.459853
-0.207602 0.0752241 0.451175
-0.210129 0.0751718 0.442299
-0.210514 0.075136 0.433529
-0.208571 0.075118 0.424869
-0.208971 0.0750821 0.416114
-0.209381 0.0750462 0.407366
-0.209802 0.0750103 0.398626
-0.20788 0.0749923 0.389988
-0.208316 0.0749562 0.381263
-0.208762 0.0749201 0.372545
-0.209218 0.074884 0.363836
-0.209345 0.0748504 0.355146
-0.209814 0.0748143 0.346453
-0.210293 0.0747781 0.337767
-0.210782 0.0747418 0.32909
-0.208902 0.0747237 0.320498
-0.209407 0.0746874 0.311835
-0.209921 0.074651 0.303179
-0.208057 0.0746328 0.294604
-0.208587 0.0745964 0.285963
-0.209127 0.0745599 0.27733
-0.209677 0.0745234 0.268706
-0.207833 0.0745051 0.260153
-0.208399 0.0744686 0.251542
-0.210871 0.0744175 0.242893
-0.209042 0.0743992 0.234359
-0.209631 0.0743626 0.225773
-0.210229 0.0743259 0.217195
-0.210838 0.0742891 0.208625
-0.20903 0.0742707 0.200113
-0.209654 0.0742339 0.191558
-0.210288 0.0741971 0.183012
-0.208496 0.0741786 0.174516
-0.209146 0.0741417 0.165984
-0.209805 0.0741048 0.15746
-0.208029 0.0740863 0.148982
-0.208704 0.0740493 0.140472
-0.209389 0.0740122 0.131971
-0.210084 0.0739751 0.123479
-0.208329 0.0739565 0.115024
-0.209039 0.0739194 0.106546
-0.20976 0.0738822 0.0980761
-0.20802 0.0738636 0.0896377
-0.208756 0.0738263 0.0811829
-0.209502 0.073789 0.0727367
-0.207778 0.0737703 0.0643151
-0.208539 0.0737329 0.0558837
-0.209311 0.0736955 0.0474607
-0.207602 0.0736768 0.0390562
-0.210126 0.0736262 0.0306427
-0.21092 0.0735888 0.0222446
-0.209225 0.07357 0.0138587
-0.210035 0.0735324 0.00547556
-0.0814067 0.0930447 1.40496
-0.0953977 0.0928709 1.39327
-0.104508 0.092743 1.3823
-0.108792 0.0926605 1.37202
-0.11782 0.0925336 1.36111
-0.115317 0.0925148 1.3518
-0.119566 0.0924328 1.34157
-0.128474 0.0923073 1.33074
-0.132657 0.092226 1.32056
-0.136817 0.0921451 1.31041
-0.136377 0.0921072 1.30088
-0.14052 0.0920266 1.29075
-0.144635 0.0919463 1.28065
-0.142185 0.0919273 1.27141
-0.146276 0.0918473 1.26133
-0.150332 0.0917677 1.25128
-0.154352 0.0916886 1.24125
-0.153978 0.0916504 1.23178
-0.157969 0.0915716 1.22179
-0.161919 0.0914933 1.21181
-0.159513 0.0914742 1.20262
-0.159174 0.0914358 1.19319
-0.163096 0.0913579 1.18325
-0.166972 0.0912806 1.17334
-0.166663 0.0912421 1.16394
-0.170499 0.0911652 1.15405
-0.170209 0.0911266 1.14467
-0.167844 0.0911073 1.13553
-0.171646 0.0910309 1.12569
-0.171381 0.0909922 1.11633
-0.175138 0.0909163 1.10652
-0.174893 0.0908776 1.09718
-0.178603 0.0908022 1.0874
-0.176273 0.0907828 1.0783
-0.179931 0.0907081 1.06856
-0.17972 0.0906691 1.05925
-0.17952 0.0906301 1.04994
-0.183136 0.090556 1.04024
-0.180834 0.0905364 1.03118
-0.180658 0.0904973 1.0219
-0.184226 0.0904238 1.01224
-0.18407 0.0903846 1.00298
-0.187582 0.0903116 0.993348
-0.187444 0.0902723 0.984102
-0.185176 0.0902527 0.975076
-0.188636 0.0901804 0.96549
-0.188523 0.090141 0.956267
-0.18842 0.0901015 0.947051
-0.191828 0.0900298 0.937508
-0.189587 0.0900101 0.928514
-0.189509 0.0899705 0.919321
-0.189441 0.0899308 0.910135
-0.1928 0.0898598 0.900643
-0.192751 0.0898201 0.891475
-0.190538 0.0898002 0.88251
-0.193838 0.0897299 0.873058
-0.193813 0.0896901 0.863914
-0.193798 0.0896502 0.854776
-0.193793 0.0896102 0.845646
-0.194854 0.0895606 0.836433
-0.194863 0.0895206 0.827319
-0.194882 0.0894805 0.818212
-0.194911 0.0894404 0.809113
-0.198106 0.0893715 0.799763
-0.195948 0.0893514 0.79086
-0.196001 0.0893112 0.781783
-0.196065 0.0892709 0.772715
-0.199202 0.0892027 0.763415
-0.197065 0.0891825 0.754535
-0.197153 0.0891421 0.745489
-0.19725 0.0891017 0.736452
-0.197358 0.0890612 0.727421
-0.200444 0.0889937 0.718181
-0.198334 0.0889734 0.70933
-0.198465 0.0889328 0.700323
-0.198607 0.0888921 0.691324
-0.201631 0.0888254 0.682132
-0.199542 0.088805 0.673305
-0.199708 0.0887642 0.66433
-0.199883 0.0887234 0.655361
-0.200069 0.0886825 0.646401
-0.200265 0.0886416 0.637448
-0.200975 0.0885961 0.62847
-0.201184 0.0885551 0.619533
-0.201404 0.088514 0.610604
-0.201633 0.0884729 0.601682
-0.199593 0.0884524 0.592906
-0.199838 0.0884112 0.583998
-0.202761 0.0883459 0.574941
-0.203024 0.0883047 0.566051
-0.201004 0.0882841 0.557299
-0.201283 0.0882427 0.548422
-0.201572 0.0882013 0.539553
-0.201871 0.0881599 0.530692
-0.202436 0.0881161 0.521825
-0.202748 0.0880746 0.51298
-0.203071 0.0880331 0.504143
-0.203403 0.0879915 0.495314
-0.201426 0.0879707 0.486608
-0.201774 0.0879291 0.477792
-0.202132 0.0878873 0.468984
-0.204953 0.0878236 0.460069
-0.202996 0.0878027 0.451387
-0.203378 0.0877609 0.442604
-0.203769 0.087719 0.433828
-0.204171 0.0876771 0.42506
-0.202236 0.0876561 0.4164
-0.202653 0.0876141 0.407646
-0.20308 0.087572 0.3989
-0.203517 0.0875299 0.390162
-0.203942 0.087488 0.381433
-0.204392 0.0874458 0.372712
-0.204853 0.0874036 0.363998
-0.202954 0.0873825 0.355378
-0.20343 0.0873402 0.346679
-0.203917 0.0872979 0.337987
-0.204413 0.0872555 0.329304
-0.202535 0.0872343 0.320706
-0.203047 0.0871919 0.312037
-0.203569 0.0871494 0.303376
-0.201782 0.0871274 0.294793
-0.202244 0.0870855 0.286148
-0.205006 0.0870232 0.277447
-0.205561 0.0869805 0.268819
-0.203719 0.0869592 0.260262
-0.20429 0.0869165 0.251648
-0.20487 0.0868737 0.243042
-0.203044 0.0868523 0.234502
-0.203641 0.0868094 0.225911
-0.204247 0.0867665 0.217328
-0.204863 0.0867235 0.208753
-0.203058 0.0867021 0.200236
-0.20369 0.086659 0.191675
-0.204331 0.0866159 0.183123
-0.202542 0.0865944 0.174623
-0.2032 0.0865512 0.166085
-0.203867 0.086508 0.157556
-0.202093 0.0864864 0.149072
-0.204856 0.0864248 0.140528
-0.205547 0.0863815 0.132023
-0.206247 0.0863381 0.123527
-0.204493 0.0863164 0.115069
-0.205209 0.086273 0.106587
-0.205935 0.0862295 0.0981145
-0.204197 0.0862078 0.0896727
-0.204939 0.0861642 0.0812146
-0.20569 0.0861207 0.072765
-0.203968 0.0860988 0.0643402
-0.204735 0.0860552 0.0559054
-0.205511 0.0860115 0.0474791
-0.203804 0.0859896 0.0390713
-0.204597 0.0859458 0.03066
-0.205399 0.085902 0.0222572
-0.203708 0.08588 0.0138665
-0.204526 0.0858361 0.00547864
-0.0802458 0.105961 1.32758
-0.0894794 0.105814 1.3167
-0.0986785 0.105668 1.30585
-0.103044 0.105573 1.29566
-0.112158 0.105428 1.28487
-0.11648 0.105334 1.27472
-0.114029 0.105312 1.26546
-0.118342 0.105218 1.25535
-0.122636 0.105125 1.24525
-0.126908 0.105031 1.23517
-0.131157 0.104938 1.22511
-0.135378 0.104846 1.21508
-0.13957 0.104754 1.20506
-0.137166 0.104732 1.19586
-0.141333 0.10464 1.18587
-0.145466 0.104549 1.17591
-0.145158 0.104505 1.16648
-0.149264 0.104414 1.15655
-0.148976 0.10437 1.14714
-0.153052 0.104279 1.13724
-0.15069 0.104257 1.12809
-0.154731 0.104167 1.11822
-0.158727 0.104078 1.10837
-0.158484 0.104034 1.09901
-0.162443 0.103945 1.08919
-0.16222 0.1039 1.07985
-0.159894 0.103878 1.07074
-0.163819 0.10379 1.06096
-0.163621 0.103745 1.05164
-0.167504 0.103657 1.0419
-0.167326 0.103613 1.0326
-0.167158 0.103568 1.0233
-0.168872 0.103503 1.01382
-0.168719 0.103458 1.00454
-0.172516 0.103372 0.994874
-0.172382 0.103327 0.985613
-0.176129 0.103241 0.975975
-0.173866 0.103218 0.966943
-0.173757 0.103173 0.957706
-0.177458 0.103088 0.948109
-0.177369 0.103043 0.93889
-0.177289 0.102998 0.929678
-0.17878 0.102936 0.920326
-0.178715 0.10289 0.91113
-0.178661 0.102845 0.901942
-0.182265 0.102761 0.892428
-0.182229 0.102716 0.883258
-0.180022 0.102693 0.874288
-0.180002 0.102647 0.86513
-0.183562 0.102564 0.855668
-0.183561 0.102519 0.846528
-0.18357 0.102473 0.837396
-0.18488 0.102413 0.828161
-0.184903 0.102368 0.819045
-0.184937 0.102322 0.809936
-0.184981 0.102276 0.800834
-0.188439 0.102194 0.791465
-0.186286 0.102171 0.782558
-0.186354 0.102125 0.77348
-0.186433 0.102079 0.764409
-0.189839 0.101998 0.755091
-0.187708 0.101975 0.746208
-0.18781 0.101929 0.737161
-0.187923 0.101882 0.728121
-0.191275 0.101802 0.718853
-0.191406 0.101756 0.709832
-0.189302 0.101732 0.700978
-0.189449 0.101686 0.69197
-0.189606 0.101639 0.682969
-0.19291 0.10156 0.673761
-0.190828 0.101537 0.664932
-0.191009 0.10149 0.655955
-0.1912 0.101443 0.646986
-0.191401 0.101396 0.638024
-0.192384 0.101341 0.629021
-0.192599 0.101294 0.620076
-0.192824 0.101247 0.611139
-0.19306 0.1012 0.602209
-0.193305 0.101153 0.593287
-0.191271 0.10113 0.584509
-0.194477 0.101052 0.575427
-0.194746 0.101005 0.566529
-0.195025 0.100958 0.557639
-0.193013 0.100934 0.548885
-0.193308 0.100887 0.540009
-0.193612 0.100839 0.53114
-0.196771 0.100762 0.522127
-0.19478 0.100739 0.513398
-0.195109 0.100691 0.504553
-0.195447 0.100643 0.495716
-0.195796 0.100596 0.486887
-0.193826 0.100572 0.47818
-0.19419 0.100524 0.469365
-0.197305 0.100448 0.460429
-0.19535 0.100424 0.45174
-0.195738 0.100376 0.442949
-0.196136 0.100328 0.434166
-0.196544 0.10028 0.425391
-0.194611 0.100256 0.416724
-0.195035 0.100208 0.407963
-0.195469 0.10016 0.39921
-0.198544 0.100085 0.39036
-0.196632 0.100061 0.381718
-0.197089 0.100013 0.372989
-0.197556 0.0999643 0.364269
-0.198034 0.0999159 0.355557
-0.196143 0.0998917 0.346937
-0.196636 0.0998432 0.338238
-0.197139 0.0997947 0.329548
-0.195263 0.0997704 0.320944
-0.195782 0.0997217 0.312269
-0.198829 0.0996475 0.303523
-0.199365 0.0995987 0.294866
-0.19751 0.0995744 0.286287
-0.198062 0.0995256 0.277644
-0.198624 0.0994767 0.269009
-0.196785 0.0994523 0.260446
-0.197363 0.0994033 0.251826
-0.19795 0.0993543 0.243214
-0.198548 0.0993053 0.23461
-0.19673 0.0992807 0.22607
-0.197344 0.0992316 0.217481
-0.197967 0.0991824 0.2089
-0.196164 0.0991578 0.200376
-0.196804 0.0991085 0.19181
-0.199846 0.099035 0.183207
-0.198058 0.0990103 0.174702
-0.198721 0.0989609 0.166161
-0.199393 0.0989115 0.157628
-0.200075 0.098862 0.149103
-0.198309 0.0988372 0.140622
-0.199007 0.0987876 0.132111
-0.199714 0.098738 0.12361
-0.197964 0.0987131 0.115145
-0.198687 0.0986634 0.106658
-0.19942 0.0986136 0.0981797
-0.197685 0.0985887 0.0897323
-0.198434 0.0985388 0.0812685
-0.199193 0.0984889 0.0728133
-0.197473 0.0984639 0.0643828
-0.198248 0.0984139 0.0559424
-0.199033 0.0983638 0.0475105
-0.197328 0.0983388 0.0390972
-0.198129 0.0982886 0.0306802
-0.198939 0.0982384 0.0222719
-0.19725 0.0982133 0.0138756
-0.198076 0.098163 0.00548225
-0.0699599 0.118896 1.25189
-0.0841457 0.118672 1.24052
-0.0886134 0.118565 1.23039
-0.0978801 0.1184 1.2197
-0.102318 0.118293 1.20961
-0.104667 0.118212 1.1998
-0.109076 0.118105 1.18975
-0.113469 0.117999 1.17972
-0.117842 0.117894 1.16972
-0.122193 0.117788 1.15973
-0.126519 0.117684 1.14976
-0.126243 0.117634 1.14034
-0.128452 0.117554 1.13064
-0.128192 0.117504 1.12123
-0.132478 0.1174 1.11133
-0.136731 0.117296 1.10144
-0.136501 0.117246 1.09206
-0.140729 0.117143 1.08221
-0.14492 0.11704 1.07237
-0.142597 0.117015 1.06325
-0.146754 0.116913 1.05345
-0.146569 0.116863 1.04412
-0.150693 0.116761 1.03435
-0.150527 0.116711 1.02503
-0.148233 0.116685 1.01595
-0.152328 0.116584 1.00622
-0.152188 0.116534 0.996931
-0.156245 0.116433 0.987231
-0.156125 0.116383 0.977962
-0.160141 0.116283 0.968294
-0.157882 0.116257 0.959253
-0.161852 0.116158 0.949615
-0.161767 0.116107 0.940381
-0.161691 0.116056 0.931154
-0.165624 0.115958 0.921559
-0.163394 0.115932 0.912552
-0.163343 0.115881 0.903348
-0.167235 0.115783 0.893795
-0.167204 0.115732 0.884609
-0.167183 0.115681 0.875431
-0.168843 0.115609 0.866113
-0.168836 0.115558 0.856952
-0.16884 0.115506 0.847798
-0.172643 0.11541 0.838328
-0.172666 0.115358 0.829192
-0.170491 0.115333 0.820248
-0.174245 0.115237 0.810818
-0.174293 0.115185 0.801706
-0.17435 0.115133 0.792602
-0.172198 0.115107 0.783682
-0.175908 0.115013 0.774303
-0.175991 0.114961 0.765223
-0.176083 0.114909 0.75615
-0.176185 0.114856 0.747084
-0.177617 0.114789 0.737927
-0.177734 0.114736 0.728878
-0.177861 0.114684 0.719836
-0.177998 0.114632 0.710802
-0.179369 0.114565 0.701688
-0.179521 0.114512 0.69267
-0.179682 0.11446 0.68366
-0.179854 0.114407 0.674658
-0.183423 0.114315 0.665433
-0.181347 0.114289 0.656601
-0.181543 0.114236 0.647623
-0.181749 0.114183 0.638652
-0.181965 0.11413 0.629689
-0.183211 0.114065 0.62067
-0.183441 0.114012 0.611723
-0.183682 0.113959 0.602785
-0.183932 0.113906 0.593854
-0.181899 0.11388 0.585067
-0.185374 0.113789 0.575961
-0.185649 0.113736 0.567055
-0.185933 0.113683 0.558156
-0.183921 0.113656 0.549394
-0.184222 0.113603 0.540509
-0.184532 0.113549 0.531632
-0.187966 0.113459 0.522596
-0.185976 0.113433 0.513859
-0.18631 0.113379 0.505006
-0.186654 0.113325 0.496161
-0.187009 0.113272 0.487324
-0.18504 0.113245 0.478608
-0.18541 0.113191 0.469785
-0.188806 0.113102 0.460828
-0.189194 0.113048 0.452023
-0.187246 0.113021 0.443332
-0.18765 0.112967 0.434542
-0.188065 0.112913 0.425759
-0.188489 0.112859 0.416984
-0.186562 0.112832 0.408316
-0.187002 0.112777 0.399555
-0.190365 0.11269 0.390686
-0.188454 0.112662 0.382036
-0.188917 0.112608 0.3733
-0.189391 0.112553 0.364572
-0.189875 0.112499 0.355853
-0.187985 0.112472 0.347225
-0.188484 0.112417 0.33852
-0.188994 0.112362 0.329822
-0.18712 0.112335 0.321211
-0.190452 0.112248 0.312438
-0.190985 0.112193 0.303766
-0.191528 0.112138 0.295101
-0.189675 0.112111 0.286515
-0.190233 0.112056 0.277865
-0.190802 0.112001 0.269224
-0.188965 0.111973 0.260654
-0.189549 0.111918 0.252027
-0.190144 0.111863 0.243408
-0.190748 0.111807 0.234797
-0.188932 0.11178 0.22625
-0.189552 0.111724 0.217654
-0.192874 0.111638 0.209008
-0.191072 0.11161 0.200481
-0.191716 0.111555 0.191909
-0.19237 0.111499 0.183347
-0.190584 0.111472 0.174836
-0.191254 0.111416 0.166288
-0.191933 0.11136 0.157748
-0.192622 0.111304 0.149216
-0.190858 0.111276 0.140728
-0.191563 0.11122 0.132212
-0.192278 0.111164 0.123703
-0.190529 0.111136 0.115233
-0.19126 0.11108 0.106739
-0.192 0.111024 0.098254
-0.190267 0.110996 0.0898002
-0.191023 0.11094 0.08133
-0.19179 0.110884 0.0728683
-0.190072 0.110856 0.0644314
-0.190854 0.110799 0.0559846
-0.191646 0.110743 0.0475464
-0.189944 0.110714 0.0391266
-0.190751 0.110658 0.0307033
-0.191569 0.110601 0.0222886
-0.189882 0.110573 0.013886
-0.190715 0.110516 0.00548637
-0.0553635 0.131821 1.17711
-0.0696829 0.131572 1.16589
-0.0791076 0.131387 1.15528
-0.0884936 0.131204 1.1447
-0.0909254 0.131112 1.13494
-0.0954522 0.130993 1.12495
-0.0999668 0.130874 1.11499
-0.104467 0.130756 1.10504
-0.108949 0.130637 1.09511
-0.113411 0.13052 1.0852
-0.117851 0.130402 1.07532
-0.115522 0.130374 1.06617
-0.119943 0.130257 1.05631
-0.11976 0.130201 1.04696
-0.124163 0.130084 1.03713
-0.128536 0.129968 1.02732
-0.128382 0.129912 1.018
-0.130584 0.129824 1.00844
-0.130446 0.129768 0.999132
-0.134767 0.129653 0.989385
-0.139049 0.129538 0.979658
-0.138941 0.129482 0.97038
-0.136679 0.129453 0.96132
-0.140936 0.129339 0.951634
-0.140854 0.129282 0.94238
-0.145077 0.129169 0.932726
-0.145015 0.129112 0.92349
-0.149202 0.129 0.913868
-0.146975 0.128971 0.904851
-0.146938 0.128914 0.89564
-0.151093 0.128802 0.886059
-0.151075 0.128745 0.876865
-0.155188 0.128633 0.867316
-0.15299 0.128605 0.858333
-0.152998 0.128547 0.849164
-0.157073 0.128437 0.839656
-0.1571 0.128379 0.830505
-0.154924 0.12835 0.821547
-0.158959 0.128241 0.81208
-0.159011 0.128183 0.802953
-0.159073 0.128125 0.793834
-0.163068 0.128016 0.78441
-0.160921 0.127987 0.775485
-0.161008 0.127929 0.76639
-0.161105 0.127871 0.757303
-0.165063 0.127763 0.74793
-0.16518 0.127705 0.738861
-0.16306 0.127675 0.729966
-0.166971 0.127568 0.720634
-0.167111 0.12751 0.71159
-0.167262 0.127451 0.702553
-0.165164 0.127422 0.693683
-0.169034 0.127316 0.684402
-0.169209 0.127257 0.675389
-0.169395 0.127198 0.666384
-0.167319 0.127169 0.657539
-0.167521 0.12711 0.648548
-0.171354 0.127004 0.639328
-0.171575 0.126946 0.630356
-0.171805 0.126887 0.621391
-0.169756 0.126857 0.612576
-0.173543 0.126752 0.603407
-0.173798 0.126693 0.594467
-0.174063 0.126634 0.585534
-0.172036 0.126604 0.576744
-0.172317 0.126545 0.567825
-0.176063 0.126441 0.558717
-0.176362 0.126382 0.549817
-0.174357 0.126352 0.541052
-0.174672 0.126292 0.532166
-0.174998 0.126233 0.523287
-0.175333 0.126173 0.514416
-0.176716 0.1261 0.5055
-0.177066 0.12604 0.496646
-0.177425 0.12598 0.4878
-0.175457 0.12595 0.479075
-0.175832 0.12589 0.470243
-0.176218 0.12583 0.461419
-0.179888 0.125728 0.452452
-0.177941 0.125698 0.443753
-0.178351 0.125638 0.434953
-0.178771 0.125578 0.426162
-0.1792 0.125517 0.417379
-0.177275 0.125487 0.408702
-0.17772 0.125427 0.399933
-0.181356 0.125326 0.391045
-0.181819 0.125265 0.382295
-0.179915 0.125235 0.373643
-0.180395 0.125174 0.364907
-0.180884 0.125113 0.356179
-0.178995 0.125083 0.347543
-0.179501 0.125022 0.33883
-0.180016 0.124961 0.330124
-0.180541 0.1249 0.321426
-0.178674 0.12487 0.312814
-0.182294 0.124769 0.304035
-0.182843 0.124708 0.295363
-0.180991 0.124678 0.286769
-0.181556 0.124616 0.278111
-0.182131 0.124555 0.269462
-0.182716 0.124494 0.26082
-0.180885 0.124463 0.252249
-0.181486 0.124402 0.243622
-0.182097 0.12434 0.235004
-0.180282 0.124309 0.226449
-0.180909 0.124247 0.217845
-0.184516 0.124148 0.209186
-0.182717 0.124117 0.200651
-0.183367 0.124055 0.192073
-0.184027 0.123994 0.183502
-0.184697 0.123932 0.174941
-0.182919 0.123901 0.166429
-0.183605 0.123839 0.157882
-0.184301 0.123776 0.149343
-0.182538 0.123745 0.140848
-0.18325 0.123683 0.132324
-0.183971 0.123621 0.123808
-0.182224 0.12359 0.11533
-0.182962 0.123527 0.106829
-0.183709 0.123465 0.0983371
-0.181977 0.123433 0.0898761
-0.182741 0.123371 0.0813987
-0.183514 0.123308 0.0729297
-0.181797 0.123277 0.0644858
-0.182586 0.123214 0.0560318
-0.183385 0.123151 0.0475864
-0.181685 0.12312 0.0391596
-0.182499 0.123057 0.0307292
-0.183324 0.122994 0.0223074
-0.181639 0.122962 0.0138977
-0.182479 0.122899 0.00549097
-0.0582811 0.144307 1.0818
-0.0678221 0.144104 1.07132
-0.0773327 0.143901 1.06087
-0.0819788 0.143769 1.05096
-0.0866175 0.143637 1.04107
-0.091246 0.143505 1.0312
-0.0958618 0.143374 1.02135
-0.098307 0.143274 1.01174
-0.102886 0.143143 1.00192
-0.107444 0.143013 0.992125
-0.107327 0.142951 0.98281
-0.111872 0.142821 0.973044
-0.116391 0.142691 0.963297
-0.114131 0.14266 0.954222
-0.118628 0.142531 0.944504
-0.118557 0.142468 0.935236
-0.123033 0.14234 0.92555
-0.127475 0.142213 0.915884
-0.125245 0.142181 0.906847
-0.12521 0.142118 0.897615
-0.129632 0.141991 0.887989
-0.129617 0.141928 0.878776
-0.134009 0.141801 0.869182
-0.131808 0.141769 0.86018
-0.136166 0.141644 0.850616
-0.136186 0.14158 0.841438
-0.140509 0.141455 0.831905
-0.140549 0.141391 0.822746
-0.138376 0.14136 0.813778
-0.142668 0.141235 0.804287
-0.142734 0.141171 0.795152
-0.142809 0.141108 0.786025
-0.14707 0.140984 0.776576
-0.144927 0.140952 0.767642
-0.145028 0.140888 0.75854
-0.149253 0.140765 0.749132
-0.149373 0.140701 0.740049
-0.147252 0.140669 0.73114
-0.151438 0.140547 0.721772
-0.151584 0.140482 0.712713
-0.151739 0.140418 0.703662
-0.151904 0.140353 0.694618
-0.153794 0.140264 0.685463
-0.153975 0.1402 0.676436
-0.154165 0.140135 0.667417
-0.158278 0.140014 0.658144
-0.156207 0.139982 0.649294
-0.156422 0.139917 0.6403
-0.156648 0.139852 0.631313
-0.160723 0.139733 0.622091
-0.158674 0.1397 0.613267
-0.158924 0.139635 0.604305
-0.159185 0.13957 0.595351
-0.159455 0.139504 0.586405
-0.161192 0.139418 0.577381
-0.161478 0.139353 0.568451
-0.161773 0.139288 0.55953
-0.162078 0.139222 0.550617
-0.160072 0.139189 0.541839
-0.164079 0.139071 0.532739
-0.164409 0.139006 0.523851
-0.164748 0.13894 0.51497
-0.162764 0.138907 0.506217
-0.16312 0.138841 0.497351
-0.16709 0.138724 0.488313
-0.167464 0.138658 0.479465
-0.165502 0.138625 0.470738
-0.165892 0.138559 0.461904
-0.166292 0.138493 0.453078
-0.166703 0.138426 0.444261
-0.164762 0.138393 0.435555
-0.168706 0.138277 0.426599
-0.169141 0.138211 0.417806
-0.167216 0.138177 0.40912
-0.167666 0.138111 0.400342
-0.168127 0.138044 0.391572
-0.168597 0.137977 0.382809
-0.166694 0.137944 0.374146
-0.17061 0.137829 0.36527
-0.171104 0.137762 0.356533
-0.169216 0.137728 0.347889
-0.169727 0.137661 0.339167
-0.170248 0.137594 0.330452
-0.170778 0.137527 0.321746
-0.168912 0.137493 0.313124
-0.169458 0.137426 0.304432
-0.170015 0.137358 0.295749
-0.1715 0.137278 0.287046
-0.17207 0.137211 0.27838
-0.172651 0.137143 0.269722
-0.173242 0.137075 0.261072
-0.171412 0.137041 0.252493
-0.172019 0.136974 0.243857
-0.172635 0.136906 0.23523
-0.170821 0.136872 0.226668
-0.171453 0.136804 0.218055
-0.172096 0.136736 0.209451
-0.170297 0.136702 0.200905
-0.170956 0.136634 0.192316
-0.174857 0.13652 0.183674
-0.175533 0.136452 0.175104
-0.173756 0.136418 0.166584
-0.174448 0.136349 0.158029
-0.17515 0.136281 0.149482
-0.173388 0.136247 0.140979
-0.174106 0.136178 0.132447
-0.174834 0.136109 0.123923
-0.173088 0.136075 0.115438
-0.173832 0.136006 0.106929
-0.174585 0.135937 0.0984285
-0.172855 0.135903 0.0899596
-0.173624 0.135834 0.0814742
-0.174404 0.135765 0.0729974
-0.172689 0.13573 0.0645456
-0.173484 0.135661 0.0560838
-0.174289 0.135592 0.0476305
-0.17259 0.135557 0.0391958
-0.173411 0.135488 0.0307576
-0.174242 0.135418 0.022328
-0.172558 0.135383 0.0139106
-0.173405 0.135314 0.00549605
-0.0544793 0.156779 0.98806
-0.0641331 0.156557 0.977742
-0.0737539 0.156335 0.967453
-0.071483 0.156301 0.958338
-0.0810585 0.15608 0.948095
-0.0857853 0.155936 0.938338
-0.0904987 0.155792 0.928599
-0.0951959 0.155648 0.918878
-0.0929589 0.155614 0.909812
-0.0976444 0.155471 0.90012
-0.102308 0.155328 0.890448
-0.102295 0.155259 0.881208
-0.106945 0.155116 0.871567
-0.111568 0.154975 0.861944
-0.109369 0.15494 0.852926
-0.109391 0.154871 0.843724
-0.114002 0.154729 0.834142
-0.11858 0.154589 0.82458
-0.116404 0.154554 0.815591
-0.116462 0.154484 0.806425
-0.121023 0.154344 0.796903
-0.121101 0.154275 0.787756
-0.125633 0.154135 0.778266
-0.123487 0.1541 0.769313
-0.123591 0.15403 0.76019
-0.128099 0.153891 0.750741
-0.128223 0.153821 0.741637
-0.132699 0.153683 0.732219
-0.130581 0.153648 0.723301
-0.130731 0.153578 0.714222
-0.135177 0.153441 0.704845
-0.135346 0.15337 0.695786
-0.133251 0.153335 0.686893
-0.137665 0.153198 0.677556
-0.137859 0.153128 0.668522
-0.138063 0.153057 0.659496
-0.13599 0.153021 0.650627
-0.14038 0.152886 0.641343
-0.140609 0.152815 0.632342
-0.140849 0.152743 0.623348
-0.142904 0.152644 0.614249
-0.143159 0.152573 0.605273
-0.143424 0.152502 0.596304
-0.143699 0.15243 0.587343
-0.14571 0.152332 0.578289
-0.146 0.152261 0.569346
-0.1463 0.152189 0.56041
-0.14661 0.152117 0.551482
-0.144603 0.152081 0.54269
-0.148899 0.151948 0.533561
-0.149234 0.151876 0.524659
-0.149579 0.151805 0.515764
-0.147594 0.151768 0.506998
-0.151854 0.151636 0.49792
-0.152224 0.151564 0.489051
-0.152604 0.151492 0.48019
-0.150641 0.151456 0.471449
-0.151036 0.151383 0.462602
-0.155266 0.151252 0.453586
-0.15568 0.15118 0.444759
-0.153739 0.151143 0.436043
-0.15417 0.151071 0.42723
-0.15461 0.150998 0.418424
-0.155061 0.150925 0.409626
-0.153141 0.150889 0.400933
-0.157352 0.150758 0.392001
-0.157827 0.150685 0.383229
-0.155924 0.150649 0.374556
-0.156415 0.150576 0.365798
-0.156916 0.150503 0.357048
-0.157427 0.150429 0.348307
-0.155545 0.150393 0.339656
-0.159734 0.150263 0.330806
-0.160269 0.15019 0.32209
-0.158403 0.150153 0.313459
-0.158954 0.150079 0.304758
-0.159516 0.150006 0.296065
-0.160087 0.149932 0.28738
-0.158243 0.149895 0.278772
-0.15883 0.149821 0.270101
-0.159427 0.149747 0.261439
-0.161173 0.149655 0.252756
-0.161785 0.149581 0.244111
-0.162407 0.149507 0.235475
-0.160593 0.14947 0.226904
-0.161231 0.149396 0.218282
-0.161878 0.149321 0.209669
-0.162536 0.149247 0.201064
-0.160744 0.14921 0.192515
-0.161417 0.149135 0.183925
-0.162101 0.14906 0.175343
-0.160324 0.149023 0.166812
-0.161024 0.148948 0.158245
-0.165213 0.14882 0.149633
-0.163452 0.148783 0.141122
-0.164175 0.148708 0.132581
-0.164909 0.148633 0.124049
-0.163163 0.148595 0.115554
-0.163913 0.14852 0.107037
-0.164672 0.148445 0.0985278
-0.162942 0.148407 0.0900503
-0.163717 0.148332 0.0815564
-0.164502 0.148256 0.073071
-0.162788 0.148218 0.0646106
-0.163589 0.148143 0.0561402
-0.1644 0.148067 0.0476784
-0.162701 0.148029 0.0392353
-0.163528 0.147953 0.0307885
-0.164365 0.147877 0.0223504
-0.162682 0.147839 0.0139245
-0.163535 0.147763 0.00550157
-0.0493835 0.169096 0.885919
-0.0591582 0.168855 0.875776
-0.0618157 0.168734 0.866281
-0.0666879 0.168576 0.856607
-0.0715539 0.168418 0.846951
-0.076411 0.168261 0.837314
-0.0812566 0.168104 0.827694
-0.0860878 0.167947 0.818093
-0.0839112 0.167909 0.809081
-0.0887326 0.167753 0.799508
-0.0935343 0.167597 0.789954
-0.0936239 0.167521 0.780789
-0.0961619 0.167404 0.771441
-0.0962676 0.167328 0.762293
-0.101039 0.167173 0.752799
-0.105782 0.167019 0.743323
-0.105918 0.166942 0.734207
-0.103796 0.166904 0.725264
-0.108526 0.16675 0.715829
-0.108688 0.166674 0.706738
-0.113394 0.166521 0.697334
-0.111296 0.166482 0.688421
-0.111483 0.166405 0.679355
-0.116171 0.166253 0.669992
-0.116378 0.166176 0.660946
-0.121037 0.166024 0.651614
-0.118967 0.165986 0.642736
-0.1192 0.165909 0.633715
-0.123834 0.165758 0.624424
-0.124087 0.16568 0.615422
-0.12204 0.165642 0.60657
-0.122308 0.165564 0.597582
-0.126924 0.165414 0.588343
-0.127212 0.165336 0.579375
-0.125187 0.165297 0.570548
-0.129772 0.165148 0.56135
-0.130086 0.16507 0.552407
-0.13041 0.164992 0.543472
-0.128407 0.164953 0.534671
-0.132968 0.164805 0.525525
-0.133317 0.164726 0.516616
-0.133676 0.164648 0.507714
-0.131696 0.164609 0.498939
-0.13623 0.164461 0.489845
-0.136615 0.164383 0.48097
-0.13465 0.164343 0.472215
