ply
format ascii 1.0
comment Created by Open3D
element vertex 1847
property double x
property double y
property double z
end_header
-0.911872 -2.6562 1.75278
-0.906044 -2.65666 1.74456
-0.897939 -2.65778 1.73677
-0.889836 -2.6589 1.72897
-0.887842 -2.65824 1.72001
-1.10315 -2.64008 2.10784
-1.12922 -2.63109 2.09217
-1.147 -2.62456 2.07852
-1.15793 -2.62007 2.06652
-1.16794 -2.61585 2.05476
-1.16156 -2.61649 2.04683
-1.15367 -2.61758 2.03924
-1.14394 -2.61921 2.03206
-1.1454 -2.61753 2.02232
-1.13751 -2.61861 2.01472
-1.12961 -2.6197 2.00711
-1.12171 -2.62079 1.99949
-1.1211 -2.61972 1.99023
-1.11503 -2.62026 1.9822
-1.10527 -2.6219 1.97498
-1.09734 -2.62299 1.96735
-1.09808 -2.62152 1.9578
-1.09008 -2.62264 1.95017
-1.08205 -2.62376 1.94255
-1.07398 -2.62488 1.93492
-1.0735 -2.62378 1.92565
-1.06501 -2.62503 1.9181
-1.05627 -2.62636 1.9106
-1.05551 -2.62534 1.9014
-1.04517 -2.62713 1.89423
-1.04132 -2.62702 1.88568
-1.03552 -2.62748 1.87754
-1.02785 -2.62848 1.86978
-1.02608 -2.62776 1.8608
-1.01872 -2.62867 1.85297
-1.01219 -2.62934 1.84496
-1.0027 -2.63088 1.83756
-1.00065 -2.63024 1.82863
-0.992962 -2.63125 1.82085
-0.985069 -2.63231 1.8131
-0.983076 -2.63166 1.80417
-0.975092 -2.63275 1.79643
-0.969325 -2.63319 1.78824
-0.961248 -2.63431 1.78051
-0.959293 -2.63364 1.77157
-0.951198 -2.63476 1.76383
-0.945388 -2.63522 1.75564
-0.937268 -2.63634 1.74789
-0.929141 -2.63747 1.74013
-0.927199 -2.6368 1.73119
-0.921377 -2.63726 1.72299
-0.913242 -2.63838 1.71522
-0.907602 -2.63879 1.70697
-1.05593 -2.64284 2.1286
-1.10468 -2.62718 2.10747
-1.12671 -2.61942 2.09277
-1.14441 -2.61294 2.07913
-1.15527 -2.60849 2.06714
-1.16519 -2.60432 2.0554
-1.17473 -2.60027 2.04378
-1.1805 -2.59733 2.03305
-1.17963 -2.59635 2.02387
-1.16716 -2.59878 2.01735
-1.1661 -2.59785 2.00822
-1.16002 -2.5984 2.00023
-1.15208 -2.5995 1.99265
-1.14224 -2.60116 1.98549
-1.14251 -2.59984 1.97607
-1.13637 -2.6004 1.96808
-1.12828 -2.60154 1.96051
-1.11819 -2.60326 1.95337
-1.11957 -2.60163 1.94372
-1.11119 -2.60285 1.9362
-1.1027 -2.6041 1.92869
-1.10064 -2.60346 1.91979
-1.094 -2.60417 1.91188
-1.0847 -2.60566 1.90453
-1.08326 -2.60485 1.8955
-1.07278 -2.60667 1.88839
-1.06949 -2.6064 1.87975
-1.06511 -2.60645 1.87134
-1.05962 -2.60682 1.86316
-1.05305 -2.6075 1.8552
-1.04545 -2.60849 1.84745
-1.03925 -2.60906 1.83941
-1.02962 -2.61064 1.83206
-1.02765 -2.60998 1.82315
-1.02158 -2.61051 1.81507
-1.01265 -2.61188 1.80756
-1.0106 -2.61125 1.79866
-1.00341 -2.61211 1.79079
-0.995918 -2.61305 1.78298
-0.986006 -2.6147 1.77563
-0.986218 -2.61341 1.76629
-0.978408 -2.61445 1.75852
-0.970501 -2.61551 1.75077
-0.96852 -2.61486 1.74186
-0.960556 -2.61594 1.7341
-0.952539 -2.61703 1.72635
-0.95058 -2.61637 1.71744
-0.942534 -2.61747 1.70969
-0.936021 -2.61813 1.70164
-1.07195 -2.6256 2.12479
-1.10625 -2.61427 2.1071
-1.12742 -2.60679 2.0926
-1.14185 -2.60131 2.07973
-1.15263 -2.5969 2.06775
-1.16246 -2.59278 2.05603
-1.17158 -2.58887 2.04451
-1.17757 -2.58588 2.03373
-1.18616 -2.58213 2.02238
-1.18827 -2.58028 2.01253
-1.19311 -2.57764 2.00208
-1.18856 -2.57774 1.99377
-1.18047 -2.57888 1.98626
-1.17234 -2.58003 1.97875
-1.16418 -2.58119 1.97123
-1.16554 -2.57956 1.9616
-1.15721 -2.58077 1.95412
-1.14881 -2.582 1.94664
-1.14723 -2.58123 1.93766
-1.14077 -2.58189 1.92976
-1.12957 -2.58393 1.92287
-1.12908 -2.58285 1.91366
-1.11961 -2.58438 1.90638
-1.10984 -2.586 1.89916
-1.11092 -2.58446 1.88962
-1.10509 -2.58493 1.88155
-1.09733 -2.58596 1.87389
-1.09351 -2.58585 1.86539
-1.08435 -2.58729 1.85801
-1.07852 -2.58776 1.84992
-1.07192 -2.58845 1.84199
-1.06455 -2.58937 1.83422
-1.06302 -2.58859 1.82524
-1.05475 -2.58976 1.81764
-1.04818 -2.59045 1.80969
-1.04081 -2.59136 1.80189
-1.03885 -2.59071 1.79301
-1.03077 -2.59182 1.78535
-1.02218 -2.59308 1.77778
-1.02015 -2.59245 1.76891
-1.01332 -2.59321 1.76098
-1.00618 -2.59405 1.75311
-0.996609 -2.59559 1.7457
-0.996782 -2.59432 1.73641
-0.98703 -2.59592 1.72903
-0.985018 -2.59528 1.72016
-0.97734 -2.59627 1.71236
-0.969558 -2.5973 1.70459
-0.96757 -2.59665 1.69571
-1.07763 -2.61144 2.12344
-1.10386 -2.60252 2.10767
-1.12496 -2.5951 2.09318
-1.13931 -2.58967 2.08033
-1.14948 -2.58546 2.06849
-1.15931 -2.58136 2.05677
-1.16875 -2.57737 2.04516
-1.17444 -2.57448 2.03445
-1.18 -2.57163 2.02379
-1.18824 -2.56801 2.01254
-1.19002 -2.56626 2.00278
-1.19464 -2.5637 1.99239
-1.19591 -2.56211 1.98278
-1.19941 -2.55987 1.97268
-1.19764 -2.55917 1.96377
-1.19123 -2.55981 1.95589
-1.18484 -2.56046 1.94801
-1.17616 -2.56176 1.94062
-1.17382 -2.56122 1.93184
-1.16721 -2.56193 1.924
-1.15805 -2.56337 1.9167
-1.15446 -2.56319 1.90818
-1.1475 -2.564 1.9004
-1.14275 -2.56416 1.89213
-1.13543 -2.56506 1.88441
-1.13274 -2.56462 1.8757
-1.12507 -2.56563 1.86805
-1.12155 -2.56544 1.85952
-1.11323 -2.56663 1.85199
-1.1082 -2.56687 1.84377
-1.09923 -2.56824 1.83636
-1.09633 -2.56787 1.82769
-1.08951 -2.56863 1.81983
-1.08212 -2.56955 1.81208
-1.07416 -2.57063 1.80444
-1.07252 -2.56989 1.79551
-1.06635 -2.57046 1.78751
-1.05716 -2.57189 1.78009
-1.05529 -2.57122 1.77122
-1.04785 -2.57215 1.76345
-1.04214 -2.57258 1.75533
-1.03155 -2.57441 1.74816
-1.02954 -2.57378 1.73932
-1.02298 -2.57446 1.73136
-1.01393 -2.57584 1.72387
-1.01191 -2.57522 1.71502
-1.0048 -2.57605 1.70715
-0.998152 -2.57674 1.69919
-0.986627 -2.57884 1.69214
-1.07934 -2.59845 2.12303
-1.10467 -2.58983 2.10748
-1.12251 -2.5834 2.09376
-1.13364 -2.57893 2.08166
-1.14687 -2.57385 2.0691
-1.15661 -2.56979 2.0574
-1.16282 -2.56676 2.04653
-1.17153 -2.56301 2.03512
-1.1769 -2.56023 2.0245
-1.18199 -2.55753 2.01397
-1.18676 -2.55493 2.00352
-1.19126 -2.55241 1.99316
-1.19548 -2.54997 1.98288
-1.19636 -2.54851 1.97336
-1.19999 -2.54624 1.96324
-1.20028 -2.54495 1.95389
-1.20026 -2.54375 1.9446
-1.19994 -2.54263 1.9354
-1.19929 -2.54161 1.92627
-1.193 -2.54222 1.91838
-1.18622 -2.54297 1.91059
-1.18229 -2.5429 1.90218
-1.17527 -2.54372 1.89443
-1.17035 -2.54393 1.88623
-1.16302 -2.54484 1.87854
-1.16038 -2.5444 1.86986
-1.14923 -2.54641 1.86296
-1.14567 -2.54622 1.85447
-1.14163 -2.54618 1.84607
-1.13329 -2.54738 1.83857
-1.12848 -2.54756 1.83032
-1.12317 -2.54788 1.82218
-1.11735 -2.54835 1.81415
-1.11104 -2.54896 1.8062
-1.10425 -2.5497 1.79835
-1.09972 -2.5498 1.79004
-1.09186 -2.55085 1.7824
-1.08356 -2.55203 1.77484
-1.08187 -2.55131 1.76596
-1.07546 -2.55195 1.75801
-1.06852 -2.55273 1.75016
-1.05882 -2.55431 1.74285
-1.0569 -2.55365 1.73401
-1.0513 -2.55406 1.72589
-1.04085 -2.55584 1.7187
-1.04024 -2.55482 1.70962
-1.02973 -2.55661 1.70242
-1.01224 -2.5604 1.69653
-0.973583 -2.57021 1.69458
-1.03538 -2.59994 2.1431
-1.08021 -2.5857 2.12282
-1.10233 -2.57806 2.10803
-1.1201 -2.57168 2.09433
-1.13116 -2.56725 2.08224
-1.14117 -2.56312 2.07043
-1.15081 -2.55911 2.05874
-1.15972 -2.55531 2.04725
-1.16553 -2.55242 2.0365
-1.17081 -2.54968 2.0259
-1.17585 -2.54701 2.01537
-1.18063 -2.54441 2.00492
-1.18209 -2.54278 1.99523
-1.18633 -2.54035 1.98494
-1.19028 -2.538 1.97473
-1.1909 -2.53662 1.96527
-1.19424 -2.53445 1.95523
-1.19425 -2.53325 1.94593
-1.19694 -2.53127 1.93606
-1.1963 -2.53025 1.92692
-1.19831 -2.52847 1.91722
-1.19561 -2.52805 1.90855
-1.19413 -2.52728 1.89963
-1.1923 -2.52661 1.89078
-1.19012 -2.52603 1.88201
-1.18759 -2.52557 1.87332
-1.1847 -2.5252 1.86471
-1.18104 -2.52506 1.85627
-1.17357 -2.526 1.84862
-1.16173 -2.52819 1.84188
-1.16162 -2.52703 1.83269
-1.1572 -2.5271 1.8244
-1.15236 -2.52729 1.81619
-1.14227 -2.52898 1.80906
-1.13634 -2.52948 1.80106
-1.12998 -2.53011 1.79315
-1.1232 -2.53085 1.78532
-1.12193 -2.53002 1.77638
-1.11463 -2.53091 1.76865
-1.10958 -2.53116 1.76047
-1.10141 -2.53229 1.7529
-1.0979 -2.5321 1.74441
-1.09157 -2.53271 1.73646
-1.08048 -2.53468 1.72944
-1.07131 -2.53609 1.72203
-1.05912 -2.53837 1.7152
-1.04631 -2.54081 1.70846
-1.02372 -2.54603 1.70356
-0.996964 -2.55242 1.69941
-1.04435 -2.58479 2.14095
-1.07886 -2.5736 2.12314
-1.10002 -2.56627 2.10858
-1.1177 -2.55994 2.09489
-1.12804 -2.55574 2.08297
-1.13806 -2.55164 2.07116
-1.14771 -2.54764 2.05946
-1.15387 -2.54465 2.04861
-1.15938 -2.54185 2.03792
-1.16476 -2.5391 2.02729
-1.17273 -2.5356 2.01608
-1.1774 -2.53305 2.00565
-1.17876 -2.53145 1.99599
-1.18287 -2.52907 1.98572
-1.18367 -2.52764 1.97621
-1.18718 -2.52543 1.9661
-1.18738 -2.52417 1.95675
-1.19026 -2.52215 1.94681
-1.18982 -2.52108 1.93762
-1.19036 -2.51973 1.92822
-1.18942 -2.5188 1.91916
-1.19109 -2.51713 1.90953
-1.18946 -2.5164 1.90063
-1.18748 -2.51578 1.89181
-1.1872 -2.51467 1.88264
-1.18468 -2.5142 1.87394
-1.1818 -2.51383 1.86533
-1.18145 -2.51274 1.85618
-1.1776 -2.51265 1.84778
-1.1738 -2.51254 1.83937
-1.16968 -2.51253 1.83102
-1.16533 -2.51258 1.82272
-1.16061 -2.51274 1.8145
-1.15552 -2.513 1.80635
-1.15007 -2.51336 1.79827
-1.14425 -2.51383 1.79027
-1.13808 -2.5144 1.78233
-1.13155 -2.51507 1.77446
-1.12466 -2.51584 1.76666
-1.11743 -2.51671 1.75891
-1.10986 -2.51767 1.75123
-1.09996 -2.51929 1.744
-1.08878 -2.52127 1.73701
-1.0777 -2.52322 1.72998
-1.06317 -2.52614 1.72361
-1.05077 -2.52846 1.7168
-1.03193 -2.5326 1.7112
-1.00937 -2.53778 1.70629
-0.981536 -2.54445 1.70233
-1.04621 -2.57171 2.14051
-1.07665 -2.56174 2.12367
-1.09774 -2.55446 2.10912
-1.11223 -2.54909 2.09618
-1.12559 -2.54404 2.08355
-1.13552 -2.53998 2.07175
-1.14506 -2.53603 2.06008
-1.14806 -2.53396 2.04995
-1.15653 -2.53033 2.03858
-1.16171 -2.52764 2.02799
-1.16362 -2.52589 2.01816
-1.1683 -2.52335 2.00772
-1.17271 -2.52089 1.99736
-1.17639 -2.51864 1.98718
-1.17767 -2.51708 1.97755
-1.17821 -2.51573 1.9681
-1.18142 -2.51362 1.95807
-1.18134 -2.51245 1.94878
-1.18389 -2.51053 1.93892
-1.18316 -2.50955 1.9298
-1.18502 -2.50783 1.92012
-1.18227 -2.50742 1.91145
-1.18067 -2.50669 1.90253
-1.18164 -2.50522 1.89307
-1.17934 -2.50469 1.88431
-1.17667 -2.50426 1.87564
-1.176 -2.50327 1.86655
-1.17278 -2.503 1.85801
-1.1692 -2.50283 1.84954
-1.16524 -2.50277 1.84115
-1.16104 -2.50278 1.83281
-1.15938 -2.50207 1.82395
-1.1549 -2.50216 1.81567
-1.14983 -2.50241 1.80751
-1.1444 -2.50277 1.79943
-1.1386 -2.50323 1.79141
-1.13244 -2.50379 1.78346
-1.12592 -2.50445 1.77559
-1.11905 -2.50521 1.76777
-1.10739 -2.50732 1.7609
-1.09967 -2.50832 1.75324
-1.09161 -2.50941 1.74564
-1.07824 -2.512 1.73906
-1.06694 -2.514 1.73207
-1.05222 -2.51696 1.72572
-1.03962 -2.51932 1.71894
-1.01781 -2.52427 1.7139
-0.994383 -2.52967 1.70913
-0.959498 -2.53828 1.70649
-1.04814 -2.55861 2.14005
-1.07448 -2.54986 2.12418
-1.09548 -2.54265 2.10965
-1.1099 -2.53732 2.09673
-1.12009 -2.5332 2.08484
-1.12993 -2.52918 2.07306
-1.13632 -2.52615 2.06211
-1.14502 -2.52247 2.05066
-1.15045 -2.51972 2.03998
-1.15573 -2.51702 2.02936
-1.16056 -2.51444 2.01886
-1.16512 -2.51195 2.00844
-1.16641 -2.51039 1.99878
-1.17041 -2.50806 1.98852
-1.1741 -2.50581 1.97835
-1.17452 -2.5045 1.96893
-1.17759 -2.50244 1.95892
-1.17737 -2.50132 1.94966
-1.17684 -2.50028 1.94048
-1.17728 -2.49897 1.93109
-1.17624 -2.49808 1.92203
-1.17777 -2.49646 1.91242
-1.17602 -2.49577 1.90353
-1.17393 -2.49518 1.89472
-1.17354 -2.49411 1.88555
-1.1709 -2.49368 1.87687
-1.1679 -2.49335 1.86827
-1.16452 -2.49312 1.85974
-1.16079 -2.493 1.8513
-1.15953 -2.49217 1.84234
-1.15534 -2.49218 1.83399
-1.15086 -2.49226 1.82571
-1.146 -2.49246 1.8175
-1.14077 -2.49275 1.80936
-1.13518 -2.49315 1.8013
-1.12923 -2.49365 1.7933
-1.12291 -2.49425 1.78538
-1.11623 -2.49495 1.77752
-1.10921 -2.49575 1.76973
-1.09734 -2.49791 1.76289
-1.08946 -2.49894 1.75525
-1.08125 -2.50007 1.74767
-1.06768 -2.5027 1.74112
-1.05617 -2.50475 1.73416
-1.04126 -2.50775 1.72783
-1.02573 -2.51092 1.7216
-1.00644 -2.51514 1.71607
-0.98274 -2.52059 1.71134
-0.937158 -2.53214 1.7107
-1.04913 -2.54579 2.13981
-1.07542 -2.5371 2.12396
-1.09326 -2.53082 2.11018
-1.10453 -2.5264 2.098
-1.11464 -2.52233 2.08612
-1.12439 -2.51835 2.07436
-1.13329 -2.51463 2.06282
-1.13928 -2.51173 2.05199
-1.14763 -2.50817 2.04063
-1.14971 -2.50638 2.03074
-1.15455 -2.50382 2.02023
-1.15894 -2.50138 2.00985
-1.1631 -2.49902 1.99953
-1.16401 -2.49757 1.98997
-1.16757 -2.49538 1.97982
-1.16861 -2.4939 1.97025
-1.16874 -2.49267 1.96089
-1.1715 -2.49071 1.95096
-1.17099 -2.48967 1.94176
-1.17015 -2.48873 1.93265
-1.17187 -2.48706 1.92298
-1.16905 -2.48668 1.91431
-1.16735 -2.48598 1.9054
-1.16816 -2.48457 1.89596
-1.16573 -2.48408 1.88722
-1.16294 -2.48369 1.87856
-1.15979 -2.4834 1.86998
-1.15882 -2.4825 1.86094
-1.1551 -2.48237 1.85249
-1.15102 -2.48234 1.84411
-1.14674 -2.48237 1.83578
-1.1421 -2.4825 1.82751
-1.13709 -2.48273 1.81933
-1.1317 -2.48307 1.81121
-1.12595 -2.48351 1.80317
-1.11984 -2.48405 1.7952
-1.11336 -2.48469 1.7873
-1.10653 -2.48543 1.77947
-1.09935 -2.48627 1.77169
-1.09182 -2.4872 1.76399
-1.07924 -2.48955 1.75726
-1.07088 -2.49071 1.7497
-1.05711 -2.49338 1.74318
-1.04539 -2.49548 1.73625
-1.03029 -2.49851 1.72995
-1.01458 -2.50172 1.72374
-0.991758 -2.50689 1.71887
-0.964828 -2.51321 1.71474
-1.00212 -2.54777 2.1607
-1.05013 -2.53297 2.13957
-1.07024 -2.52606 2.12519
-1.088 -2.51983 2.11143
-1.10148 -2.51482 2.09872
-1.1116 -2.51076 2.08683
-1.12136 -2.5068 2.07506
-1.1277 -2.50382 2.06412
-1.13327 -2.50105 2.05338
-1.13883 -2.49829 2.04266
-1.14679 -2.49486 2.03141
-1.15152 -2.49234 2.02092
-1.153 -2.49073 2.0112
-1.15717 -2.48837 2.00087
-1.1581 -2.48693 1.9913
-1.16168 -2.48474 1.98114
-1.16201 -2.48347 1.97172
-1.16494 -2.48146 1.96173
-1.16463 -2.48037 1.95248
-1.16399 -2.47937 1.9433
-1.16435 -2.4781 1.93392
-1.16319 -2.47725 1.92487
-1.16457 -2.47569 1.91528
-1.16271 -2.47503 1.9064
-1.16049 -2.47448 1.89761
-1.15716 -2.47424 1.88905
-1.15724 -2.47305 1.87977
-1.15411 -2.47276 1.87118
-1.15061 -2.47257 1.86267
-1.14673 -2.47248 1.85424
-1.14257 -2.47247 1.84587
-1.13831 -2.4725 1.83752
-1.13369 -2.47262 1.82925
-1.13149 -2.47206 1.82048
-1.12613 -2.47239 1.81235
-1.11762 -2.4736 1.80487
-1.11153 -2.47413 1.79688
-1.10507 -2.47476 1.78897
-1.09826 -2.47549 1.78112
-1.08948 -2.47677 1.77366
-1.08179 -2.47774 1.76597
-1.07104 -2.47956 1.75888
-1.0605 -2.48132 1.75174
-1.05167 -2.48261 1.74424
-1.03724 -2.48544 1.73783
-1.01931 -2.48925 1.73206
-1.0003 -2.49335 1.72648
-0.980311 -2.49772 1.72105
-0.949483 -2.50508 1.71765
-1.01131 -2.53257 2.15849
-1.0491 -2.52072 2.13982
-1.06817 -2.51414 2.12569
-1.08495 -2.50822 2.11215
-1.09923 -2.503 2.09925
-1.10926 -2.49899 2.08738
-1.11591 -2.49593 2.07634
-1.12169 -2.49311 2.06552
-1.13061 -2.48942 2.054
-1.13585 -2.48676 2.04335
-1.13796 -2.48498 2.03344
-1.14262 -2.48249 2.02296
-1.14709 -2.48006 2.01254
-1.15095 -2.4778 2.00228
-1.15223 -2.47626 1.99262
-1.15521 -2.47425 1.98259
-1.15617 -2.47281 1.97302
-1.15621 -2.47162 1.96367
-1.15883 -2.46971 1.95376
-1.15822 -2.46871 1.94457
-1.15727 -2.4678 1.93547
-1.15884 -2.4662 1.92582
-1.15597 -2.46583 1.91715
-1.15414 -2.46517 1.90825
-1.1548 -2.46382 1.89883
-1.15225 -2.46336 1.8901
-1.14933 -2.46301 1.88146
-1.14564 -2.46287 1.87298
-1.14217 -2.46267 1.86445
-1.14112 -2.4618 1.85542
-1.13696 -2.46179 1.84704
-1.13255 -2.46185 1.83872
-1.12777 -2.46202 1.83047
-1.12261 -2.46229 1.8223
-1.11709 -2.46266 1.8142
-1.11119 -2.46313 1.80617
-1.10493 -2.46371 1.79822
-1.09831 -2.46438 1.79033
-1.08861 -2.46591 1.78305
-1.08128 -2.46677 1.77529
-1.07361 -2.46773 1.76759
-1.06086 -2.4701 1.76089
-1.0501 -2.47191 1.75377
-1.04112 -2.47323 1.7463
-1.0265 -2.4761 1.73991
-1.00831 -2.47996 1.73418
-0.989066 -2.4841 1.72864
-0.968857 -2.48851 1.72324
-0.927535 -2.49872 1.72182
-1.01344 -2.51938 2.15798
-1.0471 -2.50873 2.14029
-1.06613 -2.50221 2.12617
-1.07979 -2.49718 2.11337
-1.09099 -2.49286 2.10119
-1.10094 -2.48888 2.08933
-1.10992 -2.48518 2.07774
-1.11917 -2.48141 2.0661
-1.12466 -2.4787 2.05537
-1.13012 -2.47599 2.04467
-1.13501 -2.47344 2.03411
-1.13963 -2.47098 2.02364
-1.14104 -2.46941 2.01391
-1.1451 -2.4671 2.0036
-1.14595 -2.46569 1.99403
-1.1494 -2.46356 1.98389
-1.14964 -2.46232 1.97448
-1.15244 -2.46037 1.96451
-1.15203 -2.45932 1.95526
-1.15128 -2.45836 1.9461
-1.15154 -2.45712 1.93672
-1.15028 -2.4563 1.92768
-1.1515 -2.4548 1.91812
-1.14952 -2.45419 1.90925
-1.1463 -2.45392 1.90065
-1.14378 -2.45345 1.89191
-1.1409 -2.45309 1.88325
-1.14044 -2.45206 1.87408
-1.1368 -2.4519 1.86558
-1.13279 -2.45185 1.85716
-1.12855 -2.45187 1.8488
-1.12422 -2.45191 1.84045
-1.11946 -2.45206 1.83218
-1.11433 -2.45232 1.824
-1.10883 -2.45269 1.81589
-1.10296 -2.45315 1.80785
-1.09672 -2.45371 1.79988
-1.09012 -2.45438 1.79198
-1.08316 -2.45514 1.78414
-1.07145 -2.45721 1.77725
-1.06363 -2.4582 1.76957
-1.05336 -2.45987 1.76236
-1.04202 -2.46183 1.75536
-1.03056 -2.46383 1.74836
-1.01574 -2.46674 1.74199
-0.997304 -2.47064 1.73631
-0.977824 -2.47483 1.73079
-0.951224 -2.48096 1.7266
-0.901343 -2.49347 1.72679
-1.01453 -2.50647 2.15772
-1.04514 -2.49674 2.14076
-1.06311 -2.49054 2.12689
-1.0777 -2.48528 2.11387
-1.088 -2.48123 2.1019
-1.09796 -2.47727 2.09003
-1.10753 -2.47342 2.0783
-1.11324 -2.47065 2.06749
-1.12203 -2.46703 2.05598
-1.12424 -2.46524 2.04602
-1.12913 -2.46271 2.03546
-1.13084 -2.46106 2.02565
-1.13521 -2.45868 2.01524
-1.13896 -2.45647 2.00499
-1.14015 -2.45497 1.99534
-1.14073 -2.45364 1.98583
-1.14387 -2.4516 1.97576
-1.14382 -2.45045 1.96642
-1.1463 -2.4486 1.95653
-1.14558 -2.44764 1.94735
-1.14452 -2.44677 1.93826
-1.1446 -2.44559 1.92892
-1.14301 -2.44487 1.91996
-1.14106 -2.44425 1.91107
-1.13876 -2.44373 1.90227
-1.13888 -2.44254 1.89296
-1.1353 -2.44237 1.88444
-1.13207 -2.4421 1.87585
-1.12846 -2.44194 1.86733
-1.12448 -2.44188 1.8589
-1.12026 -2.44189 1.85052
-1.11572 -2.44199 1.84221
-1.1108 -2.44218 1.83397
-1.10551 -2.44249 1.82581
-1.09984 -2.44289 1.81772
-1.09381 -2.44339 1.8097
-1.08741 -2.444 1.80176
-1.08065 -2.4447 1.79388
-1.07353 -2.4455 1.78607
-1.06337 -2.44713 1.77886
-1.05363 -2.44865 1.77155
-1.04531 -2.44977 1.76395
-1.03166 -2.45236 1.75739
-1.01998 -2.4544 1.75042
-1.00497 -2.45735 1.74408
-0.986286 -2.4613 1.73843
-0.966573 -2.46552 1.73295
-0.9361 -2.47268 1.72949
-1.01676 -2.49326 2.15718
-1.04022 -2.48556 2.14194
-1.06111 -2.47857 2.12737
-1.07265 -2.47419 2.11506
-1.08584 -2.46936 2.10241
-1.09274 -2.46626 2.09126
-1.10161 -2.46263 2.07968
-1.11076 -2.45892 2.06806
-1.11322 -2.45707 2.05802
-1.11861 -2.45441 2.04732
-1.1263 -2.45112 2.03611
-1.1279 -2.4495 2.02632
-1.13213 -2.44717 2.01594
-1.13319 -2.44572 2.0063
-1.13682 -2.44355 1.99609
-1.13727 -2.44226 1.98661
-1.13741 -2.44106 1.9772
-1.14008 -2.43917 1.96725
-1.13776 -2.43865 1.95841
-1.13707 -2.43768 1.94922
-1.13887 -2.43603 1.93949
-1.13749 -2.43525 1.93047
-1.13576 -2.43458 1.92153
-1.13545 -2.43351 1.91228
-1.13317 -2.43298 1.90347
-1.13052 -2.43255 1.89474
-1.1275 -2.43223 1.88609
-1.12412 -2.43201 1.87753
-1.12035 -2.43189 1.86904
-1.11898 -2.43112 1.86006
-1.11476 -2.43112 1.85167
-1.11023 -2.43121 1.84335
-1.10533 -2.43141 1.8351
-1.10006 -2.4317 1.82693
-1.09441 -2.4321 1.81883
-1.08569 -2.43333 1.81135
-1.07931 -2.43392 1.80339
-1.07257 -2.43462 1.7955
-1.06389 -2.43584 1.788
-1.05626 -2.43677 1.78027
-1.04562 -2.43852 1.77313
-1.03514 -2.44023 1.76595
-1.02129 -2.44285 1.75942
-1.00939 -2.44494 1.75248
-0.994192 -2.44793 1.74617
-0.975258 -2.45192 1.74056
-0.955315 -2.45619 1.73511
-0.924544 -2.46339 1.73169
-1.0149 -2.48118 2.15763
-1.03834 -2.47352 2.14239
-1.05617 -2.46742 2.12854
-1.06968 -2.46252 2.11577
-1.07991 -2.45852 2.1038
-1.08979 -2.45462 2.09195
-1.09927 -2.45084 2.08023
-1.10196 -2.44893 2.07011
-1.11065 -2.44537 2.05862
-1.1157 -2.44281 2.04799
-1.11759 -2.44113 2.03811
-1.12212 -2.43872 2.02764
-1.12348 -2.43719 2.01791
-1.12744 -2.43494 2.0076
-1.12822 -2.43357 1.99802
-1.12871 -2.43227 1.98853
-1.13173 -2.43029 1.97847
-1.13157 -2.42918 1.96914
-1.13391 -2.42739 1.95926
-1.13308 -2.42646 1.9501
-1.13191 -2.42563 1.94102
-1.13188 -2.42449 1.93169
-1.13017 -2.4238 1.92274
-1.12811 -2.42322 1.91387
-1.12567 -2.42274 1.90508
-1.12287 -2.42236 1.89638
-1.12198 -2.42145 1.88727
-1.11862 -2.42122 1.87869
-1.11487 -2.4211 1.8702
-1.11076 -2.42108 1.86178
-1.10645 -2.42111 1.8534
-1.10177 -2.42124 1.8451
-1.09671 -2.42147 1.83688
-1.09127 -2.42181 1.82873
-1.08546 -2.42225 1.82066
-1.07928 -2.42278 1.81266
-1.07006 -2.42415 1.80527
-1.06315 -2.42488 1.7974
-1.05589 -2.42571 1.7896
-1.04827 -2.42663 1.78186
-1.03567 -2.42891 1.77511
-1.02496 -2.43067 1.76796
-1.01338 -2.43266 1.76097
-1.00149 -2.43473 1.75402
-0.983398 -2.43848 1.74827
-0.9674 -2.44167 1.74208
-0.941446 -2.44753 1.73777
-0.906616 -2.45579 1.73512
-0.963933 -2.48378 2.17957
-1.01309 -2.46908 2.15806
-1.03538 -2.46178 2.1431
-1.05321 -2.45571 2.12925
-1.06472 -2.45138 2.11694
-1.0778 -2.44662 2.1043
-1.08466 -2.44357 2.09316
-1.0905 -2.4408 2.08228
-1.09954 -2.43716 2.07067
-1.10484 -2.43454 2.05996
-1.10726 -2.43272 2.04994
-1.11194 -2.43028 2.03941
-1.11634 -2.42792 2.02896
-1.12046 -2.42564 2.0186
-1.12142 -2.42422 2.00896
-1.12493 -2.42211 1.99877
-1.12529 -2.42086 1.98929
-1.12533 -2.4197 1.9799
-1.12594 -2.41839 1.97039
-1.12548 -2.41736 1.96113
-1.12469 -2.41643 1.95195
-1.12633 -2.41484 1.94224
-1.12483 -2.4141 1.93323
-1.12298 -2.41346 1.9243
-1.11981 -2.41317 1.91566
-1.12016 -2.41194 1.90627
-1.11738 -2.41155 1.89755
-1.11423 -2.41126 1.88892
-1.1107 -2.41108 1.88037
-1.1068 -2.411 1.87189
-1.10261 -2.411 1.86349
-1.09832 -2.41102 1.8551
-1.09366 -2.41114 1.84678
-1.08862 -2.41137 1.83855
-1.08321 -2.4117 1.83039
-1.07742 -2.41212 1.8223
-1.07126 -2.41265 1.81429
-1.06473 -2.41328 1.80634
-1.05371 -2.41512 1.7993
-1.04629 -2.41598 1.79152
-1.03851 -2.41695 1.7838
-1.0304 -2.418 1.77615
-1.01708 -2.42045 1.76951
-1.00305 -2.42309 1.76299
-0.990943 -2.42521 1.75608
-0.975576 -2.42821 1.74978
-0.956415 -2.43223 1.74419
-0.926663 -2.43908 1.74061
-0.884689 -2.44922 1.7393
-0.973375 -2.46852 2.17729
-1.01132 -2.45697 2.15849
-1.03355 -2.44972 2.14353
-1.04837 -2.4445 2.1304
-1.05886 -2.44047 2.11833
-1.06903 -2.43653 2.10637
-1.07883 -2.43269 2.09453
-1.08822 -2.42897 2.08281
-1.09087 -2.42709 2.07269
-1.09944 -2.42359 2.06121
-1.10439 -2.42109 2.0506
-1.10622 -2.41944 2.04072
-1.11063 -2.41709 2.03026
-1.11192 -2.41559 2.02054
-1.11575 -2.41339 2.01024
-1.11645 -2.41206 2.00068
-1.11966 -2.41004 1.99056
-1.11972 -2.40888 1.98115
-1.11947 -2.4078 1.97183
-1.12166 -2.40606 1.96197
-1.11912 -2.40561 1.95317
-1.11801 -2.40477 1.94406
-1.11655 -2.40402 1.93503
-1.11747 -2.40263 1.92549
-1.11527 -2.40209 1.91664
-1.11271 -2.40164 1.90786
-1.10919 -2.40146 1.8993
-1.10607 -2.40117 1.89065
-1.10257 -2.40097 1.88209
-1.0987 -2.40088 1.8736
-1.09451 -2.40088 1.86518
-1.09007 -2.40094 1.85681
-1.08525 -2.40111 1.84853
-1.08005 -2.40137 1.84032
-1.07447 -2.40174 1.83218
-1.06852 -2.40221 1.82412
-1.06219 -2.40278 1.81613
-1.0555 -2.40345 1.80821
-1.04844 -2.40421 1.80036
-1.0384 -2.40577 1.7931
-1.02874 -2.40724 1.78575
-1.02046 -2.40832 1.77812
-1.00694 -2.41082 1.77151
-0.992705 -2.4135 1.76502
-0.980382 -2.41567 1.75814
-0.964825 -2.4187 1.75187
-0.94542 -2.42276 1.74631
-0.915348 -2.42967 1.74278
-0.975807 -2.4552 2.1767
-1.00958 -2.44484 2.15891
-1.02884 -2.43844 2.14466
-1.04252 -2.43355 2.13179
-1.05691 -2.42848 2.11879
-1.06699 -2.42458 2.10685
-1.0738 -2.42158 2.09571
-1.07957 -2.41886 2.08483
-1.08851 -2.41528 2.07324
-1.09372 -2.41272 2.06254
-1.09583 -2.41099 2.05257
-1.10053 -2.40857 2.04203
-1.10212 -2.40699 2.03221
-1.10627 -2.40473 2.02182
-1.10982 -2.40262 2.01159
-1.11083 -2.4012 2.00194
-1.11125 -2.39995 1.99244
-1.11136 -2.39878 1.98302
-1.11391 -2.39695 1.97306
-1.11334 -2.39597 1.96381
-1.11244 -2.39507 1.95464
-1.11393 -2.39354 1.94495
-1.11105 -2.39317 1.93623
-1.10925 -2.39252 1.92727
-1.10709 -2.39197 1.9184
-1.10456 -2.39152 1.90961
-1.10436 -2.39044 1.90033
-1.10107 -2.39019 1.89171
-1.09718 -2.39011 1.88323
-1.09332 -2.39001 1.87473
-1.08915 -2.39 1.8663
-1.08472 -2.39006 1.85793
-1.07992 -2.39022 1.84963
-1.07473 -2.39048 1.84141
-1.06917 -2.39084 1.83327
-1.0606 -2.39201 1.82574
-1.05429 -2.39257 1.81773
-1.04762 -2.39323 1.8098
-1.04058 -2.39398 1.80194
-1.02885 -2.39599 1.79501
-1.02093 -2.39698 1.7873
-1.01052 -2.39863 1.78009
-0.999169 -2.40053 1.77304
-0.984965 -2.40319 1.76654
-0.972648 -2.40534 1.75965
-0.954062 -2.40916 1.75395
-0.934417 -2.41326 1.74844
-0.904031 -2.42022 1.74495
-0.974126 -2.443 2.17711
-1.00497 -2.43349 2.16001
-1.02592 -2.42666 2.14536
-1.04069 -2.4215 2.13223
-1.05112 -2.41753 2.12016
-1.06122 -2.41365 2.10821
-1.06806 -2.41064 2.09705
-1.07735 -2.40699 2.08535
-1.0828 -2.40437 2.07457
-1.08558 -2.40247 2.06442
-1.09325 -2.39926 2.05317
-1.09783 -2.39688 2.04264
-1.09931 -2.39534 2.03285
-1.10052 -2.39388 2.02313
-1.10423 -2.39174 2.01285
-1.10483 -2.39044 2.00329
-1.1079 -2.38848 1.99319
-1.10787 -2.38735 1.9838
-1.1075 -2.38632 1.97448
-1.10508 -2.38583 1.96564
-1.10695 -2.3842 1.95585
-1.10572 -2.3834 1.94675
-1.10413 -2.38269 1.93774
-1.10218 -2.38208 1.92881
-1.10167 -2.38109 1.91957
-1.09916 -2.38064 1.91077
-1.09627 -2.38028 1.90206
-1.09302 -2.38003 1.89343
-1.08938 -2.37987 1.88488
-1.08536 -2.37982 1.87641
-1.0811 -2.37983 1.86799
-1.07651 -2.37993 1.85964
-1.07154 -2.38013 1.85137
-1.06681 -2.38027 1.84305
-1.06127 -2.38063 1.83489
-1.05535 -2.38108 1.82681
-1.04527 -2.38264 1.81957
-1.03843 -2.38333 1.81166
-1.03123 -2.38413 1.80382
-1.02367 -2.38502 1.79605
-1.0112 -2.3872 1.78924
-1.00278 -2.38832 1.78162
-0.989072 -2.39083 1.77503
-0.974663 -2.39353 1.76855
-0.962129 -2.39573 1.7617
-0.943289 -2.3996 1.75604
-0.917445 -2.40532 1.75171
-0.886438 -2.4124 1.74832
-0.975407 -2.43 2.1768
-1.00207 -2.42166 2.16071
-1.02131 -2.41532 2.14646
-1.03315 -2.41099 2.13402
-1.04923 -2.40551 2.12061
-1.05637 -2.40244 2.10935
-1.06314 -2.39948 2.09821
-1.07166 -2.39604 2.08668
-1.07483 -2.39405 2.07642
-1.08276 -2.39078 2.06508
-1.08762 -2.38834 2.05447
-1.0894 -2.38672 2.04458
-1.09092 -2.38518 2.03477
-1.09494 -2.38297 2.0244
-1.09589 -2.38158 2.01474
-1.09929 -2.37954 2.00454
-1.09961 -2.37832 1.99505
-1.09961 -2.37719 1.98564
-1.10202 -2.37542 1.9757
-1.10134 -2.37447 1.96646
-1.10032 -2.37361 1.95731
-1.09756 -2.37322 1.94853
-1.09871 -2.37179 1.93892
-1.09679 -2.37118 1.92998
-1.09449 -2.37067 1.92112
-1.09183 -2.37025 1.91235
-1.08879 -2.36994 1.90366
-1.08502 -2.36982 1.89513
-1.08141 -2.36966 1.88656
-1.07742 -2.3696 1.87808
-1.07317 -2.36961 1.86965
-1.06861 -2.3697 1.86129
-1.06366 -2.36989 1.853
-1.05833 -2.37019 1.8448
-1.05263 -2.37058 1.83666
-1.04654 -2.37107 1.82861
-1.04008 -2.37167 1.82062
-1.03067 -2.37304 1.81323
-1.02348 -2.37382 1.80538
-1.01414 -2.37518 1.79795
-1.00351 -2.37687 1.79077
-0.992874 -2.37856 1.78358
-0.978959 -2.38111 1.77702
-0.964347 -2.38385 1.77058
-0.951598 -2.38609 1.76375
-0.929983 -2.39067 1.75862
-0.906386 -2.39577 1.75384
-0.875083 -2.40289 1.7505
-0.973805 -2.41777 2.17719
-1.00045 -2.40948 2.1611
-1.01555 -2.40429 2.14784
-1.03029 -2.39919 2.1347
-1.04065 -2.39527 2.12264
-1.05068 -2.39145 2.1107
-1.0603 -2.38774 2.09888
-1.06385 -2.38565 2.0885
-1.07202 -2.38233 2.07707
-1.07714 -2.37983 2.06638
-1.07921 -2.37814 2.0564
-1.08397 -2.37574 2.04582
-1.08815 -2.37349 2.0354
-1.08927 -2.37206 2.02568
-1.09285 -2.36998 2.01543
-1.09336 -2.36872 2.00588
-1.09412 -2.36739 1.99628
-1.09415 -2.36626 1.98686
-1.09384 -2.36522 1.97752
-1.0932 -2.36426 1.96826
-1.09491 -2.36269 1.9585
-1.09355 -2.36192 1.94941
-1.09184 -2.36126 1.94041
-1.08874 -2.36096 1.93172
-1.08648 -2.36044 1.92285
-1.08384 -2.36002 1.91406
-1.08348 -2.359 1.90479
-1.08008 -2.35878 1.89618
-1.0763 -2.35867 1.88764
-1.07215 -2.35865 1.87919
-1.06791 -2.35865 1.87075
-1.06337 -2.35874 1.86238
-1.05844 -2.35893 1.85409
-1.05053 -2.3599 1.84641
-1.04484 -2.36028 1.83826
-1.03878 -2.36077 1.83019
-1.03234 -2.36135 1.8222
-1.0241 -2.36241 1.81456
-1.01418 -2.36391 1.80725
-1.00647 -2.36482 1.79949
-0.993822 -2.36703 1.7927
-0.985248 -2.36817 1.78509
-0.971363 -2.37071 1.77852
-0.959293 -2.37276 1.77157
-0.941055 -2.37643 1.7658
-0.924955 -2.37954 1.7596
-0.895321 -2.38619 1.75598
-0.859845 -2.39437 1.75342
-0.969377 -2.40629 2.17826
-0.994695 -2.3984 2.16248
-1.01391 -2.39213 2.14823
-1.02458 -2.38815 2.13606
-1.03602 -2.38397 2.12374
-1.04594 -2.38019 2.11181
-1.05185 -2.37748 2.10086
-1.06105 -2.3739 2.08916
-1.06642 -2.37134 2.07838
-1.06921 -2.36947 2.06821
-1.07673 -2.36635 2.05698
-1.07844 -2.36477 2.04709
-1.08263 -2.36253 2.03666
-1.08378 -2.3611 2.02693
-1.08463 -2.35975 2.01729
-1.0879 -2.35776 2.00711
-1.08812 -2.35658 1.99762
-1.08802 -2.35549 1.98823
-1.08842 -2.35426 1.97872
-1.0878 -2.35331 1.96945
-1.08684 -2.35245 1.96027
-1.08552 -2.35168 1.95117
-1.08384 -2.35101 1.94216
-1.08444 -2.34973 1.93265
-1.08116 -2.34948 1.92399
-1.07855 -2.34906 1.9152
-1.07556 -2.34873 1.90648
-1.07219 -2.34851 1.89785
-1.06844 -2.34839 1.88931
-1.0643 -2.34836 1.88084
-1.05998 -2.34839 1.87241
-1.05526 -2.34852 1.86407
-1.05016 -2.34875 1.8558
-1.04468 -2.34908 1.84761
-1.03626 -2.35018 1.84003
-1.03002 -2.3507 1.83198
-1.02341 -2.35133 1.82401
-1.01643 -2.35205 1.81611
-1.00655 -2.35353 1.80878
-0.996988 -2.35492 1.80138
-0.988763 -2.35596 1.79371
-0.97539 -2.35835 1.78704
-0.961294 -2.36093 1.7805
-0.946503 -2.36368 1.77407
-0.933543 -2.36595 1.76727
-0.914217 -2.36988 1.76168
-0.884252 -2.37658 1.75811
-0.837988 -2.38753 1.75762
-0.967887 -2.39402 2.17861
-0.993151 -2.38618 2.16285
-1.00822 -2.38105 2.14959
-1.0229 -2.37603 2.13646
-1.0332 -2.37216 2.12441
-1.04033 -2.36914 2.11314
-1.04708 -2.36623 2.10198
-1.05547 -2.36288 2.09046
-1.05866 -2.36091 2.08018
-1.06644 -2.35773 2.06886
-1.06844 -2.35608 2.05888
-1.07293 -2.35377 2.04836
-1.0744 -2.35226 2.03854
-1.07831 -2.35011 2.02818
-1.07918 -2.34876 2.01852
-1.07975 -2.3475 2.00894
-1.08271 -2.3456 1.99884
-1.08263 -2.34451 1.98943
-1.08221 -2.34351 1.9801
-1.08145 -2.34259 1.97086
-1.08034 -2.34177 1.9617
-1.08019 -2.3407 1.95234
-1.07853 -2.34002 1.94331
-1.07651 -2.33945 1.93437
-1.07411 -2.33896 1.92552
-1.07134 -2.33858 1.91674
-1.06819 -2.3383 1.90806
-1.06436 -2.3382 1.89952
-1.06063 -2.33807 1.89096
-1.05652 -2.33804 1.88248
-1.05221 -2.33806 1.87404
-1.04752 -2.33818 1.86568
-1.04244 -2.3384 1.8574
-1.03699 -2.33872 1.8492
-1.03114 -2.33914 1.84107
-1.02238 -2.34032 1.83354
-1.01579 -2.34094 1.82556
-1.00883 -2.34165 1.81764
-0.9973 -2.34355 1.81064
-0.989435 -2.34449 1.80289
-0.979103 -2.34608 1.79563
-0.967879 -2.34789 1.78853
-0.953811 -2.35044 1.78197
-0.941525 -2.35253 1.77505
-0.923044 -2.35622 1.76931
-0.901001 -2.36084 1.76424
-0.873179 -2.36695 1.76025
-0.912897 -2.397 2.20164
-0.96504 -2.38211 2.1793
-0.985995 -2.37544 2.16457
-1.00384 -2.36961 2.15064
-1.01446 -2.36568 2.13847
-1.02478 -2.36183 2.1264
-1.03475 -2.35808 2.11445
-1.0443 -2.35444 2.10263
-1.04787 -2.35238 2.09224
-1.0559 -2.34914 2.08082
-1.05818 -2.34742 2.07077
-1.06296 -2.34505 2.06015
-1.06493 -2.34342 2.05019
-1.069 -2.34123 2.03977
-1.07015 -2.33982 2.03003
-1.07353 -2.33782 2.0198
-1.07436 -2.33649 2.01016
-1.07464 -2.3353 2.00065
-1.07459 -2.33421 1.99122
-1.07687 -2.3325 1.98129
-1.07613 -2.33159 1.97203
-1.07505 -2.33076 1.96286
-1.0736 -2.33003 1.95378
-1.07063 -2.32971 1.94503
-1.06863 -2.32912 1.93608
-1.06627 -2.32863 1.92721
-1.06612 -2.32757 1.91786
-1.06299 -2.32728 1.90917
-1.05948 -2.3271 1.90056
-1.05558 -2.32701 1.89203
-1.05137 -2.32701 1.88356
-1.04433 -2.32774 1.87569
-1.03983 -2.3278 1.86728
-1.03478 -2.32802 1.85899
-1.02934 -2.32833 1.85078
-1.02352 -2.32874 1.84264
-1.01732 -2.32925 1.83458
-1.00692 -2.33085 1.82736
-0.999785 -2.3316 1.81947
-0.992287 -2.33245 1.81165
-0.98 -2.33453 1.80478
-0.971622 -2.3356 1.79712
-0.958065 -2.33801 1.79047
-0.943786 -2.3406 1.78395
-0.931278 -2.34273 1.77706
-0.915644 -2.34567 1.77076
-0.890264 -2.35112 1.76632
-0.859659 -2.35791 1.76285
-0.918457 -2.3828 2.2003
-0.963613 -2.36981 2.17965
-0.983183 -2.36355 2.16524
-0.998233 -2.35847 2.15198
-1.01286 -2.35351 2.13885
-1.02309 -2.34971 2.12681
-1.03018 -2.34673 2.11553
-1.03601 -2.34408 2.10458
-1.04513 -2.34058 2.09288
-1.04767 -2.3388 2.08274
-1.05272 -2.33637 2.07203
-1.05785 -2.33391 2.06133
-1.06222 -2.33166 2.05082
-1.0636 -2.33019 2.041
-1.06738 -2.32809 2.03066
-1.06816 -2.32678 2.02101
-1.06863 -2.32555 2.01144
-1.07144 -2.32371 2.00136
-1.06927 -2.32318 1.99241
-1.06891 -2.32217 1.98305
-1.0682 -2.32125 1.97378
-1.06715 -2.32042 1.9646
-1.06835 -2.319 1.95493
-1.06656 -2.31837 1.94592
-1.06441 -2.31783 1.93699
-1.06107 -2.3176 1.92833
-1.05835 -2.3172 1.91953
-1.05524 -2.31691 1.91082
-1.05176 -2.31672 1.9022
-1.04788 -2.31662 1.89365
-1.04368 -2.31662 1.88518
-1.03923 -2.31667 1.87676
-1.03439 -2.31683 1.86842
-1.02663 -2.31774 1.86068
-1.02102 -2.31809 1.85249
-1.01503 -2.31855 1.84438
-1.00866 -2.3191 1.83634
-1.00191 -2.31975 1.82838
-0.992299 -2.32113 1.82099
-0.984815 -2.32196 1.81315
-0.972565 -2.32403 1.80627
-0.964196 -2.32509 1.7986
-0.95067 -2.32747 1.79194
-0.938868 -2.32941 1.78492
-0.923914 -2.33216 1.7785
-0.90519 -2.33588 1.77279
-0.879519 -2.34137 1.76841
-0.8486 -2.34821 1.76499
-0.919858 -2.36969 2.19996
-0.956635 -2.35896 2.18133
-0.97898 -2.352 2.16625
-0.993975 -2.34697 2.15299
-1.00731 -2.34237 2.14017
-1.01756 -2.33858 2.12812
-1.02468 -2.33561 2.11683
-1.0314 -2.33275 2.10566
-1.03693 -2.3302 2.0948
-1.04222 -2.32771 2.08401
-1.05048 -2.32445 2.07255
-1.05244 -2.32284 2.06257
-1.05413 -2.32129 2.05267
-1.05823 -2.31912 2.04223
-1.05934 -2.31773 2.03249
-1.06016 -2.31641 2.02282
-1.06332 -2.31449 2.01264
-1.06349 -2.31335 2.00315
-1.06333 -2.31229 1.99373
-1.06284 -2.31132 1.9844
-1.06295 -2.31019 1.97495
-1.06192 -2.30936 1.96575
-1.06053 -2.30862 1.95664
-1.05877 -2.30798 1.94762
-1.05664 -2.30744 1.93868
-1.05414 -2.30699 1.92982
-1.05126 -2.30664 1.92106
-1.04755 -2.3065 1.91247
-1.04409 -2.3063 1.90383
-1.04025 -2.3062 1.89527
-1.03606 -2.30619 1.88678
-1.03163 -2.30624 1.87835
-1.02681 -2.30639 1.87
-1.0216 -2.30664 1.86172
-1.01601 -2.30699 1.85353
-1.00754 -2.30807 1.84592
-1.00118 -2.30861 1.83787
-0.994447 -2.30925 1.82989
-0.983303 -2.31102 1.8228
-0.975651 -2.3119 1.815
-0.96764 -2.31286 1.80726
-0.954644 -2.3151 1.8005
-0.940901 -2.31753 1.79387
-0.926439 -2.32013 1.78736
-0.913712 -2.3223 1.7805
-0.894726 -2.32606 1.77483
-0.872262 -2.3307 1.76981
-0.837541 -2.33847 1.76712
-0.918484 -2.3573 2.20029
-0.953849 -2.347 2.182
-0.973432 -2.3408 2.16759
-0.99121 -2.33507 2.15365
-0.999038 -2.33192 2.14214
-1.00931 -2.32815 2.13007
-1.01921 -2.32447 2.11812
-1.02868 -2.32091 2.1063
-1.0315 -2.31907 2.09607
-1.04015 -2.31573 2.08449
-1.04239 -2.31405 2.07442
-1.04438 -2.31243 2.06443
-1.04878 -2.31019 2.0539
-1.05022 -2.30872 2.04406
-1.05402 -2.30664 2.0337
-1.05486 -2.30532 2.02402
-1.05539 -2.30409 2.01443
-1.0556 -2.30294 2.00491
-1.05809 -2.30121 1.9949
-1.05761 -2.30023 1.98556
-1.05679 -2.29935 1.97631
-1.05561 -2.29857 1.96714
-1.05276 -2.29821 1.95834
-1.05104 -2.29756 1.9493
-1.04894 -2.29701 1.94035
-1.04647 -2.29655 1.93148
-1.04615 -2.29555 1.92215
-1.0429 -2.29529 1.91346
-1.03675 -2.29578 1.90539
-1.03267 -2.29574 1.89687
-1.02849 -2.29573 1.88838
-1.02408 -2.29577 1.87993
-1.01929 -2.29591 1.87157
-1.0141 -2.29615 1.86328
-1.00853 -2.29649 1.85507
-1.00257 -2.29693 1.84694
-0.993758 -2.2981 1.83939
-0.985665 -2.29908 1.83168
-0.978388 -2.29985 1.8238
-0.9683 -2.30134 1.81648
-0.958293 -2.3028 1.80913
-0.947337 -2.30451 1.80195
-0.933623 -2.30692 1.79531
-0.921598 -2.30889 1.78832
-0.906463 -2.31166 1.78192
-0.887496 -2.31539 1.77624
-0.861566 -2.32089 1.77189
-0.826483 -2.32871 1.76925
-0.917166 -2.3449 2.20061
-0.948301 -2.33574 2.18334
-0.967915 -2.32957 2.16891
-0.982959 -2.32457 2.15563
-0.997554 -2.3197 2.14249
-1.00773 -2.31597 2.13045
-1.01211 -2.31373 2.11979
-1.02056 -2.31045 2.10821
-1.0269 -2.30772 2.09714
-1.03209 -2.30528 2.08636
-1.03703 -2.30291 2.07566
-1.03905 -2.3013 2.06566
-1.04107 -2.29968 2.05567
-1.04504 -2.29757 2.04524
-1.0487 -2.29554 2.03491
-1.04942 -2.29426 2.02525
-1.05014 -2.29298 2.01561
-1.05037 -2.29183 2.00609
-1.05027 -2.29077 1.99665
-1.04983 -2.28979 1.98729
-1.04904 -2.28891 1.97802
-1.05046 -2.28746 1.96827
-1.04894 -2.28676 1.95918
-1.04591 -2.28645 1.95042
-1.04384 -2.28589 1.94145
-1.04138 -2.28544 1.93258
-1.03855 -2.28508 1.92379
-1.03533 -2.28482 1.91508
-1.03172 -2.28466 1.90646
-1.02772 -2.28459 1.89792
-1.02345 -2.2846 1.88944
-1.01887 -2.28469 1.88102
-1.01141 -2.2855 1.87321
-1.00606 -2.28579 1.86495
-1.00031 -2.28617 1.85677
-0.994176 -2.28665 1.84866
-0.985214 -2.28784 1.84113
-0.978325 -2.28851 1.83317
-0.971062 -2.28928 1.82528
-0.959183 -2.29121 1.81831
-0.951015 -2.2922 1.81058
-0.93783 -2.29446 1.80385
-0.928803 -2.29567 1.79627
-0.914384 -2.29824 1.78974
-0.896306 -2.30173 1.78391
-0.877078 -2.30551 1.77827
-0.850864 -2.31105 1.77396
-0.815427 -2.31891 1.77139
-0.913146 -2.33319 2.20158
-0.947055 -2.32337 2.18364
-0.966627 -2.31724 2.16922
-0.978882 -2.31298 2.1566
-0.992117 -2.30849 2.14379
-0.999606 -2.30546 2.13237
-1.00942 -2.30185 2.12043
-1.01518 -2.29927 2.10947
-1.02155 -2.29655 2.09839
-1.02675 -2.29412 2.08761
-1.02905 -2.29244 2.07751
-1.03416 -2.29004 2.06679
-1.03843 -2.28786 2.05627
-1.03979 -2.28642 2.04644
-1.04346 -2.2844 2.0361
-1.0442 -2.28312 2.02644
-1.04462 -2.28193 2.01685
-1.04472 -2.28082 2.00735
-1.04448 -2.27979 1.99794
-1.04467 -2.27866 1.98844
-1.0439 -2.27777 1.97915
-1.04278 -2.27698 1.96996
-1.04129 -2.27628 1.96085
-1.03943 -2.27567 1.95183
-1.03719 -2.27516 1.94289
-1.03381 -2.27494 1.93421
-1.031 -2.27457 1.92541
-1.02781 -2.27431 1.91669
-1.02422 -2.27414 1.90805
-1.02025 -2.27407 1.8995
-1.01599 -2.27407 1.89101
-1.01143 -2.27415 1.88258
-1.00648 -2.27433 1.87423
-0.998684 -2.27523 1.86648
-0.992957 -2.2756 1.85828
-0.986842 -2.27607 1.85017
-0.980343 -2.27664 1.84213
-0.971043 -2.27791 1.83465
-0.963793 -2.27867 1.82675
-0.951953 -2.28058 1.81976
-0.943795 -2.28156 1.81203
-0.930642 -2.2838 1.80528
-0.91912 -2.28563 1.79818
-0.90449 -2.28823 1.79169
-0.889173 -2.29101 1.78531
-0.869962 -2.29477 1.77966
-0.843774 -2.30027 1.77534
-0.798012 -2.31068 1.77474
-0.909225 -2.32144 2.20253
-0.938848 -2.31277 2.18562
-0.958466 -2.30666 2.17118
-0.976174 -2.30104 2.15725
-0.984016 -2.29794 2.14571
-0.99423 -2.29423 2.13364
-1.00406 -2.29063 2.12169
-1.01079 -2.28783 2.1105
-1.01623 -2.28535 2.09963
-1.0188 -2.28361 2.08946
-1.02697 -2.28044 2.078
-1.02891 -2.27886 2.068
-1.03058 -2.27735 2.05808
-1.03456 -2.27525 2.04764
-1.03565 -2.27389 2.03788
-1.03642 -2.27262 2.02819
-1.03688 -2.27142 2.0186
-1.03957 -2.26966 2.00851
-1.03936 -2.26863 1.99908
-1.03879 -2.2677 1.98974
-1.03625 -2.26726 1.98085
-1.03516 -2.26646 1.97164
-1.0337 -2.26576 1.96251
-1.03187 -2.26514 1.95348
-1.02966 -2.26463 1.94453
-1.02708 -2.26421 1.93566
-1.0241 -2.26388 1.92689
-1.02035 -2.26376 1.91828
-1.01679 -2.26358 1.90963
-1.01284 -2.26351 1.90107
-1.0086 -2.26351 1.89257
-1.00406 -2.26358 1.88413
-0.999126 -2.26375 1.87577
-0.993803 -2.26402 1.86749
-0.985663 -2.265 1.85979
-0.979566 -2.26546 1.85166
-0.973084 -2.26602 1.84361
-0.96622 -2.26667 1.83563
-0.954955 -2.26843 1.82854
-0.947165 -2.26932 1.82073
-0.934557 -2.27141 1.81388
-0.923511 -2.27311 1.8067
-0.911999 -2.27492 1.79959
-0.897393 -2.27751 1.79309
-0.879062 -2.28102 1.78729
-0.859592 -2.28482 1.78168
-0.833123 -2.29036 1.7774
-0.786936 -2.30082 1.77688
-0.906503 -2.30938 2.20319
-0.9377 -2.30035 2.1859
-0.953064 -2.29535 2.17248
-0.968094 -2.29044 2.15918
-0.978652 -2.28667 2.14699
-0.988882 -2.28298 2.13491
-0.996074 -2.28007 2.12358
-1.00549 -2.2766 2.11175
-1.00831 -2.2748 2.10149
-1.01426 -2.27221 2.09051
-1.01911 -2.2699 2.07982
-1.02368 -2.26766 2.0692
-1.02537 -2.26615 2.05927
-1.02678 -2.26471 2.04941
-1.0279 -2.26336 2.03964
-1.03127 -2.26143 2.02936
-1.03175 -2.26023 2.01975
-1.0319 -2.25912 2.01023
-1.03172 -2.25809 2.00078
-1.03119 -2.25715 1.99143
-1.03282 -2.25567 1.9816
-1.03011 -2.25528 1.97275
-1.02867 -2.25457 1.96361
-1.02686 -2.25395 1.95457
-1.02468 -2.25343 1.94561
-1.02211 -2.25301 1.93673
-1.01915 -2.25269 1.92795
-1.01581 -2.25246 1.91925
-1.01187 -2.25238 1.91068
-1.00793 -2.2523 1.9021
-1.00126 -2.25291 1.89411
-0.996741 -2.25297 1.88566
-0.991831 -2.25314 1.87729
-0.986528 -2.2534 1.869
-0.980833 -2.25376 1.86079
-0.972349 -2.25482 1.85314
-0.964636 -2.25568 1.84534
-0.957598 -2.25637 1.83738
-0.94781 -2.25775 1.82998
-0.940031 -2.25863 1.82216
-0.927458 -2.2607 1.8153
-0.914113 -2.26296 1.80857
-0.904935 -2.26418 1.80099
-0.887544 -2.26744 1.79503
-0.872046 -2.27023 1.78866
-0.852591 -2.274 1.78305
-0.822468 -2.28042 1.77947
-0.771727 -2.29196 1.77981
-0.901083 -2.29799 2.20451
-0.932307 -2.289 2.1872
-0.949236 -2.28364 2.1734
-0.962745 -2.27914 2.16046
-0.977326 -2.27437 2.14731
-0.98481 -2.2714 2.13587
-0.990788 -2.2688 2.12482
-0.997598 -2.26601 2.1136
-1.00306 -2.26355 2.10271
-1.00905 -2.26096 2.09172
-1.0139 -2.25866 2.08102
-1.0159 -2.25709 2.071
-1.01762 -2.25558 2.06105
-1.02163 -2.2535 2.05059
-1.02277 -2.25214 2.0408
-1.0236 -2.25086 2.0311
-1.02411 -2.24966 2.02147
-1.02683 -2.24791 2.01136
-1.02666 -2.24688 2.00191
-1.02616 -2.24594 1.99255
-1.02529 -2.24509 1.98327
-1.02407 -2.24433 1.97408
-1.02247 -2.24366 1.96497
-1.01941 -2.24336 1.95619
-1.01725 -2.24284 1.94722
-1.01471 -2.24241 1.93833
-1.01178 -2.24208 1.92953
-1.00846 -2.24184 1.92082
-1.00475 -2.24171 1.91219
-1.00065 -2.24167 1.90364
-0.996323 -2.24169 1.89515
-0.991896 -2.24173 1.88667
-0.984596 -2.24249 1.8788
-0.979313 -2.24274 1.87049
-0.973637 -2.2431 1.86227
-0.964144 -2.2444 1.85483
-0.957503 -2.24499 1.84679
-0.950479 -2.24567 1.83883
-0.940723 -2.24703 1.83141
-0.931069 -2.24837 1.82396
-0.920418 -2.24995 1.8167
-0.909433 -2.25162 1.8095
-0.895359 -2.25404 1.80289
-0.880566 -2.25664 1.7964
-0.861982 -2.26018 1.79063
-0.84227 -2.26399 1.78506
-0.815547 -2.26953 1.78081
-0.90002 -2.28549 2.20476
-0.924274 -2.2783 2.18913
-0.943919 -2.27228 2.17467
-0.956269 -2.2681 2.16201
-0.969398 -2.26372 2.14919
-0.979548 -2.2601 2.13712
-0.986686 -2.25723 2.12579
-0.992374 -2.25473 2.11482
-0.998751 -2.25205 2.10372
-1.00387 -2.2497 2.09293
-1.00615 -2.24805 2.08282
-1.00818 -2.24648 2.07278
-1.01249 -2.24433 2.06223
-1.01418 -2.24284 2.05229
-1.01773 -2.24088 2.04195
-1.01852 -2.23962 2.03225
-1.01905 -2.23842 2.02261
-1.01926 -2.2373 2.01306
-1.01913 -2.23627 2.00359
-1.01865 -2.23533 1.99421
-1.01782 -2.23447 1.98492
-1.01663 -2.23371 1.97571
-1.01506 -2.23304 1.96659
-1.01312 -2.23246 1.95756
-1.00988 -2.23221 1.94881
-1.00737 -2.23177 1.93991
-1.00447 -2.23144 1.9311
-1.00118 -2.2312 1.92237
-0.997493 -2.23105 1.91373
-0.993413 -2.23101 1.90518
-0.989095 -2.23102 1.89667
-0.98442 -2.23113 1.88824
-0.979349 -2.23133 1.87989
-0.971508 -2.23221 1.87211
-0.965655 -2.23261 1.86392
-0.959411 -2.2331 1.8558
-0.950429 -2.23426 1.84824
-0.943419 -2.23494 1.84026
-0.936031 -2.23571 1.83236
-0.924058 -2.23761 1.82537
-0.913435 -2.23917 1.8181
-0.902463 -2.24082 1.81089
-0.888416 -2.24323 1.80426
-0.873647 -2.24581 1.79776
-0.855083 -2.24932 1.79199
-0.835384 -2.25311 1.7864
-0.804946 -2.25953 1.78287
-0.892006 -2.27472 2.20671
-0.918958 -2.2669 2.19042
-0.938632 -2.26091 2.17594
-0.953641 -2.25608 2.16264
-0.964149 -2.25238 2.15044
-0.97171 -2.24942 2.13898
-0.981485 -2.24591 2.12702
-0.984594 -2.24407 2.11665
-0.99359 -2.24076 2.10493
-0.996147 -2.23905 2.09473
-1.00102 -2.23677 2.08401
-1.0036 -2.23506 2.07383
-1.00777 -2.23296 2.06331
-1.01165 -2.23093 2.05287
-1.01269 -2.22961 2.04309
-1.01341 -2.22837 2.0334
-1.01382 -2.22721 2.02379
-1.01389 -2.22614 2.01426
-1.01166 -2.22563 2.00526
-1.01369 -2.22407 1.99532
-1.01288 -2.22321 1.98601
-1.0117 -2.22245 1.97679
-1.01016 -2.22178 1.96767
-1.00824 -2.2212 1.95862
-1.00594 -2.22071 1.94967
-1.00251 -2.22051 1.94096
-0.999628 -2.22017 1.93214
-0.996354 -2.21992 1.9234
-0.992438 -2.21984 1.91481
-0.986236 -2.22031 1.90669
-0.981927 -2.22033 1.89818
-0.977275 -2.22042 1.88973
-0.972225 -2.22062 1.88137
-0.966778 -2.22091 1.87309
-0.958588 -2.22187 1.86537
-0.952361 -2.22235 1.85725
-0.945745 -2.22293 1.84919
-0.936418 -2.22417 1.84169
-0.92735 -2.22535 1.83412
-0.917107 -2.22681 1.82677
-0.904372 -2.22888 1.81991
-0.895551 -2.23 1.81226
-0.881532 -2.23238 1.80563
-0.863905 -2.23565 1.79968
-0.848244 -2.23843 1.79333
-0.828559 -2.24219 1.78773
-0.79814 -2.24857 1.78419
-0.886703 -2.26326 2.20799
-0.917987 -2.25441 2.19065
-0.933376 -2.24951 2.17721
-0.948408 -2.24471 2.16389
-0.956333 -2.24167 2.1523
-0.966522 -2.23807 2.14021
-0.97374 -2.23521 2.12884
-0.979443 -2.23273 2.11786
-0.985903 -2.23007 2.10672
-0.991036 -2.22773 2.09592
-0.993373 -2.22609 2.08578
-1.00107 -2.22313 2.07442
-1.00273 -2.22166 2.06447
-1.0041 -2.22026 2.05459
-1.00517 -2.21894 2.0448
-1.00593 -2.2177 2.03509
-1.00884 -2.21593 2.02491
-1.00893 -2.21485 2.01537
-1.00868 -2.21386 2.00592
-1.00629 -2.2134 1.99696
-1.00551 -2.21254 1.98764
-1.00437 -2.21177 1.97841
-1.00285 -2.21109 1.96926
-1.00096 -2.21051 1.96021
-0.998687 -2.21002 1.95124
-0.996026 -2.20962 1.94236
-0.992416 -2.20946 1.93369
-0.989168 -2.20921 1.92494
-0.985525 -2.20906 1.91628
-0.981484 -2.209 1.9077
-0.977182 -2.20901 1.89918
-0.970189 -2.20968 1.89122
-0.96516 -2.20987 1.88285
-0.959733 -2.21015 1.87455
-0.951581 -2.2111 1.86682
-0.94537 -2.21158 1.85868
-0.93877 -2.21214 1.85062
-0.927979 -2.21374 1.8434
-0.920428 -2.21453 1.83552
-0.910215 -2.21598 1.82816
-0.899793 -2.21748 1.82083
-0.886304 -2.21972 1.8141
-0.872064 -2.22214 1.8075
-0.857106 -2.22474 1.80102
-0.841463 -2.2275 1.79466
-0.818346 -2.23208 1.78972
-0.787594 -2.2385 1.78623
-0.885789 -2.2507 2.20821
-0.91013 -2.24361 2.19255
-0.925549 -2.23873 2.17908
-0.940615 -2.23395 2.16575
-0.951159 -2.23028 2.15353
-0.958797 -2.22733 2.14204
-0.968613 -2.22385 2.13005
-0.975434 -2.22111 2.1188
-0.980814 -2.21872 2.10791
-0.983425 -2.21702 2.09769
-0.991546 -2.21397 2.0862
-0.993515 -2.21243 2.07616
-0.995208 -2.21096 2.06619
-0.996612 -2.20956 2.0563
-1.00019 -2.20763 2.04593
-1.00097 -2.20639 2.03622
-1.00143 -2.20522 2.02658
-1.00155 -2.20414 2.01703
-1.00134 -2.20315 2.00756
-1.00076 -2.20224 1.99819
-0.998206 -2.20182 1.98925
-0.997092 -2.20105 1.98001
-0.995607 -2.20037 1.97085
-0.993744 -2.19978 1.96178
-0.991498 -2.19929 1.9528
-0.988864 -2.19889 1.94391
-0.985839 -2.19858 1.9351
-0.982043 -2.19847 1.92646
-0.978425 -2.19831 1.91779
-0.974408 -2.19825 1.9092
-0.970115 -2.19825 1.90066
-0.965499 -2.19834 1.8922
-0.958155 -2.19909 1.88431
-0.952748 -2.19936 1.876
-0.946943 -2.19974 1.86778
-0.93844 -2.20076 1.8601
-0.931854 -2.20132 1.85203
-0.921105 -2.2029 1.8448
-0.913566 -2.20369 1.8369
-0.905653 -2.20457 1.82908
-0.892974 -2.2066 1.8222
-0.879515 -2.20883 1.81545
-0.865302 -2.21123 1.80884
-0.850366 -2.2138 1.80235
-0.831567 -2.21731 1.79659
-0.811638 -2.22109 1.79103
-0.780905 -2.22747 1.78753
-0.877952 -2.23983 2.21011
-0.904931 -2.23214 2.1938
-0.92037 -2.22728 2.18033
-0.935459 -2.22252 2.16698
-0.943456 -2.21949 2.15537
-0.953684 -2.21593 2.14325
-0.963517 -2.21246 2.13125
-0.97037 -2.20973 2.11999
-0.973238 -2.20797 2.10968
-0.978387 -2.20566 2.09886
-0.984029 -2.20322 2.08794
-0.986029 -2.20168 2.07788
-0.990231 -2.19961 2.06733
-0.991657 -2.19821 2.05744
-0.992782 -2.19689 2.04762
-0.993595 -2.19565 2.03788
-0.994084 -2.19448 2.02823
-0.99667 -2.19281 2.01812
-0.996472 -2.19182 2.00865
-0.99592 -2.19091 1.99926
-0.993371 -2.19049 1.99032
-0.992277 -2.18971 1.98107
-0.990811 -2.18903 1.9719
-0.988967 -2.18844 1.96282
-0.98674 -2.18794 1.95383
-0.984124 -2.18754 1.94493
-0.981115 -2.18724 1.93611
-0.975369 -2.18759 1.92789
-0.971386 -2.18752 1.91928
-0.967392 -2.18746 1.91068
-0.963109 -2.18746 1.90214
-0.958514 -2.18754 1.89366
-0.953519 -2.18771 1.88527
-0.945823 -2.18854 1.87744
-0.940036 -2.18891 1.8692
-0.933853 -2.18937 1.86105
-0.923707 -2.19078 1.85369
-0.916556 -2.19148 1.84572
-0.906763 -2.19281 1.83828
-0.894664 -2.19469 1.83129
-0.886216 -2.19569 1.82355
-0.872786 -2.1979 1.81679
-0.858599 -2.20028 1.81017
-0.845906 -2.2023 1.80323
-0.824907 -2.20631 1.7979
-0.80499 -2.21006 1.79233
-0.770414 -2.21733 1.78956
-0.872767 -2.2283 2.21137
-0.897191 -2.22127 2.19567
-0.912659 -2.21644 2.18218
-0.927781 -2.21169 2.16882
-0.938359 -2.20805 2.15658
-0.946072 -2.20512 2.14505
-0.955928 -2.20166 2.13304
-0.965335 -2.19832 2.12117
-0.968224 -2.19657 2.11085
-0.974283 -2.19405 2.09981
-0.979053 -2.19184 2.08909
-0.981075 -2.19031 2.07902
-0.982821 -2.18884 2.06903
