ply
format ascii 1.0
comment Created by Open3D
element vertex 1726
property double x
property double y
property double z
end_header
-0.568406 -0.895269 1.54556
-0.489343 -0.895145 1.57445
-0.517049 -0.895082 1.54974
-0.469612 -0.895014 1.56262
-0.31295 -0.894982 1.62998
-0.0844525 -0.894961 1.73323
-0.156071 -0.89498 1.68627
-0.501253 -0.895013 1.50248
-0.307111 -0.895075 1.58824
-0.412212 -0.895172 1.52426
-0.314985 -0.895236 1.56155
-0.469306 -0.895426 1.47261
-0.536321 -0.895626 1.42727
-0.401157 -0.8959 1.48275
-0.361441 -0.896181 1.49047
-0.387637 -0.896536 1.46496
-0.397435 -0.896711 1.4483
-0.344392 -0.897327 1.46141
-0.423552 -0.897797 1.40895
-0.347141 -0.898303 1.43413
-0.439791 -0.899109 1.37363
-0.369455 -0.899701 1.39542
-0.138395 -0.900979 1.49493
-0.362297 -0.902035 1.36778
-0.504938 -0.903956 1.27792
-0.254841 -0.906858 1.38061
-0.5947 -0.905301 1.80234
-0.424773 -0.901971 1.88664
-0.120898 -0.900078 2.03336
-0.27647 -0.898675 1.94881
-0.502103 -0.897293 1.8292
-0.392494 -0.895939 1.87715
-0.464968 -0.894622 1.83398
-0.455413 -0.893343 1.83173
-0.409963 -0.892514 1.84597
-0.382387 -0.891707 1.85122
-0.436488 -0.890923 1.81558
-0.767973 -0.890164 1.64118
-0.371559 -0.889432 1.83066
-0.563975 -0.888728 1.72564
-0.570844 -0.888372 1.71225
-0.326002 -0.887711 1.82575
-0.352549 -0.887094 1.80342
-0.375401 -0.886499 1.78288
-0.266677 -0.886194 1.82715
-0.300045 -0.885649 1.80121
-0.660798 -0.885367 1.61069
-0.539589 -0.884892 1.66181
-0.398448 -0.884438 1.72285
-0.328756 -0.884198 1.74742
-0.491038 -0.883821 1.65649
-0.370283 -0.883608 1.70652
-0.351433 -0.88327 1.70603
-0.239113 -0.883083 1.75176
-0.368541 -0.882828 1.67685
-0.499775 -0.882592 1.60099
-0.312844 -0.882477 1.68378
-0.336324 -0.882303 1.66157
-0.571556 -0.882193 1.53327
-0.483022 -0.882083 1.56685
-0.415474 -0.882003 1.58984
-0.532131 -0.881931 1.52069
-0.19314 -0.881927 1.67912
-0.482546 -0.881894 1.52346
-0.244926 -0.881892 1.63119
-0.491638 -0.881952 1.49654
-0.167602 -0.881982 1.64736
-0.335738 -0.882074 1.55187
-0.457712 -0.882239 1.47919
-0.449336 -0.882321 1.47198
-0.113442 -0.882548 1.62799
-0.35434 -0.882782 1.49557
-0.505961 -0.883091 1.4075
-0.152837 -0.883242 1.5724
-0.55615 -0.88379 1.35756
-0.365547 -0.883979 1.44103
-0.464363 -0.884676 1.37785
-0.345566 -0.885135 1.42437
-0.345687 -0.885667 1.41114
-0.0994047 -0.88683 1.51865
-0.425855 -0.887459 1.34184
-0.315366 -0.888803 1.3807
0.0263861 -0.890295 1.53458
-0.322341 -0.892685 1.33967
-0.411859 -0.891519 1.88391
-0.445818 -0.888236 1.86633
-0.266494 -0.886374 1.95079
-0.492407 -0.884996 1.83108
-0.45085 -0.88364 1.84507
-0.553723 -0.882751 1.78533
-0.526181 -0.881447 1.79219
-0.300723 -0.880598 1.89653
-0.662766 -0.879371 1.70841
-0.0675238 -0.878564 1.99755
-0.52353 -0.877789 1.76097
-0.641668 -0.877038 1.69327
-0.464175 -0.876324 1.77327
-0.195071 -0.875628 1.89904
-0.685319 -0.875272 1.64397
-0.595112 -0.874618 1.68017
-0.377371 -0.873996 1.78005
-0.301334 -0.873674 1.80805
-0.384716 -0.8731 1.75722
-0.382937 -0.872577 1.74881
-0.494733 -0.872074 1.68356
-0.599628 -0.871807 1.62093
-0.387311 -0.871377 1.7175
-0.403914 -0.871136 1.69894
-0.421849 -0.870742 1.68027
-0.611714 -0.870526 1.57501
-0.269198 -0.870214 1.73629
-0.449153 -0.869918 1.63628
-0.416074 -0.869747 1.64235
-0.299592 -0.869538 1.69026
-0.331714 -0.869397 1.66363
-0.446612 -0.869264 1.59558
-0.22216 -0.86914 1.69718
-0.375474 -0.869029 1.60984
-0.510475 -0.868947 1.53157
-0.478422 -0.868874 1.53679
-0.525168 -0.86884 1.50246
-0.575237 -0.868816 1.46644
-0.379775 -0.868831 1.55303
-0.53195 -0.868839 1.46584
-0.35938 -0.868917 1.54075
-0.384291 -0.869004 1.51688
-0.246855 -0.869063 1.5743
-0.528645 -0.869245 1.42163
-0.508102 -0.869433 1.4201
-0.483832 -0.869542 1.42073
-0.513407 -0.869962 1.39323
-0.385186 -0.87011 1.44568
-0.41122 -0.87047 1.42017
-0.282223 -0.871062 1.47127
-0.216861 -0.871265 1.49205
-0.256495 -0.872004 1.45823
-0.319401 -0.872486 1.41377
-0.020356 -0.873351 1.54875
-0.316186 -0.874246 1.38617
-0.426272 -0.875247 1.31601
-0.259662 -0.876648 1.38258
-0.235103 -0.879429 1.37258
-0.314878 -0.881406 1.92182
-0.267181 -0.877741 1.94646
-0.621194 -0.874509 1.76888
-0.180715 -0.873132 1.98242
-0.478858 -0.871324 1.82813
-0.440468 -0.870433 1.83905
-0.279477 -0.869124 1.91272
-0.574531 -0.868268 1.75686
-0.376255 -0.867021 1.84902
-0.278105 -0.86621 1.88965
-0.360223 -0.865421 1.8401
-0.46986 -0.864654 1.77673
-0.729018 -0.863912 1.63853
-0.732161 -0.863195 1.62827
-0.507107 -0.862506 1.73203
-0.481245 -0.861846 1.73612
-0.494747 -0.861502 1.71942
-0.328958 -0.860904 1.79328
-0.25773 -0.860321 1.81982
-0.603109 -0.859771 1.63795
-0.35543 -0.859479 1.7517
-0.376837 -0.859001 1.73159
-0.50128 -0.858733 1.65921
-0.596444 -0.858288 1.60212
-0.509553 -0.858043 1.63534
-0.586187 -0.857677 1.58725
-0.765144 -0.857325 1.48795
-0.262143 -0.857126 1.72909
-0.487055 -0.856859 1.60652
-0.407906 -0.856687 1.63563
-0.432353 -0.856524 1.61293
-0.20793 -0.856339 1.71474
-0.494114 -0.856168 1.5612
-0.363807 -0.856054 1.6157
-0.459591 -0.855949 1.55712
-0.471822 -0.855883 1.54017
-0.381343 -0.855814 1.57459
-0.442137 -0.855779 1.53325
-0.295335 -0.85574 1.59572
-0.401451 -0.855735 1.53161
-0.332862 -0.85579 1.55461
-0.433797 -0.855816 1.49297
-0.450206 -0.855898 1.47337
-0.384362 -0.856056 1.4946
-0.461576 -0.856132 1.44462
-0.498242 -0.85635 1.41435
-0.471699 -0.856571 1.41568
-0.334649 -0.856696 1.47263
-0.173299 -0.857011 1.54097
-0.438378 -0.857326 1.39609
-0.290256 -0.857717 1.45751
-0.254942 -0.858144 1.46237
-0.270912 -0.858566 1.44159
-0.17678 -0.859343 1.47443
-0.385373 -0.859847 1.35699
-0.272229 -0.860744 1.39882
-0.158543 -0.861665 1.44081
-0.145873 -0.863391 1.429
-0.201844 -0.864905 1.38368
-0.404626 -0.867143 1.86861
-0.369223 -0.863512 1.88722
-0.273577 -0.86124 1.93143
-0.164453 -0.859435 1.98085
-0.486245 -0.858099 1.81323
-0.329993 -0.856788 1.8846
-0.518221 -0.855508 1.78365
-0.273216 -0.854671 1.89781
-0.393135 -0.853851 1.82947
-0.403181 -0.85305 1.81603
-0.389367 -0.852256 1.81451
-0.304676 -0.851498 1.84832
-0.567407 -0.850763 1.70836
-0.490981 -0.850055 1.73791
-0.338653 -0.849391 1.80527
-0.529859 -0.848738 1.70083
-0.169621 -0.848115 1.87203
-0.452184 -0.847786 1.72079
-0.460881 -0.847209 1.70738
-0.495131 -0.846899 1.68025
-0.62605 -0.846393 1.6055
-0.371662 -0.8459 1.72337
-0.589505 -0.845629 1.60432
-0.259887 -0.845212 1.75955
-0.343553 -0.844808 1.7081
-0.385417 -0.84458 1.67691
-0.659259 -0.844259 1.53008
-0.576189 -0.844059 1.56127
-0.188349 -0.843867 1.74481
-0.49512 -0.843625 1.58125
-0.618077 -0.843394 1.50955
-0.521954 -0.84325 1.54707
-0.462271 -0.843109 1.56637
-0.556041 -0.842994 1.50884
-0.452442 -0.842884 1.54998
-0.38065 -0.842797 1.57513
-0.441441 -0.842719 1.53396
-0.469995 -0.842683 1.50875
-0.532955 -0.842675 1.46622
-0.619636 -0.842669 1.41183
-0.266457 -0.842673 1.57733
-0.432333 -0.842711 1.48317
-0.301853 -0.842824 1.53688
-0.505228 -0.842878 1.42391
-0.214794 -0.843015 1.5575
-0.334374 -0.843228 1.48579
-0.410164 -0.84333 1.4364
-0.349547 -0.843602 1.45454
-0.285291 -0.843872 1.4745
-0.488584 -0.844219 1.36036
-0.150836 -0.844562 1.51676
-0.270635 -0.844981 1.44406
-0.11125 -0.845435 1.51081
-0.379674 -0.84588 1.36367
-0.396133 -0.846693 1.341
-0.345525 -0.847216 1.35303
-0.294159 -0.848479 1.36238
-0.448042 -0.849443 1.27031
-0.347998 -0.85162 1.30015
-0.44032 -0.852893 1.8425
-0.690728 -0.850201 1.71521
-0.080694 -0.847954 2.01668
-0.328728 -0.846184 1.88751
-0.338753 -0.844437 1.87731
-0.555934 -0.843574 1.76048
-0.590261 -0.842311 1.73651
-0.628533 -0.841484 1.70905
-0.520618 -0.840284 1.75604
-0.472743 -0.839504 1.77154
-0.199886 -0.838745 1.89948
-0.296971 -0.838009 1.84238
-0.566644 -0.837297 1.69892
-0.427608 -0.836611 1.75975
-0.520105 -0.836249 1.70364
-0.421857 -0.835604 1.74396
-0.479698 -0.835259 1.70514
-0.382004 -0.83468 1.74497
-0.497397 -0.834109 1.67823
-0.624694 -0.83357 1.60544
-0.32442 -0.833275 1.74554
-0.593858 -0.832812 1.60143
-0.375774 -0.832359 1.70105
-0.351336 -0.832106 1.70311
-0.60483 -0.831733 1.56665
-0.472222 -0.831506 1.62271
-0.364966 -0.831287 1.66607
-0.561049 -0.83099 1.55806
-0.431107 -0.830703 1.61304
-0.314353 -0.83053 1.66099
-0.472021 -0.830331 1.57183
-0.228207 -0.830186 1.68321
-0.457113 -0.830017 1.55833
-0.457416 -0.8299 1.54756
-0.49113 -0.829823 1.51992
-0.56191 -0.829724 1.47384
-0.345187 -0.829654 1.5714
-0.398135 -0.829617 1.534
-0.241498 -0.829573 1.60142
-0.390458 -0.829565 1.5159
-0.443955 -0.829604 1.47792
-0.518554 -0.829638 1.42941
-0.448549 -0.82967 1.45321
-0.452505 -0.829763 1.43978
-0.582401 -0.829933 1.36307
-0.200047 -0.830013 1.54285
-0.446909 -0.830201 1.40757
-0.481713 -0.830467 1.37801
-0.503273 -0.83073 1.35507
-0.409264 -0.83107 1.38959
0.0848034 -0.831233 1.62486
-0.20872 -0.831815 1.4646
-0.288625 -0.83226 1.4117
0.0454318 -0.832695 1.56582
-0.187486 -0.833205 1.43612
-0.0638929 -0.834317 1.48215
-0.214434 -0.834916 1.39323
-0.384624 -0.836193 1.29162
-0.346998 -0.837614 1.29328
-0.150085 -0.839877 1.37098
-0.303837 -0.839098 1.901
-0.543705 -0.836442 1.77905
-0.640032 -0.834231 1.72737
-0.370603 -0.832913 1.85545
-0.32685 -0.831204 1.87213
-0.341438 -0.830337 1.85667
-0.40017 -0.829107 1.82046
-0.517013 -0.827897 1.75516
-0.274706 -0.827107 1.86795
-0.313692 -0.826337 1.84004
-0.206935 -0.825587 1.88495
-0.462722 -0.824861 1.74852
-0.338009 -0.824158 1.80227
-0.430351 -0.823763 1.74638
-0.601514 -0.82312 1.65201
-0.258824 -0.822482 1.81456
-0.229326 -0.821873 1.82043
-0.519223 -0.821542 1.66558
-0.289517 -0.821003 1.77131
-0.0719198 -0.820471 1.87098
-0.570608 -0.819972 1.6124
-0.609347 -0.819722 1.58286
-0.858303 -0.819453 1.44829
-0.251533 -0.819022 1.74221
-0.621613 -0.818777 1.54701
-0.437588 -0.818429 1.62926
-0.423603 -0.818089 1.62646
-0.281348 -0.817889 1.68728
-0.77797 -0.817635 1.42886
-0.475388 -0.817462 1.56974
-0.451444 -0.817296 1.57128
-0.554414 -0.817121 1.5094
-0.481195 -0.816953 1.53559
-0.304062 -0.816835 1.61354
-0.331582 -0.816725 1.58915
-0.418973 -0.816657 1.53464
-0.588524 -0.816588 1.43907
-0.396081 -0.816514 1.52452
-0.544175 -0.816486 1.43951
-0.438038 -0.816495 1.48147
-0.283359 -0.816496 1.54773
-0.423241 -0.816527 1.4666
-0.454328 -0.816556 1.43986
-0.519001 -0.816683 1.39593
-0.186742 -0.81681 1.55046
-0.192044 -0.816887 1.53642
-0.18743 -0.81711 1.52672
-0.127956 -0.817329 1.54447
-0.329709 -0.817453 1.432
-0.395275 -0.817768 1.38681
-0.299149 -0.818077 1.42249
-0.278198 -0.818463 1.42025
-0.111823 -0.819083 1.48972
-0.393256 -0.819292 1.33702
-0.41527 -0.820008 1.31186
-0.244334 -0.820539 1.38395
-0.127463 -0.821687 1.42635
-0.0739444 -0.822642 1.43788
-0.39785 -0.823968 1.25907
-0.383134 -0.826561 1.24407
-0.238564 -0.824875 1.9255
-0.196988 -0.82269 1.94277
-0.441447 -0.820946 1.8155
-0.368285 -0.819223 1.84702
-0.416871 -0.817949 1.81607
-0.430737 -0.817108 1.80094
-0.305819 -0.815879 1.85664
-0.475743 -0.815072 1.76341
-0.351014 -0.813905 1.81885
-0.248973 -0.813144 1.86148
-0.323518 -0.812404 1.81575
-0.501903 -0.811685 1.71805
-0.195867 -0.810991 1.86249
-0.591222 -0.810321 1.65615
-0.575103 -0.809958 1.65442
-0.454753 -0.809354 1.70572
-0.478312 -0.808752 1.68508
-0.209405 -0.808181 1.81057
-0.518134 -0.807867 1.64627
-0.543742 -0.807369 1.62425
-0.527108 -0.807077 1.62257
-0.327001 -0.806601 1.71334
-0.596885 -0.806332 1.56833
-0.630973 -0.805937 1.54172
-0.732921 -0.805547 1.48116
-0.360036 -0.80535 1.65728
-0.443766 -0.805015 1.60564
-0.369435 -0.804814 1.6325
-0.583515 -0.804621 1.51514
-0.341166 -0.804392 1.62614
-0.523119 -0.804168 1.52498
-0.389589 -0.804021 1.58125
-0.294034 -0.803881 1.61851
-0.352778 -0.803768 1.57852
-0.160839 -0.803657 1.66386
-0.475334 -0.803554 1.49596
-0.455893 -0.803484 1.49489
-0.353728 -0.803445 1.53506
-0.873495 -0.803416 1.26423
-0.337512 -0.803385 1.52127
-0.347337 -0.803385 1.5053
-0.358708 -0.803393 1.4885
-0.411485 -0.803479 1.45069
-0.467276 -0.803563 1.41137
-0.357307 -0.803619 1.45505
-0.469988 -0.8038 1.38688
-0.374773 -0.803976 1.42266
-0.372426 -0.804078 1.41233
-0.546656 -0.804352 1.31297
-0.331423 -0.804618 1.40837
0.0935785 -0.804962 1.60831
-0.282881 -0.805296 1.40756
-0.429785 -0.805708 1.32124
-0.490353 -0.806107 1.27813
-0.208761 -0.806583 1.40576
-0.188576 -0.80733 1.4015
-0.345277 -0.808189 1.30829
-0.34989 -0.80906 1.29104
-0.0744515 -0.810387 1.41179
-0.0363658 -0.811754 1.41366
-0.414843 -0.811098 1.82772
-0.223731 -0.808947 1.91981
-0.532499 -0.807233 1.76041
-0.0768882 -0.805958 1.98162
-0.439095 -0.804702 1.79389
-0.438883 -0.803472 1.78731
-0.516752 -0.802661 1.74015
-0.427175 -0.801485 1.77812
-0.587639 -0.800715 1.68956
-0.423576 -0.799964 1.76322
-0.498652 -0.799233 1.71725
-0.622626 -0.798523 1.64677
-0.291568 -0.797838 1.80374
-0.642713 -0.797177 1.61953
-0.498678 -0.796543 1.68282
-0.408015 -0.796196 1.71834
-0.48044 -0.79563 1.67317
-0.298115 -0.795067 1.75538
-0.174618 -0.794754 1.80722
-0.3697 -0.794236 1.70058
-0.378356 -0.793975 1.68615
-0.23933 -0.793505 1.7464
-0.402855 -0.793238 1.65459
-0.399983 -0.792849 1.64646
-0.563994 -0.792464 1.55489
-0.449412 -0.792238 1.60198
-0.362606 -0.792019 1.63517
-0.592937 -0.791738 1.51005
-0.596971 -0.791461 1.49806
-0.533034 -0.79132 1.51952
-0.267225 -0.791154 1.64202
-0.353345 -0.790951 1.58871
-0.347433 -0.790811 1.58116
-0.267127 -0.790679 1.61078
-0.201951 -0.790588 1.63267
-0.110213 -0.790484 1.6679
-0.263485 -0.790414 1.58049
-0.17869 -0.790336 1.61214
-0.543128 -0.790306 1.41898
-0.414801 -0.790285 1.47216
-0.457821 -0.79031 1.43947
-0.18999 -0.790318 1.56229
-0.271911 -0.79036 1.51008
-0.398551 -0.790395 1.43554
-0.285977 -0.790535 1.48016
-0.321007 -0.79067 1.451
-0.202589 -0.790751 1.49879
-0.341511 -0.790939 1.41744
-0.282268 -0.791207 1.43482
-0.198856 -0.791465 1.46433
-0.276528 -0.791607 1.41379
-0.280528 -0.791961 1.39915
-0.37404 -0.792303 1.33981
-0.438517 -0.792723 1.29463
-0.263256 -0.793388 1.36822
-0.435697 -0.793885 1.26869
-0.297091 -0.794659 1.32344
-0.32555 -0.795542 1.29414
-0.0458286 -0.796433 1.41889
-0.0504669 -0.798094 1.39797
-0.311601 -0.797749 1.86817
-0.354043 -0.795631 1.84352
-0.453628 -0.793943 1.78875
-0.297443 -0.792687 1.86028
-0.36476 -0.79145 1.82002
-0.692624 -0.790237 1.64942
-0.337712 -0.789055 1.82014
-0.484231 -0.788278 1.73862
-0.173903 -0.787518 1.88548
-0.558668 -0.786777 1.68475
-0.360872 -0.786056 1.77523
-0.45753 -0.785358 1.71843
-0.334394 -0.784682 1.77145
-0.234237 -0.784031 1.81291
-0.123069 -0.783406 1.85978
-0.309376 -0.783061 1.75683
-0.41732 -0.782477 1.69402
-0.611309 -0.782181 1.58706
-0.466442 -0.78164 1.65052
-0.442714 -0.781129 1.6533
-0.372354 -0.78084 1.67851
-0.5967 -0.780407 1.55697
-0.245909 -0.779977 1.72299
-0.438176 -0.779728 1.61676
-0.512527 -0.779517 1.56934
-0.406144 -0.779155 1.61292
-0.386875 -0.778937 1.61235
-0.321936 -0.77866 1.63486
-0.491482 -0.778468 1.5398
-0.345205 -0.778212 1.60291
-0.238412 -0.778081 1.64578
-0.481373 -0.77788 1.51405
-0.514612 -0.77774 1.48694
-0.213073 -0.777607 1.6272
-0.61741 -0.777518 1.41433
-0.399505 -0.777413 1.51266
-0.589988 -0.777315 1.40676
-0.155294 -0.777264 1.61326
-0.281746 -0.777233 1.5391
-0.393169 -0.777211 1.47241
-0.412109 -0.777195 1.45195
-0.453199 -0.7772 1.42031
-0.41775 -0.777215 1.42691
-0.503465 -0.777314 1.37255
-0.585127 -0.777408 1.32025
-0.097887 -0.777468 1.55253
-0.398952 -0.777615 1.39029
-0.566176 -0.777702 1.29522
-0.608027 -0.77806 1.26164
-0.443609 -0.778181 1.33224
-0.170098 -0.778495 1.45652
-0.103818 -0.778796 1.47723
-0.342537 -0.779176 1.34508
-0.223314 -0.779541 1.39196
-0.530699 -0.779983 1.22518
-0.340053 -0.780407 1.30748
-0.21476 -0.781194 1.35546
-0.375352 -0.781992 1.26041
-0.390794 -0.783177 1.23616
-0.133263 -0.78415 1.34932
-0.368129 -0.785855 1.21291
-0.352268 -0.784394 1.8367
-0.213343 -0.781898 1.90435
-0.329354 -0.780241 1.84138
-0.37005 -0.77901 1.81448
-0.460161 -0.777798 1.76283
-0.403663 -0.776997 1.78293
-0.478218 -0.775832 1.73893
-0.459037 -0.775066 1.74028
-0.637099 -0.774318 1.64297
-0.373386 -0.773588 1.76649
-0.356176 -0.772851 1.7668
-0.347894 -0.772162 1.76249
-0.372557 -0.771524 1.74151
-0.493795 -0.770882 1.67229
-0.639568 -0.770266 1.59071
-0.501529 -0.769925 1.64995
-0.281824 -0.769349 1.75098
-0.303237 -0.769026 1.73044
-0.29806 -0.768523 1.72394
-0.342802 -0.76802 1.6925
-0.424075 -0.767733 1.64192
-0.556043 -0.767308 1.56656
-0.365479 -0.767044 1.65183
-0.464844 -0.766635 1.59273
-0.392184 -0.766394 1.61896
-0.675637 -0.76607 1.46749
-0.398543 -0.765747 1.59629
-0.375549 -0.765582 1.5974
-0.396445 -0.76539 1.57667
-0.292178 -0.765137 1.61879
-0.342795 -0.76497 1.58311
-0.455489 -0.764808 1.51638
-0.196372 -0.764668 1.63546
-0.230917 -0.764524 1.60773
-0.693361 -0.764409 1.36593
-0.430695 -0.764341 1.48649
-0.367784 -0.764243 1.5073
-0.427377 -0.764192 1.46666
-0.37786 -0.764119 1.48067
-0.326087 -0.764096 1.4956
-0.548415 -0.764077 1.37345
-0.254108 -0.764081 1.50952
-0.143107 -0.764137 1.55371
-0.338623 -0.76419 1.44465
-0.238279 -0.76423 1.48358
-0.255302 -0.764337 1.46353
-0.359859 -0.764403 1.39989
-0.504598 -0.764608 1.31553
-0.216891 -0.764802 1.44744
-0.307525 -0.765029 1.39002
-0.0746031 -0.765155 1.49483
-0.479604 -0.765479 1.27978
-0.273981 -0.765788 1.3701
-0.456176 -0.766176 1.26614
-0.402316 -0.766546 1.28027
-0.0995139 -0.767205 1.41754
-0.24566 -0.767696 1.33109
-0.296829 -0.768458 1.29086
-0.193153 -0.769328 1.32752
-0.256938 -0.770535 1.27887
0.00681684 -0.772549 1.39017
-0.383542 -0.771034 1.80996
-0.285392 -0.768578 1.85727
-0.236565 -0.766947 1.87675
-0.391004 -0.765734 1.79301
-0.337774 -0.764542 1.81305
-0.209711 -0.763375 1.87044
-0.264122 -0.762606 1.83505
-0.490623 -0.761852 1.71358
-0.223955 -0.760767 1.84004
-0.415142 -0.760058 1.73609
-0.411866 -0.759369 1.72931
-0.223299 -0.758991 1.81394
-0.527594 -0.758335 1.65328
-0.267763 -0.757732 1.77449
-0.223079 -0.757381 1.7871
-0.575647 -0.756787 1.60211
-0.139718 -0.756219 1.81126
-0.706742 -0.75568 1.51885
-0.591897 -0.755405 1.56628
-0.291199 -0.754909 1.70757
-0.442609 -0.754624 1.62194
-0.527489 -0.754207 1.57013
-0.604943 -0.753944 1.5214
-0.413421 -0.753542 1.60776
-0.704266 -0.753302 1.45226
-0.563657 -0.752984 1.51282
-0.594199 -0.752768 1.48738
-0.54326 -0.752466 1.50305
-0.458972 -0.75231 1.53478
-0.55685 -0.752061 1.47584
-0.324017 -0.751894 1.5819
-0.351948 -0.751735 1.55755
-0.596682 -0.751595 1.42472
-0.364888 -0.751462 1.53013
-0.639891 -0.751336 1.38211
-0.492944 -0.751258 1.44486
-0.246435 -0.75117 1.55744
-0.532458 -0.751078 1.40377
-0.497621 -0.751036 1.41031
-0.398535 -0.750979 1.44905
-0.486838 -0.751 1.39374
-0.366857 -0.751003 1.44266
-0.45526 -0.751015 1.38734
-0.280555 -0.751035 1.46354
-0.55257 -0.751102 1.31616
-0.373871 -0.751149 1.39424
-0.0905068 -0.751268 1.52431
-0.531488 -0.751468 1.29184
-0.460032 -0.751655 1.31564
-0.388712 -0.751762 1.33974
-0.272058 -0.751998 1.3859
-0.401893 -0.752315 1.30843
-0.274344 -0.752616 1.35972
-0.115678 -0.752996 1.4262
-0.372174 -0.753357 1.28517
-0.171439 -0.753797 1.37237
-0.215909 -0.754484 1.3358
-0.225815 -0.754992 1.31733
-0.00945736 -0.755776 1.41067
-0.189856 -0.756664 1.30511
-0.34858 -0.757889 1.20875
-0.0750021 -0.760288 1.3229
-0.517399 -0.757669 1.73196
-0.319284 -0.755254 1.82929
-0.394663 -0.753649 1.7867
-0.422135 -0.752456 1.76647
-0.307352 -0.751283 1.81731
-0.505282 -0.750136 1.71173
-0.403066 -0.749378 1.75467
-0.35053 -0.748636 1.77273
-0.205046 -0.747569 1.83862
-0.36801 -0.747174 1.74755
-0.453857 -0.746486 1.69627
-0.261597 -0.745818 1.78397
-0.224835 -0.745172 1.79386
-0.412713 -0.744549 1.69134
-0.409555 -0.744232 1.68309
-0.441518 -0.743647 1.65841
-0.50061 -0.743088 1.62007
-0.399268 -0.742557 1.66185
-0.265153 -0.742253 1.71907
-0.202051 -0.741797 1.74143
-0.29162 -0.741514 1.68674
-0.46153 -0.741071 1.59257
-0.393688 -0.740844 1.61636
-0.417494 -0.740448 1.59506
-0.385821 -0.740209 1.60084
-0.450805 -0.739977 1.55826
-0.421759 -0.739682 1.56298
-0.37277 -0.739385 1.57769
-0.554558 -0.73923 1.47639
-0.453437 -0.739047 1.51668
-0.22623 -0.738818 1.62022
-0.573995 -0.738659 1.43597
-0.448914 -0.738522 1.48805
-0.296344 -0.738388 1.55386
-0.342084 -0.738262 1.52049
-0.762657 -0.738143 1.29967
-0.431453 -0.738074 1.45452
-0.459428 -0.738005 1.42978
-0.325598 -0.737962 1.48583
-0.314478 -0.737904 1.4806
-0.27907 -0.737887 1.48732
-0.163681 -0.73788 1.53398
-0.379252 -0.737891 1.41509
-0.374357 -0.73791 1.40639
-0.320557 -0.737937 1.4221
-0.184671 -0.738018 1.47861
-0.248639 -0.73807 1.43532
-0.428798 -0.738327 1.33298
-0.439671 -0.738413 1.31607
-0.317928 -0.738611 1.36495
-0.398202 -0.738722 1.31321
-0.31513 -0.739017 1.34228
-0.335818 -0.739294 1.31955
-0.159306 -0.739601 1.39526
-0.369361 -0.739989 1.27729
-0.245706 -0.740405 1.32603
-0.265214 -0.740799 1.30328
-0.292047 -0.741491 1.27543
-0.248404 -0.742292 1.28225
-0.0861263 -0.742786 1.34987
-0.436957 -0.744274 1.15607
-0.0491475 -0.745938 1.33069
-0.19735 -0.744274 1.88105
-0.310565 -0.741927 1.82265
-0.113337 -0.740349 1.91639
-0.364629 -0.739176 1.78427
-0.392122 -0.738022 1.76399
-0.154218 -0.736894 1.87635
-0.241234 -0.736149 1.82469
-0.291179 -0.735418 1.79153
-0.390708 -0.734675 1.73366
-0.368693 -0.733978 1.73638
-0.263225 -0.7333 1.78077
-0.567048 -0.732643 1.62045
-0.562624 -0.732007 1.61418
-0.469889 -0.731395 1.65199
-0.312922 -0.731049 1.72079
-0.300596 -0.730506 1.71813
-0.385665 -0.729956 1.66682
-0.738055 -0.729641 1.48085
-0.352104 -0.729131 1.6649
-0.448728 -0.72887 1.6066
-0.537015 -0.728404 1.55337
-0.354052 -0.727967 1.63565
-0.6235 -0.727743 1.49081
-0.357341 -0.727353 1.6145
-0.465546 -0.727115 1.55035
-0.452296 -0.726885 1.54691
-0.0204672 -0.726596 1.75302
-0.389578 -0.726388 1.55831
-0.622573 -0.726112 1.43197
-0.488603 -0.725967 1.48853
-0.412621 -0.725742 1.51647
-0.376129 -0.725583 1.52436
-0.585722 -0.725431 1.40918
-0.582537 -0.725315 1.40024
-0.301899 -0.725188 1.53007
-0.301763 -0.725069 1.51962
-0.39773 -0.725 1.4609
-0.401449 -0.724931 1.4483
-0.327777 -0.724845 1.47447
-0.412265 -0.724811 1.42133
-0.12771 -0.724767 1.55275
-0.0112475 -0.724759 1.59997
-0.524073 -0.724759 1.3325
-0.356413 -0.724784 1.40515
-0.186322 -0.724809 1.47902
-0.319297 -0.724843 1.40131
-0.098246 -0.724983 1.50012
-0.276814 -0.72511 1.39917
-0.700054 -0.725269 1.17572
-0.39686 -0.725361 1.31581
-0.380119 -0.725568 1.31212
-0.672739 -0.725683 1.15418
-0.396671 -0.726126 1.279
-0.308334 -0.726272 1.31138
-0.356079 -0.726637 1.27465
-0.266582 -0.726979 1.30663
-0.320323 -0.727596 1.26564
-0.304686 -0.728059 1.26008
-0.139649 -0.728494 1.32934
-0.474227 -0.729541 1.14574
-0.201307 -0.730099 1.2683
-0.332697 -0.731608 1.18394
-0.237396 -0.734673 1.20509
-0.292171 -0.730903 1.82262
-0.249225 -0.728598 1.84233
-0.171457 -0.727048 1.87638
-0.207865 -0.725894 1.85172
-0.494401 -0.72476 1.70195
-0.29768 -0.723651 1.79374
-0.518045 -0.722918 1.67542
-0.195489 -0.722169 1.82866
-0.371366 -0.721466 1.7325
-0.325973 -0.72078 1.74693
-0.448327 -0.720114 1.67743
-0.282229 -0.719467 1.75208
-0.562578 -0.718842 1.60344
-0.328294 -0.718239 1.71204
-0.32824 -0.717897 1.70241
-0.431066 -0.717363 1.64218
-0.437506 -0.716822 1.63019
-0.341319 -0.71651 1.66853
-0.363328 -0.716009 1.64861
-0.637906 -0.715751 1.50135
-0.381717 -0.715292 1.62037
-0.186983 -0.714863 1.70855
-0.374791 -0.714605 1.6047
-0.471369 -0.71439 1.54628
-0.566406 -0.714022 1.48933
-0.289135 -0.713792 1.61791
-0.517752 -0.713509 1.49381
-0.19211 -0.713303 1.64648
-0.432145 -0.713031 1.51664
-0.237164 -0.712887 1.60371
-0.471005 -0.712712 1.47652
-0.258637 -0.712506 1.57259
-0.471567 -0.712355 1.45576
-0.274476 -0.712242 1.54377
-0.531035 -0.712115 1.40502
-0.466856 -0.711996 1.42661
-0.179509 -0.711884 1.55975
-0.479317 -0.711823 1.39907
-0.519769 -0.711771 1.36804
-0.311975 -0.711692 1.46125
-0.301035 -0.711665 1.4558
-0.285898 -0.711637 1.45245
-0.418895 -0.711635 1.3749
-0.294975 -0.711642 1.42577
-0.192274 -0.711657 1.466
-0.35429 -0.71176 1.37344
-0.55134 -0.711849 1.26342
-0.272218 -0.711906 1.39165
-0.350294 -0.712044 1.34088
-0.258094 -0.712213 1.37508
-0.170094 -0.71231 1.40755
-0.505825 -0.712526 1.22755
-0.379842 -0.712824 1.278
-0.269763 -0.7131 1.32059
-0.402331 -0.713249 1.24249
-0.0502244 -0.713791 1.40475
-0.172542 -0.713968 1.33162
-0.197608 -0.714591 1.30486
-0.332366 -0.715056 1.22403
-0.30193 -0.715773 1.22451
-0.169448 -0.71654 1.27574
-0.00403293 -0.717728 1.34126
-0.212503 -0.718934 1.21972
-0.302785 -0.71753 1.80631
-0.487584 -0.715268 1.71219
-0.411522 -0.713744 1.74541
-0.452172 -0.71261 1.71865
-0.488364 -0.711496 1.69408
-0.369685 -0.710726 1.74549
-0.500686 -0.709685 1.67326
-0.668408 -0.708947 1.58138
-0.471624 -0.708256 1.67157
-0.530266 -0.707582 1.634
-0.164807 -0.706926 1.80842
-0.253146 -0.70629 1.75587
-0.357629 -0.705675 1.69518
-0.376173 -0.705082 1.67738
-0.37284 -0.704744 1.6694
-0.285694 -0.70422 1.70417
-0.587948 -0.703899 1.54334
-0.191861 -0.703379 1.73259
-0.357353 -0.702886 1.64095
-0.433598 -0.702632 1.59286
-0.381134 -0.702181 1.61004
-0.149636 -0.70191 1.71591
-0.261782 -0.701502 1.65061
-0.237061 -0.70129 1.65284
-0.301317 -0.700927 1.6113
-0.469594 -0.7007 1.51713
-0.488731 -0.700518 1.49732
-0.295403 -0.700218 1.5843
-0.337766 -0.699949 1.5533
-0.304654 -0.699808 1.55945
-0.318297 -0.699633 1.54237
-0.370523 -0.699431 1.50615
-0.520606 -0.699305 1.42064
-0.520738 -0.699178 1.41012
-0.34474 -0.699042 1.48771
-0.404395 -0.698913 1.44744
-0.141283 -0.69881 1.56843
-0.356349 -0.69875 1.45013
-0.351487 -0.698652 1.44198
-0.391908 -0.698608 1.41093
-0.164799 -0.698545 1.51374
-0.519171 -0.698525 1.3256
-0.502561 -0.698558 1.32269
-0.477831 -0.698564 1.32398
-0.18119 -0.698578 1.46117
-0.453751 -0.698631 1.31358
-0.227009 -0.698669 1.41571
-0.364328 -0.69877 1.33549
0.0115352 -0.698832 1.51206
-0.474803 -0.698981 1.25709
-0.136206 -0.69916 1.41443
-0.435756 -0.699261 1.25308
-0.361392 -0.699485 1.27806
-0.317633 -0.699791 1.28732
-0.249868 -0.700074 1.30869
-0.218336 -0.700226 1.31261
-0.207597 -0.700776 1.30408
-0.0834215 -0.701194 1.35293
-0.305611 -0.701583 1.22874
-0.282186 -0.702266 1.22582
-0.308383 -0.702768 1.199
-0.460702 -0.703837 1.10616
-0.398579 -0.705308 1.11841
-0.482212 -0.704156 1.70562
-0.287433 -0.702275 1.79985
-0.444165 -0.700774 1.71672
-0.496079 -0.699326 1.68581
-0.244451 -0.698231 1.80517
-0.468191 -0.697472 1.6854
-0.398492 -0.696756 1.71218
-0.540515 -0.695724 1.63453
-0.277525 -0.695045 1.75784
-0.293976 -0.694382 1.74138
-0.513212 -0.693737 1.62347
-0.369731 -0.693112 1.68685
-0.443101 -0.692508 1.64173
-0.61045 -0.691925 1.54954
-0.633483 -0.69159 1.5284
-0.534149 -0.691295 1.56827
-0.361166 -0.690759 1.64608
-0.426938 -0.690248 1.60442
-0.432674 -0.689763 1.59267
-0.260494 -0.689513 1.6688
-0.805185 -0.689231 1.38665
-0.419005 -0.688801 1.57064
-0.35615 -0.688539 1.59219
-0.333085 -0.68819 1.59427
-0.433518 -0.68795 1.5341
-0.528007 -0.687608 1.47738
-0.0807507 -0.687428 1.69078
-0.518755 -0.687133 1.46211
-0.467769 -0.686936 1.47747
-0.56969 -0.686787 1.41615
-0.410659 -0.686555 1.48571
-0.355392 -0.686388 1.50309
-0.720576 -0.686228 1.31021
-0.119749 -0.686104 1.60016
-0.224864 -0.685968 1.53721
-0.696538 -0.685839 1.29095
-0.280315 -0.685762 1.48838
-0.422986 -0.685677 1.40641
-0.277817 -0.68558 1.46843
-0.520292 -0.685535 1.33636
-0.411279 -0.685471 1.38014
-0.445551 -0.685451 1.35205
-0.244943 -0.685439 1.44136
-0.548374 -0.685435 1.27862
-0.117202 -0.685452 1.48307
-0.310213 -0.685473 1.37541
-0.408668 -0.685538 1.31481
-0.347315 -0.685582 1.33421
-0.430339 -0.685694 1.28107
-0.350471 -0.685762 1.30961
-0.178135 -0.68592 1.38391
-0.325441 -0.686108 1.29822
-0.189129 -0.686214 1.35478
-0.402869 -0.686446 1.23564
-0.307681 -0.68676 1.27054
-0.320282 -0.687048 1.25166
-0.293047 -0.687203 1.25339
-0.0497288 -0.687759 1.36105
-0.343978 -0.688181 1.20062
-0.184785 -0.688572 1.26705
-0.376615 -0.689256 1.15641
-0.272171 -0.690046 1.19332
-0.388323 -0.690825 1.11997
0.0447136 -0.692286 1.31753
-0.4253 -0.69078 1.72313
-0.31156 -0.688934 1.77687
-0.221921 -0.68746 1.81695
-0.536524 -0.686361 1.65329
-0.441411 -0.685278 1.69444
-0.309472 -0.684218 1.75394
-0.345439 -0.683514 1.72791
-0.570093 -0.682501 1.60896
-0.351918 -0.681833 1.70989
-0.390521 -0.681182 1.68237
-0.282354 -0.680548 1.72818
-0.338057 -0.679934 1.69198
-0.39505 -0.67934 1.65507
-0.272024 -0.678998 1.70701
-0.276863 -0.678436 1.69605
-0.532253 -0.678146 1.55857
-0.198104 -0.677619 1.71698
-0.525323 -0.677116 1.54461
-0.378211 -0.676819 1.60845
-0.356699 -0.676393 1.61011
-0.395365 -0.676115 1.58099
-0.531416 -0.675691 1.50388
-0.384631 -0.675432 1.56741
-0.538262 -0.675091 1.48114
-0.647108 -0.674852 1.41678
-0.308271 -0.674516 1.57674
-0.228822 -0.674339 1.60624
-0.528196 -0.674128 1.44651
-0.629466 -0.673853 1.38615
-0.420215 -0.673706 1.48042
-0.626073 -0.673524 1.36732
-0.2425 -0.673311 1.54909
-0.368518 -0.673152 1.47581
-0.294373 -0.673031 1.50243
-0.337019 -0.672895 1.47073
-0.395634 -0.672766 1.43101
-0.500354 -0.672645 1.36821
-0.458987 -0.672576 1.37819
-0.398703 -0.672508 1.39762
-0.380436 -0.672417 1.39617
-0.0881479 -0.67238 1.53145
-0.507715 -0.672352 1.31077
-0.39226 -0.672318 1.35762
-0.372123 -0.672313 1.35667
-0.316217 -0.672316 1.37356
-0.305264 -0.672346 1.36784
-0.310694 -0.672373 1.35394
-0.311767 -0.672449 1.34196
-0.37143 -0.672499 1.30082
-0.317278 -0.672622 1.3162
-0.0571852 -0.672695 1.43481
-0.4182 -0.672862 1.24237
-0.329157 -0.672957 1.27534
-0.24825 -0.673168 1.30361
-0.294048 -0.673408 1.26838
-0.295695 -0.673538 1.2558
-0.542809 -0.674022 1.11858
-0.195616 -0.674179 1.28026
-0.124275 -0.674742 1.30182
-0.533598 -0.67511 1.08408
0.158032 -0.675558 1.41638
-0.279677 -0.676243 1.1827
-0.0716407 -0.677267 1.27003
-0.269471 -0.678112 1.15536
-0.0840274 -0.679582 1.22888
-0.356519 -0.677403 1.74659
-0.17504 -0.675592 1.83423
-0.393051 -0.674146 1.72052
-0.208505 -0.673066 1.80646
-0.517666 -0.672004 1.6455
-0.351153 -0.670962 1.72231
-0.472296 -0.670272 1.65371
-0.159104 -0.669594 1.80223
-0.340167 -0.668621 1.70503
-0.447957 -0.667981 1.64293
-0.390061 -0.667359 1.66362
-0.424201 -0.666755 1.63822
-0.400024 -0.666408 1.64079
-0.241644 -0.665834 1.71155
-0.47986 -0.6655 1.58288
-0.376574 -0.664996 1.62579
-0.266888 -0.664479 1.67198
-0.350737 -0.663985 1.62131
-0.43024 -0.663691 1.57185
-0.450472 -0.663441 1.55184
-0.286493 -0.662998 1.62487
-0.489658 -0.662582 1.51422
-0.364935 -0.662326 1.56674
-0.403943 -0.662115 1.53718
-0.513826 -0.661755 1.47292
-0.382996 -0.661525 1.52839
-0.362169 -0.66125 1.52909
-0.342777 -0.661041 1.52875
-0.363362 -0.66077 1.50875
-0.334972 -0.660625 1.5126
-0.432075 -0.660445 1.45389
-0.434793 -0.660235 1.44253
-0.318768 -0.660104 1.49015
-0.665101 -0.65997 1.30661
-0.730424 -0.659824 1.26364
-0.237875 -0.659689 1.49955
-0.540697 -0.659604 1.33752
-0.405889 -0.659505 1.39439
-0.214558 -0.659398 1.47956
-0.385916 -0.659345 1.38311
-0.266698 -0.659262 1.43211
-0.342346 -0.659233 1.38339
-0.359814 -0.659211 1.36373
-0.538156 -0.659192 1.26362
-0.357251 -0.659193 1.34302
-0.3803 -0.659203 1.3204
-0.609382 -0.659245 1.1946
-0.489768 -0.659278 1.24319
-0.208526 -0.659366 1.37229
-0.460742 -0.659421 1.23484
-0.347952 -0.659554 1.27948
-0.218707 -0.659631 1.33263
-0.368941 -0.659808 1.24551
-0.611395 -0.659907 1.1127
-0.257432 -0.660125 1.27743
-0.085588 -0.660371 1.35096
-0.354116 -0.660504 1.2049
-0.366358 -0.660996 1.18501
-0.213801 -0.66132 1.24844
-0.113654 -0.66149 1.28649
-0.184809 -0.662093 1.23649
-0.282723 -0.662746 1.17281
-0.226735 -0.663227 1.18702
-0.448184 -0.664246 1.05948
0.0220664 -0.665646 1.27562
-0.187883 -0.664375 1.81838
-0.310462 -0.662597 1.75403
-0.314313 -0.661175 1.74744
-0.114893 -0.659771 1.84245
-0.0572785 -0.658728 1.8649
-0.547019 -0.658033 1.61206
-0.373423 -0.657029 1.69239
-0.432319 -0.656363 1.65489
-0.27697 -0.655408 1.72592
-0.104655 -0.65478 1.80389
-0.56868 -0.654169 1.56363
-0.405946 -0.653817 1.63553
-0.501834 -0.653234 1.57924
-0.271333 -0.65267 1.68608
-0.54398 -0.652378 1.54003
-0.495337 -0.651847 1.55581
-0.403253 -0.651339 1.59321
-0.37003 -0.651036 1.60019
-0.571905 -0.650563 1.49047
-0.269609 -0.650317 1.63173
-0.44436 -0.649882 1.53541
-0.483038 -0.649615 1.5063
-0.58826 -0.649394 1.4437
-0.488505 -0.649013 1.48441
-0.249485 -0.648659 1.59462
-0.344237 -0.648473 1.5371
-0.435761 -0.648251 1.48139
-0.261531 -0.647955 1.55894
-0.509612 -0.647755 1.42486
-0.286141 -0.647604 1.5263
-0.468459 -0.647367 1.4253
-0.426992 -0.647195 1.43586
-0.255837 -0.647073 1.51101
-0.304025 -0.646898 1.47678
-0.570912 -0.646754 1.33303
-0.410623 -0.646617 1.40284
-0.635559 -0.646534 1.27977
-0.283498 -0.646411 1.4454
-0.352148 -0.646329 1.40046
-0.330287 -0.646228 1.40088
-0.396663 -0.646183 1.3569
-0.388674 -0.646145 1.35005
-0.323685 -0.646093 1.37179
-0.246293 -0.646078 1.39952
-0.483338 -0.646071 1.27
-0.064987 -0.64608 1.46809
-0.350766 -0.646096 1.31407
-0.399011 -0.64615 1.27861
-0.40742 -0.646188 1.26316
-0.324558 -0.646182 1.29358
-0.430201 -0.646295 1.2291
-0.344117 -0.646363 1.26073
-0.131826 -0.646518 1.35497
-0.441296 -0.646756 1.18786
-0.341847 -0.646859 1.22597
-0.338309 -0.647084 1.21542
-0.425569 -0.647336 1.15933
0.0245432 -0.647471 1.37256
-0.0701353 -0.647761 1.31253
-0.174388 -0.648297 1.2463
-0.297679 -0.648468 1.1726
0.0587839 -0.649074 1.33631
-0.252687 -0.649727 1.16576
-0.458331 -0.650206 1.04909
-0.455586 -0.651221 1.03353
0.074547 -0.652609 1.27947
-0.270318 -0.65099 1.76627
-0.415021 -0.649247 1.69089
-0.268789 -0.647853 1.75938
-0.333943 -0.646476 1.72213
-0.334754 -0.645453 1.71539
-0.738339 -0.644771 1.50565
-0.529727 -0.643785 1.60351
-0.232447 -0.643132 1.74412
-0.35469 -0.642493 1.67492
-0.438379 -0.64158 1.62636
-0.444996 -0.641223 1.61362
-0.105818 -0.640632 1.77496
0.0134806 -0.640325 1.82496
-0.382682 -0.639762 1.61853
-0.449099 -0.639219 1.57688
-0.356164 -0.638698 1.61482
-0.493901 -0.638388 1.53638
-0.517423 -0.6379 1.51595
-0.27775 -0.637646 1.62596
-0.502446 -0.637194 1.50479
-0.386482 -0.636767 1.55384
-0.356979 -0.636503 1.55885
-0.187995 -0.636286 1.63336
-0.601682 -0.635911 1.41736
-0.323702 -0.635672 1.5465
-0.254581 -0.635481 1.57097
-0.431046 -0.635161 1.47332
-0.336601 -0.634948 1.51058
-0.273752 -0.634785 1.5318
-0.159979 -0.634523 1.57899
-0.38514 -0.634337 1.45633
-0.339993 -0.634158 1.4688
-0.25141 -0.633999 1.50287
-0.25356 -0.633842 1.49159
-0.33253 -0.633684 1.44189
-0.314189 -0.633592 1.44051
-0.584837 -0.633465 1.29482
-0.32638 -0.633343 1.41367
-0.552206 -0.633227 1.29034
-0.237963 -0.633167 1.43675
-0.416886 -0.633113 1.33654
-0.236582 -0.63303 1.41611
-0.411845 -0.632999 1.31761
-0.488907 -0.632961 1.26826
-0.434231 -0.632953 1.2846
-0.406931 -0.632952 1.28722
-0.105584 -0.632959 1.42682
-0.239536 -0.632944 1.34889
-0.106566 -0.632973 1.40418
-0.261496 -0.633009 1.31548
-0.0135546 -0.633103 1.42788
-0.131145 -0.633161 1.35772
-0.226559 -0.633297 1.2982
-0.466334 -0.633376 1.16682
-0.229727 -0.633554 1.27307
-0.0689901 -0.633759 1.34122
-0.187823 -0.633871 1.27011
-0.4584 -0.634302 1.12129
-0.294369 -0.63444 1.19145
-0.325178 -0.634733 1.16329
-0.168694 -0.635273 1.22733
-0.3983 -0.635446 1.10044
-0.156473 -0.636052 1.20674
-0.199073 -0.636705 1.17052
-0.238232 -0.637399 1.13576
-0.0613157 -0.637903 1.21014
0.276406 -0.639566 1.35805
-0.24068 -0.637939 1.7686
-0.332695 -0.635897 1.72123
-0.102799 -0.63453 1.83157
-0.326629 -0.633507 1.71341
-0.153229 -0.632499 1.79382
-0.35648 -0.631509 1.68586
-0.745307 -0.630543 1.48502
-0.484228 -0.629902 1.60754
-0.436537 -0.629274 1.62332
-0.563054 -0.628662 1.55195
-0.210337 -0.628065 1.72014
-0.456397 -0.627717 1.58769
-0.473946 -0.627146 1.57065
-0.514479 -0.626594 1.54204
-0.516966 -0.626061 1.53238
-0.436919 -0.625745 1.56289
-0.290286 -0.625244 1.62765
-0.321664 -0.624943 1.60239
-0.266405 -0.624515 1.62112
-0.537209 -0.624072 1.47692
-0.135557 -0.623799 1.66806
-0.231701 -0.623572 1.61008
-0.353262 -0.623178 1.54027
-0.394698 -0.622929 1.50978
-0.413605 -0.622575 1.49112
-0.245339 -0.622386 1.56518
-0.432421 -0.622073 1.46223
-0.233232 -0.621862 1.55188
0.0193052 -0.621701 1.66795
-0.33026 -0.621444 1.48349
-0.29441 -0.62126 1.49135
-0.16793 -0.621127 1.54425
-0.456367 -0.620928 1.39007
-0.273811 -0.620771 1.47115
-0.392906 -0.620667 1.40112
-0.405355 -0.620524 1.38464
-0.348659 -0.620387 1.40269
-0.48279 -0.620277 1.3252
-0.30655 -0.62021 1.40265
-0.452653 -0.620102 1.31916
-0.290149 -0.62 1.38995
-0.453654 -0.619954 1.29742
-0.287818 -0.619885 1.36969
-0.266336 -0.619861 1.36953
-0.556869 -0.619845 1.21333
-0.099417 -0.619834 1.43108
-0.347504 -0.619789 1.29626
-0.458999 -0.619802 1.22941
-0.22732 -0.619822 1.3341
-0.0473673 -0.619883 1.41269
-0.277874 -0.619925 1.28617
-0.162702 -0.620029 1.33212
-0.243449 -0.620091 1.28035
-0.189422 -0.620236 1.29548
-0.0816548 -0.620319 1.33784
-0.250091 -0.620505 1.2415
-0.670855 -0.620716 1.01883
-0.462715 -0.620831 1.11117
-0.38738 -0.62108 1.13632
-0.142754 -0.621353 1.24596
-0.318461 -0.621706 1.14495
-0.365169 -0.622025 1.10863
-0.303834 -0.622423 1.12585
-0.297173 -0.622783 1.11594
-0.0255586 -0.62342 1.23683
-0.118051 -0.624371 1.17375
-0.285322 -0.625446 1.07249
-0.0416334 -0.626823 1.17485
-0.164921 -0.624873 1.794
-0.581307 -0.622874 1.58447
-0.291926 -0.621208 1.72623
0.0316726 -0.620205 1.88181
-0.165811 -0.619217 1.77681
-0.267489 -0.618247 1.71965
-0.258887 -0.617601 1.71601
-0.314345 -0.616672 1.68182
-0.167663 -0.616056 1.74711
-0.462993 -0.615456 1.59135
-0.210936 -0.615105 1.70801
-0.463033 -0.614528 1.57378
-0.407197 -0.613968 1.59345
-0.64573 -0.613426 1.46586
-0.261924 -0.612904 1.64935
-0.412945 -0.612592 1.56435
-0.319569 -0.612101 1.6025
-0.501151 -0.611844 1.50195
-0.432966 -0.611386 1.52736
-0.158573 -0.611105 1.65494
-0.405285 -0.610682 1.52275
-0.485154 -0.610459 1.47291
-0.449909 -0.610073 1.48152
-0.143388 -0.609826 1.62503
-0.459756 -0.609628 1.45684
-0.176886 -0.609293 1.58902
-0.550808 -0.609072 1.39219
-0.212274 -0.608899 1.55134
-0.304328 -0.608619 1.49578
-0.318409 -0.608423 1.47876
-0.179635 -0.608278 1.5379
-0.312063 -0.608053 1.46187
-0.226434 -0.607884 1.49458
-0.33569 -0.607703 1.42992
-0.519335 -0.6076 1.32763
-0.345804 -0.607458 1.40415
-0.466163 -0.607322 1.33369
-0.301129 -0.607241 1.40563
-0.543693 -0.607118 1.27401
-0.409305 -0.607002 1.33083
-0.468795 -0.606938 1.29042
-0.500976 -0.606888 1.26358
-0.189337 -0.606804 1.40886
-0.257619 -0.606773 1.36387
-0.537509 -0.606731 1.21313
-0.392133 -0.606722 1.27485
-0.508929 -0.606668 1.20574
-0.310869 -0.606672 1.29371
-0.441907 -0.606702 1.21699
-0.497452 -0.606728 1.17804
-0.340964 -0.60676 1.24506
-0.423363 -0.606846 1.19232
0.0787553 -0.6069 1.43204
-0.207833 -0.607027 1.27695
-0.180363 -0.607125 1.27907
-0.621629 -0.607211 1.04688
-0.105226 -0.607304 1.29349
-0.342176 -0.607508 1.16274
-0.197183 -0.607794 1.22247
-0.0779763 -0.608047 1.26948
-0.231101 -0.608323 1.18019
-0.3499 -0.60847 1.10883
-0.193058 -0.609 1.17295
-0.219829 -0.60934 1.1464
-0.195393 -0.609759 1.14496
-0.414662 -0.610393 1.02032
-0.2498 -0.611066 1.08749
0.0108567 -0.612344 1.19877
-0.392584 -0.611793 1.66771
-0.162473 -0.609518 1.78311
-0.125296 -0.608204 1.79716
-0.0390674 -0.606904 1.83571
-0.306474 -0.605936 1.69577
-0.381367 -0.604986 1.65203
-0.604257 -0.604353 1.53266
-0.368473 -0.60373 1.6426
-0.341422 -0.603083 1.64833
-0.23056 -0.602487 1.69572
-0.369824 -0.601905 1.61798
-0.393228 -0.60134 1.59812
-0.368414 -0.600791 1.60229
-0.174825 -0.60026 1.69078
-0.447437 -0.599943 1.54503
-0.200836 -0.59967 1.65867
-0.103919 -0.599178 1.69866
-0.147685 -0.598707 1.66821
-0.464032 -0.598418 1.50049
-0.36723 -0.597981 1.54018
-0.365795 -0.59775 1.53106
-0.427932 -0.597347 1.49111
-0.277404 -0.597091 1.55669
-0.409896 -0.596884 1.48051
-0.331054 -0.59653 1.51081
-0.18723 -0.596298 1.57294
-0.645779 -0.595983 1.33436
-0.352901 -0.595814 1.47069
-0.449817 -0.595607 1.41233
-0.30149 -0.595345 1.47692
-0.282442 -0.595202 1.4762
-0.42175 -0.595021 1.39652
-0.370701 -0.594814 1.41218
-0.266075 -0.594699 1.4541
-0.208978 -0.594544 1.4725
-0.233586 -0.594394 1.45002
-0.349673 -0.5943 1.38148
-0.303857 -0.594164 1.39414
-0.114397 -0.594057 1.47846
-0.275753 -0.593942 1.38743
-0.452831 -0.593882 1.28821
-0.529233 -0.593779 1.23958
-0.395666 -0.593734 1.29561
-0.44057 -0.593663 1.26255
-0.321514 -0.593638 1.31119
-0.399257 -0.593621 1.2614
-0.327632 -0.593559 1.28656
-0.306566 -0.593555 1.28609
-0.498532 -0.593569 1.179
-0.167771 -0.593586 1.33326
-0.124367 -0.593641 1.3436
-0.182672 -0.593679 1.30319
-0.39213 -0.593669 1.1875
-0.241395 -0.593778 1.25118
-0.113267 -0.593842 1.30382
-0.201066 -0.59399 1.24798
-0.219998 -0.594073 1.22697
-0.061517 -0.594258 1.29403
-0.33985 -0.594468 1.14253
-0.0224979 -0.594582 1.28945
-0.370175 -0.594828 1.10304
-0.241896 -0.595095 1.15446
-0.0931123 -0.595443 1.21561
0.00903271 -0.595754 1.25367
-0.180478 -0.596316 1.1443
-0.230976 -0.596674 1.10571
-0.25439 -0.597111 1.08015
-0.209954 -0.598033 1.0854
-0.0858057 -0.599014 1.1301
-0.419676 -0.598699 1.64172
-0.399891 -0.596475 1.65198
-0.166052 -0.594876 1.76605
-0.145623 -0.59391 1.7701
-0.254827 -0.592957 1.70931
-0.207516 -0.592021 1.72672
-0.493497 -0.591105 1.57741
-0.128161 -0.590496 1.75214
-0.149404 -0.589899 1.73354
-0.252639 -0.589548 1.67263
-0.380497 -0.588707 1.60209
-0.547837 -0.588153 1.51027
-0.585177 -0.587615 1.48338
-0.421294 -0.587333 1.55572
-0.197201 -0.587016 1.65837
-0.149293 -0.586514 1.67396
-0.758198 -0.586033 1.36105
-0.342585 -0.585571 1.56031
-0.0989077 -0.585287 1.67262
-0.34187 -0.585049 1.54137
-0.269545 -0.584632 1.56878
-0.161488 -0.584368 1.6132
-0.629181 -0.583985 1.37043
-0.307121 -0.583781 1.52153
-0.641463 -0.583435 1.34526
-0.599551 -0.583206 1.35645
-0.22632 -0.583026 1.53303
-0.419013 -0.582731 1.42732
-0.364201 -0.582526 1.44485
-0.52384 -0.582372 1.35486
-0.638011 -0.582129 1.28814
-0.42514 -0.58195 1.38457
-0.257802 -0.581822 1.45794
-0.387022 -0.581655 1.38327
-0.139813 -0.58148 1.49686
-0.324711 -0.58138 1.39397
-0.322801 -0.581237 1.38473
-0.553354 -0.581104 1.25921
-0.265314 -0.580975 1.39297
-0.31809 -0.580902 1.35599
-0.388 -0.580786 1.31071
-0.324633 -0.580723 1.33174
-0.216771 -0.580627 1.37523
-0.199673 -0.580589 1.37299
-0.364865 -0.580557 1.27957
-0.292013 -0.580513 1.30524
-0.345666 -0.58045 1.26778
-0.239128 -0.580446 1.31005
-0.219931 -0.580448 1.30862
-0.459687 -0.580473 1.17757
-0.320226 -0.580442 1.23647
-0.40506 -0.580471 1.18285
-0.251367 -0.580507 1.24845
-0.294737 -0.580598 1.21518
-0.349846 -0.580654 1.17625
-0.415887 -0.580784 1.13139
-0.275942 -0.580883 1.18971
-0.255785 -0.580969 1.18821
-0.0523378 -0.581062 1.27832
-0.12547 -0.581265 1.22942
-0.142685 -0.581491 1.20833
-0.130497 -0.581612 1.20261
0.00253495 -0.582068 1.25515
-0.166304 -0.582211 1.15876
-0.36049 -0.582512 1.04866
0.028122 -0.583059 1.22836
-0.0962658 -0.583648 1.15126
-0.0850106 -0.584082 1.14297
-0.227508 -0.584732 1.05638
-0.121546 -0.585689 1.09197
-0.390408 -0.585892 1.6423
-0.287094 -0.58342 1.69597
-0.199703 -0.581853 1.73686
-0.251012 -0.580604 1.70672
-0.288444 -0.579671 1.68184
-0.115545 -0.578755 1.76207
-0.220338 -0.578143 1.70181
-0.518081 -0.57754 1.54505
-0.421755 -0.576911 1.58549
-0.345433 -0.576332 1.61567
-0.367492 -0.575767 1.59661
-0.269378 -0.575217 1.63758
-0.511217 -0.574682 1.5085
-0.256476 -0.574164 1.62764
-0.273171 -0.573852 1.60992
-0.420783 -0.573361 1.52776
-0.518853 -0.572889 1.47029
-0.341078 -0.572599 1.54971
-0.41138 -0.572355 1.50485
-0.632336 -0.571924 1.38574
-0.41273 -0.571515 1.4868
-0.31926 -0.571256 1.52395
-0.238716 -0.571044 1.55436
-0.615732 -0.570681 1.35689
-0.239856 -0.570443 1.53514
-0.15947 -0.570254 1.56537
-0.156812 -0.56994 1.55748
-0.343094 -0.569725 1.45455
-0.43013 -0.569561 1.40094
-0.417967 -0.569297 1.39754
-0.30793 -0.569106 1.44264
-0.320171 -0.568968 1.42631
-0.122082 -0.568756 1.51558
-0.429829 -0.568591 1.35166
-0.496608 -0.568478 1.30791
-0.519232 -0.568325 1.28649
-0.369547 -0.568178 1.35119
-0.283004 -0.568048 1.38423
-0.091064 -0.56795 1.46977
-0.463075 -0.567847 1.27337
-0.501819 -0.567732 1.24368
-0.221631 -0.567673 1.37312
-0.409246 -0.56757 1.26893
-0.363389 -0.567525 1.28112
-0.432382 -0.567454 1.23605
-0.517378 -0.567377 1.18302
-0.121578 -0.567358 1.37002
-0.566358 -0.567346 1.13669
-0.321633 -0.56734 1.24807
-0.364199 -0.567297 1.21605
-0.205814 -0.567311 1.28414
-0.460808 -0.567332 1.14549
-0.438977 -0.567393 1.145
-0.377682 -0.567434 1.16437
-0.152138 -0.567426 1.26617
-0.2332 -0.567538 1.2139
-0.276752 -0.567604 1.18068
-0.376991 -0.567753 1.11857
-0.134327 -0.567837 1.22833
-0.412293 -0.568021 1.07711
-0.383763 -0.568229 1.07898
-0.0936473 -0.568342 1.21227
-0.397708 -0.568583 1.04761
0.121199 -0.568845 1.29429
-0.11332 -0.569127 1.16411
0.00500169 -0.569275 1.21124
-0.134316 -0.569808 1.12697
-0.0397176 -0.570381 1.15936
-0.340944 -0.570804 0.994833
-0.0235199 -0.571437 1.1382
-0.242052 -0.572369 1.01154
-0.192101 -0.573631 1.72423
-0.255079 -0.570351 1.69959
-0.416096 -0.568818 1.61631
-0.0127388 -0.567593 1.81355
-0.455369 -0.566677 1.58611
-0.142605 -0.565775 1.73632
-0.265928 -0.564891 1.66842
-0.108059 -0.564302 1.73948
-0.151013 -0.563724 1.71009
-0.354677 -0.563119 1.60052
-0.327326 -0.562566 1.60618
-0.447515 -0.562027 1.53801
-0.206989 -0.561504 1.65014
-0.550858 -0.561189 1.46888
-0.118927 -0.56069 1.67659
-0.198487 -0.56021 1.62848
-0.332853 -0.559956 1.55165
-0.371489 -0.559666 1.52292
-0.309736 -0.559224 1.54528
-0.287338 -0.558802 1.54787
-0.590662 -0.558578 1.38643
-0.0586377 -0.558317 1.64291
-0.24989 -0.557938 1.53845
-0.630309 -0.557693 1.33863
-0.720036 -0.557496 1.28387
-0.254058 -0.557164 1.50779
-0.554961 -0.55694 1.34763
-0.317836 -0.556766 1.45618
-0.148738 -0.556483 1.53139
-0.352671 -0.556282 1.4196
-0.31197 -0.556133 1.42981
-0.594033 -0.5559 1.27917
-0.433658 -0.555724 1.3494
-0.377559 -0.5556 1.36717
-0.477624 -0.555436 1.30713
-0.352955 -0.555268 1.35947
-0.23301 -0.55517 1.40902
-0.353386 -0.555025 1.33872
-0.0556593 -0.554897 1.47736
-0.392884 -0.55477 1.29853
-0.240241 -0.554698 1.36428
-0.415941 -0.554582 1.26614
-0.0965306 -0.554522 1.41522
-0.498935 -0.554426 1.20361
-0.304025 -0.554387 1.2903
-0.247935 -0.554303 1.30787
-0.418968 -0.554277 1.21151
-0.567796 -0.554245 1.12629
-0.230862 -0.554186 1.28413
-0.197765 -0.554186 1.28967
-0.21987 -0.554193 1.26756
-0.218613 -0.554206 1.25709
-0.35403 -0.554198 1.17843
-0.502429 -0.55423 1.093
-0.0733515 -0.554268 1.29628
-0.177031 -0.554364 1.23279
-0.250376 -0.554421 1.18473
-0.393358 -0.554428 1.10217
-0.362404 -0.554572 1.10567
-0.41947 -0.554739 1.065
-0.627096 -0.554831 0.949544
-0.260645 -0.555032 1.12039
-0.116262 -0.55514 1.18082
-0.226724 -0.555373 1.11297
-0.322344 -0.555627 1.0524
-0.0924126 -0.5559 1.15446
-0.313159 -0.556252 1.03063
-0.32938 -0.556562 1.00934
-0.151475 -0.55712 1.08339
0.0785387 -0.557713 1.18322
-0.219525 -0.558339 1.01877
-0.172228 -0.559056 1.02634
-0.260536 -0.557269 1.68449
-0.27795 -0.555771 1.67304
-0.25473 -0.554571 1.68025
-0.232693 -0.553387 1.68683
-0.272734 -0.552505 1.66067
-0.0535137 -0.551915 1.76247
-0.331508 -0.551294 1.61587
-0.18691 -0.550723 1.6803
-0.339404 -0.550163 1.59615
-0.189418 -0.549615 1.66318
-0.383922 -0.549081 1.55791
-0.454737 -0.548562 1.51442
-0.30178 -0.548248 1.58161
-0.426721 -0.547752 1.51095
-0.44701 -0.547273 1.49254
-0.650362 -0.546978 1.38151
-0.232473 -0.546527 1.58205
-0.548981 -0.546094 1.4153
-0.476883 -0.545864 1.44164
-0.769288 -0.545597 1.28597
-0.361629 -0.545205 1.4811
-0.475947 -0.544835 1.41512
-0.522949 -0.544637 1.38176
-0.396618 -0.544401 1.43531
-0.27416 -0.544076 1.48748
-0.283291 -0.5439 1.47294
-0.477086 -0.543685 1.36632
-0.159366 -0.543476 1.51544
-0.514543 -0.543317 1.32779
-0.296523 -0.543064 1.42734
-0.196537 -0.542878 1.46747
-0.400223 -0.542743 1.35544
-0.418975 -0.542541 1.33631
-0.511932 -0.542378 1.27983
-0.0990588 -0.542269 1.47594
-0.687342 -0.542118 1.17173
-0.497552 -0.541973 1.25654
-0.32867 -0.541883 1.33054
-0.313243 -0.54175 1.32809
-0.261372 -0.541651 1.34365
-0.399686 -0.541537 1.26422
-0.389387 -0.541478 1.25874
-0.367828 -0.541376 1.25918
-0.305327 -0.54128 1.28005
-0.208841 -0.54124 1.31754
-0.156236 -0.541208 1.33305
