ply
format ascii 1.0
comment Created by Open3D
element vertex 1749
property double x
property double y
property double z
end_header
0.427347 0.141176 1.87278
0.324661 0.140855 1.817
0.314247 0.140636 1.805
0.3491 0.140376 1.81662
0.333018 0.140158 1.80182
0.316334 0.13994 1.78675
0.320051 0.139685 1.78284
0.28713 0.139469 1.75968
0.19599 0.139254 1.70742
0.273569 0.139099 1.73811
0.299355 0.138886 1.74435
0.246625 0.138673 1.71134
0.181501 0.13852 1.67071
0.232695 0.13831 1.68968
0.0879659 0.138159 1.60926
0.197425 0.13795 1.65738
0.248027 0.137801 1.67464
0.148663 0.137595 1.61836
0.175273 0.13748 1.62282
0.0763298 0.137275 1.56677
0.131411 0.137129 1.58629
0.180392 0.136984 1.60276
0.112029 0.136783 1.56201
0.112918 0.136669 1.55369
0.129767 0.136527 1.5541
0.0436679 0.136329 1.50449
0.12259 0.136188 1.53593
0.150902 0.136076 1.54139
0.0750253 0.135937 1.49544
0.0710057 0.135795 1.48554
0.142833 0.135632 1.51412
0.150406 0.135496 1.50989
0.134101 0.135384 1.49311
0.0532524 0.13525 1.44467
0.0213321 0.135117 1.42069
0.0984398 0.135007 1.45065
0.0614366 0.134841 1.42504
-0.0123433 0.13471 1.38014
0.099104 0.134581 1.42784
0.0561831 0.134471 1.39783
0.0559179 0.134344 1.38967
0.0452721 0.134217 1.37631
-0.0300607 0.134109 1.33013
0.108724 0.133984 1.39148
-0.011844 0.133876 1.32271
0.0844273 0.133753 1.36279
0.0662221 0.133646 1.34522
0.0364606 0.133525 1.32227
0.0330922 0.133418 1.31215
0.020866 0.133299 1.29796
-0.00127948 0.133192 1.27847
-0.0154738 0.133075 1.26328
0.0432389 0.132969 1.28424
-0.0140939 0.132864 1.24718
-0.0187125 0.132749 1.23678
-0.000516886 0.132644 1.23751
-0.0292275 0.132531 1.21504
-0.010462 0.132426 1.21608
-0.0460431 0.132315 1.19016
-0.0773463 0.132212 1.16617
0.0338086 0.132108 1.21343
-0.0291922 0.132005 1.17362
0.0511306 0.131902 1.20548
-4.69294e-05 0.1318 1.1716
0.0732196 0.131739 1.19876
-0.0819692 0.131633 1.11299
-0.0577546 0.131532 1.11682
-0.0262828 0.131431 1.1243
-0.0798803 0.131328 1.0893
0.00852296 0.131227 1.12526
0.0149757 0.131127 1.12025
-0.0472902 0.131027 1.08089
-0.0412112 0.130927 1.07571
-0.0899657 0.130877 1.04164
-0.0943584 0.130778 1.03124
-0.0724008 0.130679 1.03402
-0.00188028 0.13058 1.06109
-0.0772595 0.130483 1.01518
-0.0753773 0.130385 1.00795
-0.0766913 0.130287 0.999124
-0.118608 0.130239 0.968522
-0.0335711 0.130144 1.0028
-0.0916521 0.130047 0.965611
-0.0422485 0.129955 0.982035
-0.172601 0.129859 0.908726
-0.0616784 0.129763 0.956061
-0.119969 0.129715 0.917315
-0.0523825 0.129626 0.942806
-0.145122 0.129531 0.888329
-0.0872824 0.129443 0.90891
-0.127968 0.129396 0.878991
-0.165111 0.129302 0.852329
-0.117509 0.129208 0.868047
-0.0807278 0.129123 0.878069
-0.155956 0.12903 0.832381
-0.113398 0.128937 0.845592
-0.0635724 0.128901 0.860626
-0.167089 0.128809 0.800808
-0.173319 0.128717 0.789641
-0.200942 0.128625 0.767783
-0.130904 0.128592 0.792889
-0.180869 0.1285 0.759868
-0.0622194 0.128409 0.81116
-0.0798753 0.128333 0.793852
-0.126179 0.128287 0.761206
-0.130313 0.128197 0.751119
-0.139818 0.128108 0.738352
-0.0689429 0.128034 0.765269
-0.117064 0.127989 0.731735
-0.114067 0.1279 0.725231
-0.169114 0.127812 0.689709
-0.202503 0.127741 0.66445
-0.175704 0.127697 0.668398
-0.17311 0.127609 0.661706
-0.146209 0.127522 0.667173
-0.131515 0.127435 0.666541
-0.118701 0.12741 0.662884
-0.108355 0.127324 0.660082
-0.130954 0.127238 0.640812
-0.161253 0.127152 0.617696
-0.140913 0.127109 0.618455
-0.0247119 0.127044 0.667895
-0.125558 0.126959 0.609513
-0.138004 0.126875 0.595335
-0.245435 0.126833 0.532225
-0.220713 0.126771 0.535873
-0.148034 0.126687 0.564263
-0.175917 0.126604 0.542376
-0.168376 0.126562 0.536768
-0.204337 0.126479 0.510849
-0.0934677 0.126421 0.557512
-0.108388 0.12638 0.540684
-0.189523 0.126298 0.492183
-0.0533508 0.126216 0.552337
-0.191069 0.126135 0.475549
-0.101094 0.126094 0.511187
-0.213842 0.126039 0.445979
-0.218982 0.125959 0.435482
-0.1631 0.125919 0.454083
-0.175507 0.125839 0.439959
-0.241192 0.12576 0.399198
-0.264444 0.125681 0.379656
-0.118081 0.125641 0.443513
-0.225857 0.12559 0.380719
-0.181669 0.125512 0.394897
-0.202207 0.125473 0.375311
-0.222318 0.125395 0.357345
-0.180293 0.125318 0.370447
-0.112257 0.125279 0.395159
-0.160932 0.125202 0.362917
-0.213586 0.125126 0.328686
-0.124263 0.125117 0.362967
-0.243323 0.125041 0.29553
-0.170719 0.124966 0.323925
-0.171497 0.124928 0.314247
-0.228222 0.124853 0.277982
-0.18055 0.124778 0.293915
-0.176212 0.124741 0.286805
-0.14126 0.124667 0.296381
-0.182857 0.124593 0.267683
-0.156358 0.12452 0.273033
-0.152406 0.124515 0.26455
-0.0889418 0.124442 0.288378
-0.168006 0.124406 0.239579
-0.199319 0.124333 0.21602
-0.115293 0.124261 0.25013
-0.137573 0.12419 0.231086
-0.181418 0.124154 0.199908
-0.20573 0.124083 0.17985
-0.218608 0.124012 0.165507
-0.298686 0.123977 0.11622
-0.18544 0.123907 0.16494
-0.213391 0.123872 0.141721
-0.199065 0.123802 0.140981
-0.163103 0.123732 0.151058
-0.171336 0.123698 0.137705
-0.173206 0.123629 0.128866
-0.152287 0.123561 0.131419
-0.140848 0.123527 0.127908
-0.179596 0.123459 0.100628
-0.168716 0.123425 0.0968411
-0.104469 0.123392 0.119696
-0.232805 0.123325 0.0476111
-0.182451 0.123259 0.0648682
-0.189231 0.123226 0.0522532
-0.159484 0.123159 0.0592052
-0.242995 0.123094 0.00952535
-0.177449 0.123061 0.0330783
-0.178187 0.122996 0.0247829
-0.132194 0.122964 0.0385621
-0.128566 0.122899 0.0324474
0.519664 0.157559 1.95587
0.490597 0.157046 1.93989
0.42383 0.156466 1.90656
0.431833 0.156222 1.90359
0.403491 0.155821 1.88581
0.366302 0.155467 1.86268
0.330174 0.155225 1.83774
0.379122 0.154939 1.85632
0.295753 0.154588 1.81016
0.273155 0.154349 1.79205
0.271684 0.154175 1.7831
0.274512 0.153937 1.77775
0.226786 0.153699 1.74713
0.31104 0.153422 1.78342
0.159548 0.153187 1.70094
0.264958 0.153017 1.74549
0.228339 0.152784 1.72048
0.177881 0.152552 1.68855
0.241829 0.152386 1.7124
0.235187 0.152156 1.7024
0.191326 0.152028 1.67154
0.284591 0.151765 1.71231
0.210446 0.151637 1.66635
0.186816 0.151475 1.64644
0.153675 0.151251 1.62323
0.197065 0.151091 1.63683
0.152834 0.15087 1.60807
0.146479 0.150744 1.59609
0.144842 0.150587 1.58719
0.217193 0.150399 1.61604
0.154393 0.150244 1.57657
0.137375 0.15009 1.55999
0.123482 0.149937 1.54497
0.0330032 0.149751 1.49247
0.0396162 0.1496 1.4877
0.0201495 0.149451 1.46989
0.13639 0.149327 1.51934
0.0521884 0.14918 1.46916
0.0590508 0.14902 1.46482
0.0335553 0.14885 1.44459
0.0293114 0.148706 1.43438
0.124312 0.148584 1.47327
0.126838 0.148441 1.46644
0.0650427 0.14832 1.42696
0.0597194 0.14818 1.41621
0.0685385 0.148059 1.41206
0.116428 0.147898 1.42846
0.00233611 0.147759 1.36336
0.0115755 0.147621 1.35991
0.049719 0.147485 1.37089
0.0164292 0.147366 1.34575
0.0522828 0.147231 1.35558
0.0372469 0.147113 1.33958
-0.0211583 0.146981 1.30227
-0.0230792 0.146863 1.29286
-0.0128977 0.146733 1.28983
0.0565384 0.146616 1.31612
0.0112827 0.146488 1.28536
-0.0207728 0.146371 1.26092
0.02106 0.146255 1.27343
0.0472154 0.146129 1.27837
-0.00490444 0.146014 1.24393
0.0230704 0.145899 1.24955
-0.000719137 0.145826 1.22821
-0.0705134 0.145661 1.18626
-0.0676525 0.145591 1.17819
0.0270463 0.145473 1.21732
0.00192236 0.14536 1.19643
0.0543043 0.145244 1.21437
-0.0225205 0.145131 1.16765
-0.0583838 0.145018 1.14141
-0.0693658 0.144906 1.12763
-0.104583 0.144794 1.10174
-0.0837642 0.144683 1.10388
-0.122565 0.144572 1.07621
0.0191856 0.144515 1.13737
-0.0401725 0.144405 1.09944
-0.0475594 0.144294 1.0875
-0.0769046 0.144185 1.06458
-0.0978234 0.144075 1.04589
-0.0823439 0.143968 1.04535
-0.135328 0.14386 1.01064
-0.126456 0.143751 1.00688
-0.0509792 0.143701 1.03483
-0.0861791 0.143593 1.00904
-0.0118672 0.143485 1.03801
-0.108323 0.143383 0.981449
-0.0251837 0.143276 1.01485
-0.102351 0.143223 0.966623
-0.104454 0.143124 0.957211
-0.179124 0.143018 0.911727
-0.137104 0.142912 0.924596
-0.0952934 0.142816 0.937109
-0.106011 0.142711 0.92362
-0.0875125 0.142658 0.923266
0.0191763 0.142564 0.968189
-0.123726 0.14246 0.888624
-0.0867509 0.142357 0.899005
-0.0425642 0.142266 0.912641
-0.0695894 0.142214 0.889557
-0.142087 0.142111 0.845218
-0.146228 0.142023 0.834655
-0.0831943 0.141921 0.85809
-0.103498 0.141819 0.839863
-0.183353 0.141768 0.790395
-0.14599 0.141683 0.800549
-0.0600708 0.141582 0.835447
-0.110837 0.141482 0.802009
-0.0390549 0.141449 0.827865
-0.078555 0.14135 0.800067
-0.122555 0.14125 0.770025
-0.175806 0.141151 0.735363
-0.128237 0.141072 0.750538
-0.124157 0.141023 0.743085
-0.0516828 0.140924 0.771298
-0.137403 0.140848 0.719785
-0.115829 0.14075 0.722551
-0.135123 0.140702 0.703433
-0.181399 0.140605 0.672285
-0.162168 0.140531 0.673203
-0.12443 0.140435 0.684067
-0.100466 0.140387 0.686596
-0.122476 0.140292 0.667596
-0.181098 0.140197 0.630294
-0.138672 0.140127 0.642759
-0.181442 0.14008 0.611939
-0.18168 0.139985 0.603837
-0.14949 0.139892 0.611953
-0.151176 0.139825 0.602311
-0.140898 0.139778 0.598033
-0.0398668 0.139685 0.640576
-0.0932309 0.139593 0.605925
-0.0877359 0.139501 0.600707
-0.0725772 0.139483 0.597998
-0.17341 0.139392 0.539618
-0.141166 0.139301 0.54778
-0.159025 0.139255 0.529463
-0.098184 0.139165 0.551931
-0.160868 0.139105 0.511676
-0.139637 0.139015 0.514338
-0.128628 0.138971 0.51047
-0.183882 0.138881 0.474897
-0.119794 0.138793 0.498997
-0.14615 0.138704 0.477877
-0.101024 0.138692 0.490045
-0.225206 0.138605 0.420012
-0.0856938 0.138517 0.481828
-0.13689 0.138474 0.446883
-0.158781 0.138387 0.428004
-0.142077 0.1383 0.428423
-0.151215 0.138257 0.414519
-0.157046 0.138205 0.402552
-0.180532 0.13812 0.382876
-0.182826 0.138035 0.373798
-0.161663 0.137993 0.375055
-0.231423 0.137908 0.332249
-0.201452 0.137824 0.339308
-0.199557 0.137782 0.330943
-0.160116 0.137735 0.34153
-0.126539 0.137652 0.350391
-0.152419 0.13761 0.328144
-0.109664 0.137528 0.341597
-0.187461 0.137445 0.294774
-0.159521 0.137404 0.299447
-0.253017 0.137323 0.244778
-0.176339 0.137242 0.275197
-0.0648212 0.137161 0.323035
-0.152567 0.13712 0.269876
-0.253395 0.137079 0.210225
-0.171506 0.136999 0.243244
-0.157134 0.136959 0.241148
-0.168813 0.13688 0.227384
-0.167195 0.136801 0.220269
-0.132009 0.136762 0.228588
-0.291338 0.136684 0.141
-0.17242 0.136606 0.192535
-0.257435 0.136567 0.140762
-0.109573 0.13649 0.20677
-0.116037 0.136413 0.195613
-0.1462 0.136375 0.171273
-0.105714 0.136298 0.183592
-0.150749 0.136222 0.153149
-0.157796 0.136185 0.140373
-0.222468 0.136109 0.100112
-0.161005 0.136072 0.121595
-0.190978 0.136039 0.0972081
-0.150681 0.135964 0.109421
-0.240706 0.135891 0.0564701
-0.108361 0.135854 0.113397
-0.133774 0.13578 0.0927516
-0.189626 0.135708 0.0568834
-0.177397 0.135671 0.0537575
-0.134642 0.135599 0.0671917
-0.230326 0.135563 0.0101123
-0.216655 0.135491 0.00900276
-0.152107 0.13542 0.0333285
-0.189075 0.135385 0.00561156
-0.182379 0.135314 0.00100894
0.528826 0.172813 1.97947
0.456174 0.171903 1.9482
0.420948 0.171514 1.9258
0.389401 0.171076 1.90625
0.436539 0.170566 1.92748
0.382475 0.170299 1.89346
0.389474 0.169913 1.89235
0.351707 0.1696 1.86747
0.240109 0.169217 1.80711
0.332008 0.168954 1.84617
0.302562 0.168646 1.82549
0.31542 0.168385 1.82507
0.331008 0.168197 1.82462
0.225847 0.167938 1.76522
0.219041 0.167681 1.75502
0.248027 0.167424 1.76272
0.320566 0.16724 1.79079
0.168094 0.166985 1.70779
0.198821 0.166732 1.7164
0.203724 0.166551 1.71068
0.18926 0.1663 1.69671
0.151758 0.166121 1.66979
0.295788 0.165873 1.73508
0.276219 0.165696 1.71713
0.188167 0.165451 1.66639
0.144569 0.165312 1.6357
0.161856 0.165138 1.6362
0.111503 0.164897 1.60433
0.103792 0.164726 1.59232
0.227792 0.164552 1.64626
0.130201 0.16435 1.59002
0.225702 0.164182 1.62963
0.217568 0.164045 1.61679
0.118195 0.16384 1.5598
0.11973 0.163646 1.55306
0.129313 0.163511 1.54912
0.110136 0.163348 1.5314
0.144668 0.163172 1.54084
0.122973 0.162985 1.52244
0.122506 0.162826 1.51407
0.037634 0.162668 1.46348
0.0658458 0.162535 1.46894
0.138814 0.162379 1.49727
0.0334643 0.162246 1.43597
0.130894 0.162069 1.47707
0.0607386 0.161914 1.43387
0.0293451 0.161762 1.41005
0.117726 0.161611 1.44609
-0.0246932 0.161462 1.36672
-0.0296064 0.161315 1.35608
-0.0160462 0.161184 1.35432
0.0157334 0.161039 1.36202
0.0491744 0.160909 1.37023
-0.0318217 0.160766 1.32153
0.048452 0.160637 1.35317
0.00130325 0.160497 1.32139
-0.0222638 0.160368 1.30113
-0.0164517 0.16023 1.29582
0.0322553 0.160102 1.31172
-0.0598409 0.159966 1.25743
-0.00961114 0.159839 1.27412
-0.0391751 0.159705 1.25108
-0.0127805 0.159578 1.25587
0.034603 0.159452 1.27116
0.0408763 0.159321 1.26603
0.0599314 0.159196 1.26718
-0.0273126 0.159071 1.21519
0.0135022 0.158946 1.22724
-0.0111357 0.158822 1.20657
-0.101382 0.158695 1.15318
-0.0569064 0.158571 1.16709
-0.027716 0.158507 1.17193
0.0485202 0.158384 1.20173
-0.00223745 0.158262 1.16804
-0.0538482 0.15814 1.13394
0.0160531 0.158018 1.1606
-0.0431533 0.157898 1.12267
-0.0246786 0.157777 1.12363
-0.0380916 0.157656 1.10866
-0.0850915 0.157539 1.07682
0.0289055 0.157479 1.12408
-0.054447 0.157359 1.07417
-0.107409 0.157245 1.03932
0.00567157 0.157126 1.08763
-0.107294 0.157014 1.02276
-0.0817351 0.156896 1.02732
-0.12132 0.156778 0.999322
-0.104738 0.156728 0.997713
-0.12804 0.15661 0.977868
-0.0976909 0.156493 0.984857
-0.102662 0.156387 0.973922
-0.0838598 0.156271 0.97515
-0.0496002 0.156213 0.982635
-0.0884619 0.15611 0.954726
-0.0707857 0.155995 0.955409
-0.102717 0.15588 0.931296
-0.149344 0.15578 0.899472
-0.0465683 0.155666 0.942722
-0.0700518 0.155609 0.921375
-0.00857389 0.155512 0.943571
-0.0795313 0.155399 0.899971
-0.0999978 0.155287 0.881624
-0.0170069 0.155192 0.914539
-0.126592 0.155081 0.851641
-0.123152 0.155025 0.843792
-0.108267 0.154934 0.842618
0.0272804 0.154823 0.902301
-0.0966677 0.154713 0.832243
-0.158747 0.154658 0.791658
-0.0930958 0.15457 0.815829
-0.147898 0.15446 0.780357
-0.110186 0.154351 0.791148
-0.125959 0.154266 0.774564
-0.109222 0.154212 0.773413
-0.114587 0.154104 0.762678
-0.153806 0.154022 0.734329
-0.0907808 0.153915 0.757794
-0.0876883 0.153862 0.749841
-0.101406 0.153756 0.734946
-0.0765258 0.153677 0.738602
-0.123815 0.153571 0.706925
-0.122373 0.153466 0.699619
-0.0846788 0.153414 0.708993
-0.0315189 0.153338 0.726742
-0.182966 0.153234 0.643
-0.121586 0.15313 0.665676
-0.0795054 0.153079 0.677262
-0.114831 0.153007 0.650719
-0.15827 0.152904 0.620993
-0.220566 0.152802 0.581843
-0.103267 0.152751 0.631055
-0.0245385 0.152682 0.661487
-0.0854907 0.152581 0.623015
-0.163475 0.152531 0.574597
-0.120273 0.15243 0.588211
-0.18908 0.15233 0.545824
-0.0668629 0.152265 0.597942
-0.0804138 0.152216 0.581756
-0.112418 0.152116 0.557775
-0.183764 0.152018 0.514126
-0.123547 0.151919 0.536261
-0.0991721 0.151907 0.537978
-0.224501 0.15181 0.467341
-0.182077 0.151713 0.480583
-0.173695 0.151616 0.476806
-0.180545 0.151567 0.464003
-0.190729 0.151471 0.450951
-0.100749 0.151415 0.486824
-0.163941 0.151367 0.445857
-0.084675 0.151272 0.477531
-0.152001 0.151177 0.435911
-0.178833 0.151083 0.414539
-0.189153 0.151036 0.400026
-0.11149 0.150983 0.429669
-0.181831 0.15089 0.386543
-0.120303 0.150844 0.40796
-0.180328 0.150751 0.369997
-0.164599 0.150659 0.369912
-0.143296 0.150567 0.372615
-0.192917 0.150522 0.338472
-0.17097 0.150474 0.340177
-0.0725881 0.150383 0.381417
-0.133092 0.150338 0.341838
-0.113639 0.150248 0.343618
-0.17425 0.150158 0.305366
-0.112425 0.150114 0.326962
-0.217555 0.150025 0.266453
-0.230035 0.149936 0.252271
-0.155467 0.149892 0.280247
-0.0831243 0.14985 0.307053
-0.171403 0.149763 0.254965
-0.185405 0.149675 0.240016
-0.166853 0.149632 0.239992
-0.0572154 0.149546 0.286864
-0.166282 0.14946 0.224384
-0.129863 0.149417 0.233302
-0.138672 0.149331 0.220952
-0.187469 0.149247 0.188608
-0.0423055 0.149204 0.251905
-0.179198 0.14912 0.175514
-0.135183 0.149036 0.189576
-0.166133 0.149043 0.163273
-0.193572 0.14896 0.141601
-0.188257 0.148877 0.136304
-0.185804 0.148836 0.128254
-0.152438 0.148754 0.136983
-0.131745 0.148672 0.139373
-0.152937 0.148631 0.119507
-0.143277 0.14855 0.116381
-0.151545 0.14847 0.104288
-0.123883 0.148429 0.108855
-0.201719 0.148349 0.0619772
-0.157702 0.14827 0.0760236
-0.210275 0.14823 0.0404785
-0.204435 0.148151 0.0354351
-0.14809 0.148073 0.0556412
-0.140754 0.148034 0.0500552
-0.236557 0.147956 -0.00581456
-0.148265 0.147879 0.0303601
-0.18421 0.14784 0.00313753
-0.175731 0.147763 -0.000596577
0.495005 0.187304 1.98561
0.395124 0.186517 1.93711
0.409541 0.185963 1.94179
0.509638 0.185541 1.98704
0.384932 0.18512 1.91994
0.345378 0.184779 1.89405
0.392922 0.184361 1.91313
0.406136 0.184073 1.91275
0.31816 0.183737 1.86271
0.33939 0.183324 1.86869
0.261844 0.18304 1.823
0.28166 0.182757 1.826
0.266779 0.182554 1.81026
0.312213 0.182273 1.8261
0.309301 0.181994 1.81779
0.257584 0.18167 1.78593
0.28549 0.181516 1.79079
0.306127 0.181196 1.7951
0.217044 0.180923 1.74374
0.267438 0.18077 1.75991
0.22037 0.180498 1.72958
0.203206 0.180304 1.71278
0.246095 0.180035 1.72744
0.202495 0.179844 1.69743
0.194293 0.179579 1.68655
0.277555 0.17939 1.71997
0.210634 0.179201 1.67835
0.0736425 0.178978 1.60236
0.176571 0.178793 1.64562
0.152053 0.178568 1.62596
0.101157 0.178385 1.59232
0.12963 0.178203 1.59837
0.159173 0.178012 1.60516
0.119977 0.177771 1.57859
0.115193 0.177623 1.56742
0.0643123 0.177447 1.53378
0.117064 0.177254 1.55231
0.148703 0.177079 1.55996
0.119168 0.17688 1.53752
0.0794761 0.176733 1.50897
0.109814 0.176563 1.51593
0.0602077 0.176395 1.48291
0.099715 0.17625 1.494
-0.007569 0.176033 1.43317
0.0232309 0.175867 1.44037
0.0517481 0.175703 1.4464
0.120072 0.175542 1.47233
0.00748261 0.175398 1.40743
0.0792595 0.175239 1.43507
0.0445051 0.175096 1.40912
0.069592 0.174939 1.41341
0.0764926 0.174797 1.40831
0.0112152 0.174643 1.36741
0.0183027 0.174502 1.36242
-0.0394778 0.174304 1.32621
0.0537601 0.174209 1.36337
0.0336298 0.174011 1.34603
0.046445 0.17392 1.34294
-0.0951148 0.173721 1.26495
-0.0233314 0.173633 1.29128
0.0908684 0.173434 1.34123
0.0185634 0.173351 1.29547
0.0266761 0.173208 1.2912
0.0159885 0.173071 1.27742
0.00272548 0.172931 1.26244
-0.10483 0.172795 1.20026
0.00763188 0.172657 1.24812
0.00853927 0.172522 1.24018
-0.0432807 0.172387 1.20589
0.0436048 0.172252 1.24097
0.00697285 0.172118 1.21429
-0.042185 0.171983 1.18136
0.0488269 0.171851 1.21851
-0.00234023 0.171717 1.18459
0.0632023 0.171651 1.20756
-0.0855585 0.171521 1.1248
-0.0501532 0.171388 1.1342
-0.0541929 0.171261 1.12378
-0.0130284 0.17113 1.13607
-0.014975 0.171005 1.12666
-0.1335 0.170875 1.05912
-0.0429994 0.170744 1.09611
-0.102024 0.170623 1.05814
-0.0644498 0.170494 1.06868
-0.0423625 0.170429 1.07
0.0190999 0.170311 1.09225
-0.0385353 0.170182 1.0552
-0.085423 0.170067 1.02325
-0.0977231 0.169939 1.00888
0.0351896 0.169812 1.06713
-0.11706 0.169763 0.980989
-0.181128 0.169636 0.940755
-0.0812677 0.16951 0.982494
-0.183159 0.169401 0.922983
-0.0551531 0.169276 0.978806
-0.0640958 0.169213 0.964687
-0.0177679 0.169107 0.979255
-0.00700618 0.168983 0.976473
-0.107997 0.168879 0.917345
-0.0459259 0.168756 0.940227
-0.142443 0.168633 0.883823
-0.0493027 0.168572 0.920784
-0.1849 0.168472 0.84432
-0.0869654 0.168351 0.885158
-0.0997742 0.168253 0.870049
-0.102515 0.168133 0.860556
-0.0990729 0.168012 0.854162
-0.0718778 0.167952 0.858186
-0.15063 0.167859 0.810069
-0.0630649 0.167739 0.84575
-0.116067 0.16762 0.811154
-0.0510126 0.167589 0.833438
-0.109899 0.167471 0.795906
-0.100787 0.167353 0.79238
-0.138896 0.167266 0.764501
-0.18418 0.167149 0.733782
-0.063028 0.167091 0.784832
-0.0851593 0.166975 0.765701
-0.0935818 0.166891 0.752622
-0.120268 0.166776 0.731218
-0.163948 0.166661 0.701323
-0.145721 0.166638 0.700074
-0.0918708 0.166524 0.718948
-0.11639 0.166411 0.698642
-0.0760709 0.166297 0.710761
-0.161088 0.166277 0.657847
-0.120505 0.166164 0.670101
-0.155599 0.166052 0.644521
-0.136985 0.165941 0.645799
-0.178332 0.165923 0.614676
-0.0840039 0.165812 0.653814
-0.183382 0.165702 0.596103
-0.150882 0.165592 0.604336
-0.108388 0.165577 0.615087
-0.132448 0.165468 0.595041
-0.14376 0.165359 0.581373
-0.145106 0.16525 0.572692
-0.0891868 0.165196 0.591221
-0.0745521 0.165131 0.589418
-0.169635 0.165023 0.533873
-0.172413 0.164917 0.524483
-0.123384 0.164863 0.539581
-0.113271 0.164801 0.53546
-0.129476 0.164696 0.51936
-0.143047 0.164643 0.503167
-0.0763782 0.164538 0.528511
-0.190074 0.164433 0.463676
-0.0923511 0.164376 0.503295
-0.128146 0.164324 0.476002
-0.116394 0.16422 0.473893
-0.139214 0.164117 0.454499
-0.0864088 0.164015 0.47292
-0.0956053 0.163964 0.458944
-0.168595 0.16391 0.413137
-0.0896675 0.163809 0.444619
-0.157005 0.163759 0.401579
-0.158419 0.163658 0.392896
-0.0916465 0.163558 0.418307
-0.0218417 0.163458 0.445236
-0.159684 0.163459 0.365544
-0.111857 0.16336 0.38148
-0.178411 0.163261 0.340228
-0.141184 0.163212 0.34949
-0.140032 0.163114 0.342095
-0.193875 0.163017 0.307203
-0.116963 0.16292 0.337688
-0.190583 0.162871 0.291542
-0.18932 0.162828 0.282695
-0.12793 0.162732 0.305416
-0.106529 0.162685 0.306784
-0.109481 0.16259 0.297337
-0.251011 0.162495 0.2186
-0.161777 0.162401 0.255245
-0.0734091 0.162354 0.290109
-0.190838 0.16226 0.223425
-0.192458 0.162167 0.214645
-0.142391 0.162176 0.228753
-0.140476 0.162084 0.221734
-0.160693 0.161992 0.203649
-0.146865 0.161946 0.201253
-0.168946 0.161855 0.182237
-0.0751414 0.161764 0.221162
-0.216591 0.161674 0.14246
-0.10192 0.161629 0.190495
-0.202643 0.161539 0.132156
-0.145134 0.16145 0.152932
-0.123227 0.161406 0.154592
-0.207298 0.161317 0.104578
-0.216183 0.161229 0.0921549
-0.213627 0.161185 0.0841456
-0.199308 0.161098 0.0833245
-0.149969 0.161011 0.100011
-0.10637 0.160968 0.112529
-0.127291 0.160882 0.094085
-0.134882 0.160796 0.0823029
-0.103159 0.160753 0.0888881
-0.182628 0.160668 0.0411664
-0.12699 0.160584 0.0609945
-0.142293 0.160541 0.0440719
-0.170939 0.160458 0.0217565
-0.175194 0.160374 0.0116332
-0.143766 0.160333 0.01808
-0.128179 0.16025 0.0178759
0.587043 0.202575 2.05476
0.606063 0.201729 2.06548
0.57791 0.201155 2.04834
0.471278 0.200581 1.99203
0.383664 0.200127 1.94336
0.375941 0.199673 1.93467
0.442885 0.199307 1.96196
0.383465 0.198911 1.92658
0.351809 0.198547 1.9046
0.410305 0.198239 1.92683
0.334273 0.197879 1.8827
0.333216 0.197573 1.87519
0.344751 0.197268 1.874
0.320598 0.196965 1.85498
0.284489 0.196613 1.83083
0.24633 0.196313 1.80483
0.16179 0.196014 1.75565
0.28675 0.1958 1.80981
0.226833 0.195504 1.77297
0.298792 0.195209 1.80207
0.295537 0.194999 1.79214
0.2447 0.194707 1.75986
0.210135 0.194542 1.73356
0.148604 0.194211 1.69667
0.228346 0.194047 1.72756
0.235896 0.193761 1.7245
0.155449 0.193559 1.67601
0.206301 0.193314 1.69394
0.147373 0.193077 1.65688
0.181701 0.192915 1.66514
0.241102 0.192636 1.68803
0.172746 0.192441 1.64559
0.152267 0.19228 1.6265
0.0740161 0.192038 1.57999
0.170966 0.191814 1.62079
0.0834149 0.191625 1.56874
0.196612 0.191465 1.61655
0.149656 0.191226 1.58575
0.0602212 0.191039 1.53278
0.113225 0.190854 1.55103
0.0931709 0.190671 1.53273
0.108728 0.190513 1.53179
-0.0132433 0.190302 1.46309
0.107291 0.19012 1.51513
0.126532 0.189919 1.51692
0.115583 0.189742 1.50315
0.0925169 0.189587 1.48297
0.049771 0.189413 1.4533
0.146419 0.189241 1.49332
0.0298456 0.189087 1.42642
0.0686962 0.188917 1.43753
0.0919242 0.188764 1.44054
0.00322147 0.188549 1.38879
0.0386944 0.188381 1.39825
0.0850674 0.188229 1.41288
-0.00172703 0.188064 1.36119
0.0505524 0.187901 1.37901
-0.00787624 0.18775 1.34128
-0.0581708 0.187589 1.3078
0.0305514 0.187439 1.34366
0.0216875 0.187281 1.33089
-0.020815 0.187132 1.30116
-0.0335481 0.186977 1.28643
0.0122901 0.186828 1.30089
-0.0119795 0.18668 1.28031
0.0100898 0.186528 1.28298
0.0218117 0.186381 1.28041
-0.0899659 0.186305 1.21467
-0.0082448 0.186085 1.24858
-0.0849184 0.186012 1.20037
0.0187113 0.185866 1.24379
-0.0853325 0.18572 1.18338
0.0299079 0.185577 1.23259
-0.0759005 0.185433 1.17132
-0.0517819 0.185292 1.17494
0.00601616 0.185148 1.19549
-0.107391 0.185011 1.13032
-0.0169645 0.184868 1.1672
0.0672895 0.184797 1.19952
-0.0518317 0.184592 1.13296
-0.0776023 0.18445 1.11176
-0.042615 0.184389 1.11927
0.0641647 0.184249 1.16436
-0.0328062 0.18412 1.10734
-0.0675745 0.18398 1.08168
-0.129197 0.183841 1.04259
-0.0832432 0.183715 1.05701
-0.0701261 0.183577 1.0553
-0.0649285 0.183508 1.04818
-0.145691 0.183386 0.999209
0.0243074 0.183248 1.07597
-0.136973 0.18313 0.986709
-0.0859146 0.182993 1.00401
-0.00504691 0.182925 1.03475
-0.0716676 0.182809 0.992794
-0.135833 0.182674 0.952505
-0.0473197 0.182561 0.988076
-0.149679 0.182427 0.9287
-0.0401751 0.182293 0.975263
-0.0422163 0.18225 0.964056
-0.0946559 0.182117 0.929657
-0.101312 0.181984 0.918157
-0.0938593 0.181878 0.913131
-0.113066 0.181747 0.895365
-0.0789356 0.181615 0.904275
-0.051334 0.181578 0.907822
-0.0737645 0.181447 0.88846
-0.0948822 0.181317 0.869761
-0.0743761 0.181218 0.871187
-0.0987609 0.181089 0.850861
-0.114568 0.18096 0.834831
-0.132538 0.180929 0.815521
-0.122663 0.180801 0.812338
-0.111513 0.180673 0.809801
-0.0715953 0.180581 0.820852
-0.0887521 0.180517 0.802711
-0.146854 0.180391 0.765559
-0.102805 0.180302 0.778635
-0.0719183 0.180177 0.785982
-0.13533 0.180052 0.746186
-0.0404863 0.179989 0.784073
-0.0640698 0.179904 0.763288
-0.0999754 0.179781 0.737256
-0.0765876 0.179657 0.740875
-0.0455131 0.179637 0.745928
-0.0821624 0.179514 0.719533
-0.144796 0.179392 0.680151
-0.0521582 0.179271 0.718409
-0.110423 0.179254 0.678749
-0.0744077 0.179133 0.6887
-0.121619 0.179012 0.657041
-0.197493 0.178938 0.609968
-0.0954895 0.178878 0.651486
-0.127482 0.178759 0.627444
-0.133748 0.178641 0.616269
-0.067793 0.17857 0.640058
-0.105101 0.178452 0.613362
-0.0859269 0.178394 0.613487
-0.165341 0.178277 0.565748
-0.0925875 0.17821 0.592882
-0.191589 0.178094 0.535349
-0.0670296 0.178036 0.588181
-0.1198 0.177921 0.553771
-0.122084 0.177858 0.543331
-0.21589 0.177801 0.486989
-0.0915183 0.177687 0.541154
-0.14819 0.177574 0.5048
-0.0547329 0.177461 0.543512
-0.103718 0.177458 0.508254
-0.0634935 0.177346 0.52035
-0.0924078 0.177234 0.497878
-0.132471 0.177123 0.469835
-0.133682 0.177012 0.46122
-0.202109 0.177013 0.416185
-0.106862 0.176903 0.455797
-0.199041 0.176794 0.401698
-0.0914479 0.176739 0.446099
-0.148924 0.17663 0.409357
-0.101614 0.176576 0.423624
-0.140037 0.176472 0.396299
-0.118902 0.176419 0.39748
-0.120784 0.176312 0.388536
-0.111729 0.176205 0.385061
-0.0718859 0.176099 0.396982
-0.125917 0.176046 0.360595
-0.107974 0.176001 0.359992
-0.134504 0.175897 0.338722
-0.0966837 0.175844 0.348265
-0.12665 0.17574 0.325282
-0.169422 0.175637 0.295896
-0.144081 0.175534 0.300567
-0.13652 0.175482 0.294994
-0.134571 0.175443 0.286307
-0.122513 0.175341 0.284331
-0.113268 0.17529 0.279603
-0.114216 0.175189 0.271127
-0.167302 0.175089 0.236582
-0.167708 0.174988 0.228377
-0.122256 0.174939 0.241764
-0.154052 0.174839 0.217866
-0.139222 0.17474 0.21728
-0.153508 0.174691 0.200806
-0.109829 0.174658 0.212868
-0.0646863 0.174561 0.227431
-0.0865779 0.174464 0.208475
-0.235187 0.174415 0.124844
-0.112208 0.174319 0.178324
-0.177441 0.174223 0.137697
-0.0936388 0.174175 0.170277
-0.113517 0.17408 0.152328
-0.159372 0.173986 0.121389
-0.157404 0.173938 0.113059
-0.100551 0.173844 0.133473
-0.203814 0.173751 0.0738273
-0.201973 0.173658 0.0667315
-0.115385 0.173612 0.100719
-0.201746 0.17352 0.0495214
-0.160283 0.173428 0.0622331
-0.0434467 0.173382 0.11135
-0.119323 0.173291 0.0653912
-0.129752 0.173201 0.0521529
-0.122404 0.173156 0.0465303
-0.199488 0.173066 -3.734e-05
-0.119002 0.172977 0.0321769
-0.0421857 0.172932 0.0612928
-0.0918214 0.172844 0.0284437
0.572649 0.218263 2.06667
0.537691 0.217067 2.05447
0.482809 0.216452 2.02381
0.436534 0.215837 1.99752
0.514348 0.215369 2.03114
0.416556 0.214902 1.97701
0.439428 0.214426 1.98339
0.389153 0.213941 1.95338
0.312719 0.213459 1.91031
0.468236 0.213127 1.98098
0.341101 0.21274 1.9112
0.250156 0.212411 1.85867
0.310285 0.212083 1.8817
0.288243 0.211703 1.86449
0.352849 0.211378 1.88979
0.29163 0.211055 1.85218
0.354263 0.210733 1.87652
0.311031 0.210502 1.84653
0.291063 0.210183 1.82959
0.365353 0.209866 1.85979
0.224385 0.209639 1.78095
0.220003 0.209325 1.77183
0.221929 0.209013 1.76587
0.260978 0.208791 1.77705
0.247698 0.208482 1.7635
0.166684 0.208263 1.71466
0.221594 0.207999 1.73454
0.248222 0.207782 1.73954
0.27809 0.207559 1.74628
0.157419 0.207266 1.67893
0.233972 0.207092 1.70828
0.107795 0.20683 1.63771
0.148888 0.206585 1.65055
0.131424 0.206378 1.6335
0.198885 0.206152 1.65924
0.1199 0.205913 1.612
0.0802749 0.205711 1.58387
0.184835 0.205539 1.62733
0.0858916 0.205282 1.5705
0.189166 0.205082 1.61383
0.102288 0.204858 1.56252
0.16016 0.204688 1.5827
0.146239 0.20446 1.568
0.131809 0.204265 1.55249
0.112976 0.204072 1.53476
0.137776 0.203882 1.53884
0.0563421 0.203693 1.48978
0.0821489 0.203507 1.49433
0.109797 0.20334 1.49948
0.119048 0.203109 1.49658
0.0342745 0.202975 1.44499
0.068162 0.202809 1.45329
0.086555 0.202576 1.45506
0.0805743 0.202397 1.44373
0.099692 0.202219 1.44492
0.077617 0.202055 1.4253
0.11174 0.201881 1.43399
0.102628 0.201708 1.42103
0.0285983 0.201546 1.37546
0.0210657 0.201376 1.36329
0.0905497 0.201215 1.3895
0.0569236 0.201048 1.36426
0.00550929 0.200887 1.33004
0.0305977 0.200724 1.33415
0.0305018 0.200564 1.32561
0.0643438 0.200404 1.33405
0.0393343 0.200244 1.3131
-0.0140918 0.200085 1.27792
0.104424 0.199927 1.32873
-0.0639127 0.199771 1.2361
-0.0338584 0.199613 1.2427
0.0635883 0.199538 1.28147
-0.0101516 0.199303 1.23766
0.00157628 0.19923 1.23355
0.0461076 0.199075 1.24742
0.0120551 0.19892 1.22201
-0.0330485 0.198772 1.19094
0.0296001 0.198618 1.21389
0.0803974 0.198474 1.23075
-0.0239335 0.19832 1.17023
-0.0215661 0.198179 1.16285
-0.0146238 0.198027 1.15798
-0.0348121 0.197951 1.13808
0.0409161 0.197813 1.16736
0.0199351 0.197662 1.14855
-0.130357 0.197527 1.06479
-0.0757101 0.197377 1.08381
-0.16844 0.197245 1.0288
-0.046189 0.197096 1.08164
-0.00979803 0.196968 1.09116
-0.132857 0.19682 1.02135
-0.0169829 0.196672 1.07102
-0.0286358 0.196621 1.05502
-0.037368 0.196474 1.0424
0.00767603 0.196327 1.05668
-0.10995 0.196206 0.98913
-0.0453177 0.196061 1.01321
-0.00548138 0.196015 1.02289
-0.0791821 0.19587 0.977819
-0.00174481 0.195726 1.00832
-0.0827824 0.195611 0.959002
-0.0986084 0.195468 0.942883
-0.0545852 0.195397 0.95523
-0.078871 0.195285 0.934253
-0.0676595 0.195143 0.931669
-0.104755 0.195035 0.904249
-0.12892 0.194894 0.883986
-0.13946 0.194754 0.870542
-0.0111875 0.19472 0.924308
-0.105934 0.19458 0.86877
-0.126671 0.194441 0.850242
-0.0535935 0.19434 0.877833
-0.0715014 0.194202 0.860727
-0.0916214 0.194064 0.842521
-0.0545844 0.194036 0.850597
-0.0153806 0.193899 0.86206
-0.0502202 0.193763 0.836508
-0.0634899 0.193669 0.820844
-0.0663525 0.193601 0.809835
-0.0909848 0.193466 0.789398
-0.103889 0.193376 0.773876
-0.0376845 0.193242 0.798862
-0.070904 0.193109 0.774141
-0.0643942 0.193089 0.766837
-0.0918498 0.192956 0.745003
-0.11578 0.192824 0.724938
-0.0188271 0.192741 0.764254
-0.175343 0.192675 0.67646
-0.147114 0.192545 0.682483
-0.182369 0.192414 0.656769
-0.124226 0.192335 0.676632
-0.0770258 0.192206 0.692148
-0.124813 0.192142 0.658742
-0.0797411 0.192066 0.672024
-0.146158 0.191938 0.630738
-0.0712123 0.191811 0.660138
-0.165674 0.191747 0.603412
-0.026272 0.191675 0.663807
-0.207297 0.191549 0.565228
-0.194316 0.191424 0.563655
-0.175529 0.191361 0.563569
-0.083266 0.191294 0.600342
-0.0625029 0.191169 0.602665
-0.109915 0.191046 0.570904
-0.066666 0.191043 0.581704
-0.0827982 0.19092 0.565584
-0.0429788 0.190798 0.577442
-0.0857099 0.190676 0.548028
-0.0745356 0.190677 0.542742
-0.0675582 0.190556 0.538182
-0.082565 0.190435 0.522633
-0.149203 0.190315 0.48127
-0.119401 0.190255 0.486733
-0.0520812 0.1902 0.510863
-0.185986 0.190081 0.435869
-0.00635591 0.189963 0.517644
-0.0924757 0.189845 0.466546
-0.147679 0.189852 0.427966
-0.0448707 0.189735 0.47133
-0.147969 0.189619 0.411742
-0.10674 0.189503 0.42432
-0.127647 0.189446 0.404454
-0.0895852 0.189399 0.413827
-0.0518216 0.189284 0.42467
-0.121441 0.189227 0.380453
-0.1711 0.189114 0.34759
-0.0687648 0.189 0.390726
-0.0920502 0.188944 0.369687
-0.17963 0.188902 0.316165
-0.0744358 0.18879 0.360727
-0.0449596 0.188679 0.36743
-0.0590217 0.188568 0.352365
-0.137351 0.188513 0.303815
-0.108477 0.188403 0.310221
-0.146075 0.188366 0.281607
-0.0716566 0.188257 0.310778
-0.0641858 0.188203 0.305134
-0.138423 0.188095 0.259979
-0.186412 0.187987 0.227949
-0.122147 0.187934 0.250711
-0.139498 0.187827 0.234002
-0.158354 0.187774 0.21521
-0.168616 0.18769 0.201494
-0.0833141 0.187637 0.23478
-0.0507456 0.187532 0.243022
-0.185481 0.187428 0.167612
-0.0770193 0.187324 0.213799
-0.112506 0.187272 0.1867
-0.11742 0.187169 0.1762
-0.111786 0.187067 0.170974
-0.102487 0.187016 0.166275
-0.100095 0.186914 0.159428
-0.186911 0.186813 0.107974
-0.0977032 0.186712 0.144532
-0.109457 0.186662 0.129315
-0.0560186 0.18664 0.145972
-0.0956673 0.18654 0.11809
-0.161445 0.186491 0.0758603
-0.151209 0.186393 0.0729199
-0.202201 0.186295 0.0393632
-0.0878477 0.186246 0.0872045
-0.168587 0.186149 0.0387727
-0.188477 0.186052 0.0207634
-0.0869663 0.185956 0.063451
-0.104734 0.185908 0.0452382
-0.150066 0.185813 0.0145026
-0.0669708 0.185718 0.0479779
-0.0555957 0.185671 0.0443406
-0.131253 0.185577 -0.00156291
0.495522 0.232938 2.05126
0.497504 0.231877 2.05443
0.548132 0.231221 2.07644
0.502417 0.230564 2.05035
0.522071 0.230065 2.05482
0.416339 0.229567 1.99664
0.411252 0.22907 1.98882
0.443077 0.228631 1.99869
0.402868 0.228215 1.97227
0.346528 0.227703 1.93919
0.403322 0.22735 1.96045
0.366853 0.226999 1.9351
0.334573 0.226592 1.91269
0.30742 0.226244 1.89203
0.293911 0.225897 1.87821
0.233206 0.225552 1.84081
0.374323 0.225305 1.90293
0.273115 0.224963 1.8453
0.287669 0.224623 1.84556
0.282578 0.224284 1.83601
0.258425 0.224043 1.81553
0.208942 0.223708 1.7838
0.223075 0.223469 1.78247
0.276523 0.223138 1.80222
0.280137 0.2229 1.79568
0.291033 0.222575 1.79411
0.212079 0.222387 1.7456
0.266635 0.222062 1.76594
0.239556 0.221833 1.74402
0.216507 0.221512 1.72555
0.153987 0.221287 1.68591
0.179265 0.221045 1.69046
0.27779 0.220785 1.73193
0.223149 0.220564 1.69624
0.127044 0.220321 1.64019
0.148218 0.220068 1.64295
0.21434 0.219852 1.66764
0.118324 0.219639 1.61125
0.18584 0.219393 1.63714
0.184218 0.219181 1.62798
0.145883 0.218944 1.60087
0.171219 0.218737 1.60513
0.156349 0.218555 1.58892
0.173265 0.218308 1.58966
0.0478098 0.218103 1.51857
0.202965 0.2179 1.58778
0.0682078 0.2177 1.51201
0.11435 0.217502 1.52667
0.0586767 0.217306 1.49041
0.16707 0.217128 1.53592
0.0853099 0.216878 1.48754
0.0644996 0.216683 1.46875
0.0910207 0.216492 1.4736
0.0277324 0.216315 1.43332
0.0701618 0.216127 1.44612
0.0110134 0.21594 1.40811
0.0787792 0.215756 1.43353
0.0848871 0.215582 1.42799
0.0770539 0.215401 1.41561
0.133079 0.215227 1.43505
0.00495309 0.21505 1.3625
0.032672 0.214877 1.36781
0.0539193 0.214702 1.36993
-0.0221894 0.214531 1.32335
0.088368 0.214359 1.37011
0.0825691 0.214188 1.3587
0.0903382 0.214018 1.35409
-0.0193521 0.213848 1.29075
0.000203285 0.213681 1.29202
0.0514786 0.213512 1.30918
0.106999 0.213348 1.32841
0.0902896 0.21318 1.3116
-0.04641 0.213019 1.2347
-0.00215954 0.212852 1.24839
-0.00165985 0.212778 1.23859
0.00468484 0.212529 1.23482
0.0642783 0.212457 1.25454
-0.043855 0.212292 1.19208
-0.00149591 0.21214 1.20463
-0.0438977 0.211976 1.17505
-0.0649282 0.211828 1.15588
0.00848693 0.211665 1.18422
-0.0235616 0.211502 1.15984
0.008922 0.211358 1.1674
0.0570041 0.211197 1.1831
-0.055576 0.211136 1.11664
-0.044331 0.210975 1.11393
-0.02266 0.210837 1.11604
0.043631 0.210678 1.14087
0.0333133 0.210518 1.1274
-0.0164789 0.210384 1.09375
0.0109837 0.210226 1.09918
-0.00874743 0.210174 1.07906
-0.0781662 0.210017 1.03607
-0.0566008 0.20986 1.03858
-0.0482575 0.209733 1.03393
0.0557791 0.209577 1.07769
-0.0678058 0.209453 1.00704
-0.024295 0.209299 1.02055
-0.113996 0.209222 0.965988
-0.0210669 0.209102 1.00357
-0.0199709 0.208948 0.995885
-0.131521 0.208831 0.931191
-0.011492 0.208679 0.982981
-0.0602336 0.208603 0.948931
-0.0426479 0.20849 0.948772
-0.0829846 0.208339 0.920395
-0.0227174 0.20823 0.941539
-0.0628231 0.20808 0.913286
-0.0559204 0.207931 0.908544
-0.0572557 0.207899 0.897393
-0.0891363 0.207751 0.873267
-0.0355546 0.207603 0.891879
-0.140307 0.207501 0.830436
0.0010525 0.207354 0.892944
-0.0857112 0.207281 0.839944
-0.0849319 0.207182 0.831229
-0.0613121 0.207037 0.83488
-0.022821 0.206941 0.844979
-0.016319 0.206797 0.840075
-0.0525544 0.206653 0.813809
0.00908205 0.206633 0.833995
-0.135379 0.206491 0.753621
-0.0108668 0.206348 0.80774
-0.101461 0.206331 0.751771
-0.0924897 0.20619 0.748124
-0.12285 0.206049 0.724816
-0.0547909 0.205965 0.749571
-0.0878646 0.205825 0.724909
-0.0445114 0.205686 0.738466
-0.124414 0.205675 0.687762
-0.0256919 0.205536 0.729007
-0.0550237 0.205398 0.706229
-0.112573 0.20539 0.66666
-0.0401547 0.205253 0.694761
-0.120915 0.205117 0.646276
-0.104393 0.205043 0.645124
-0.127828 0.204908 0.625303
-0.11616 0.204774 0.623037
-0.0554888 0.204706 0.64386
-0.0564382 0.204637 0.63392
-0.192096 0.204504 0.557998
-0.0929781 0.204371 0.599466
-0.116776 0.204372 0.576641
-0.126949 0.20424 0.563465
-0.0858246 0.204109 0.575941
-0.148345 0.204043 0.535191
-0.0443181 0.203982 0.577639
-0.105894 0.203852 0.538768
-0.0629629 0.203722 0.552153
-0.106312 0.203664 0.520858
-0.148609 0.2036 0.490232
-0.0673785 0.203472 0.52277
-0.0714892 0.203345 0.512639
-0.0828818 0.203291 0.497266
-0.0461143 0.203228 0.506184
-0.175249 0.203102 0.433543
-0.038865 0.202977 0.493662
-0.109033 0.202927 0.448843
-0.0991037 0.202865 0.444353
-0.100122 0.202741 0.435772
-0.0759035 0.202617 0.43981
-0.0754086 0.202572 0.430264
-0.122109 0.20251 0.397469
-0.161107 0.202388 0.369897
-0.158507 0.202267 0.363127
-0.111609 0.202207 0.377142
-0.126741 0.202165 0.359719
-0.113471 0.202045 0.358281
-0.0576408 0.201926 0.378123
-0.0587936 0.201807 0.369475
-0.0761674 0.201829 0.349515
-0.132872 0.201711 0.313086
-0.0426868 0.201593 0.350103
-0.0651064 0.201477 0.330818
-0.0423906 0.201418 0.332761
-0.0680322 0.201302 0.311869
-0.218783 0.20127 0.226493
-0.106413 0.201155 0.274598
-0.163956 0.201098 0.236417
-0.113475 0.200984 0.25358
-0.0983811 0.200871 0.253049
-0.0943606 0.200758 0.246981
-0.125269 0.200787 0.220125
-0.0682538 0.200675 0.240548
-0.136432 0.200563 0.198373
-0.0702738 0.200452 0.223365
-0.094271 0.200397 0.201973
-0.0872471 0.200287 0.197399
-0.118729 0.200178 0.173572
-0.141998 0.200069 0.15385
-0.0976828 0.200014 0.166624
-0.132261 0.19996 0.139953
-0.200924 0.199887 0.0967135
-0.109896 0.19978 0.134128
-0.0783073 0.199726 0.14054
-0.0979735 0.19962 0.122608
-0.128194 0.199515 0.0993971
-0.0623453 0.199462 0.122945
-0.133442 0.199358 0.0792957
-0.114434 0.199254 0.0806961
-0.104733 0.19915 0.0774404
-0.108842 0.199098 0.0660166
-0.0865883 0.198996 0.0690365
-0.118843 0.198893 0.0447994
-0.0764878 0.198792 0.0578644
-0.119945 0.198741 0.0267724
-0.108737 0.19864 0.0242623
-0.0884097 0.19854 0.0263084
-0.102639 0.19849 0.00983467
-0.150949 0.198391 -0.02244
0.591628 0.248722 2.12099
0.643568 0.24753 2.14973
0.593124 0.246833 2.12105
0.504235 0.246035 2.0745
0.618842 0.245504 2.12633
0.476421 0.244973 2.04968
0.510909 0.244444 2.06153
0.444404 0.243916 2.02292
0.369272 0.243454 1.97917
0.425636 0.242929 2.00206
0.443263 0.242495 2.00443
0.376207 0.24212 1.96371
0.378612 0.241747 1.95773
0.338826 0.241374 1.93069
0.399062 0.240944 1.95447
0.273412 0.240576 1.88452
0.381331 0.240209 1.93137
0.265545 0.239843 1.86638
0.266773 0.23948 1.85991
0.260722 0.23922 1.84841
0.27608 0.23886 1.84902
0.243059 0.238502 1.82546
0.269052 0.238248 1.83
0.322473 0.237893 1.84967
0.287257 0.237541 1.82503
0.167218 0.237292 1.75656
0.142934 0.236944 1.73739
0.252081 0.236699 1.78352
0.226443 0.236397 1.76308
0.264191 0.236155 1.77353
0.224575 0.235855 1.74613
0.167814 0.235575 1.7099
0.307674 0.235339 1.77139
0.167667 0.235078 1.69331
0.210899 0.234807 1.70705
0.183157 0.234575 1.68474
0.142276 0.234314 1.65632
0.154557 0.234051 1.65453
0.245203 0.233824 1.69142
0.17029 0.233561 1.64608
0.169371 0.233336 1.63722
0.183882 0.233086 1.63646
0.0912082 0.232867 1.58166
0.114015 0.232673 1.58425
0.128099 0.232457 1.58284
0.0969481 0.232191 1.55958
0.0548229 0.231976 1.53009
0.102523 0.231763 1.5455
0.126006 0.231553 1.54878
0.119812 0.231346 1.53721
0.126933 0.23114 1.53228
0.118748 0.230951 1.51947
0.100282 0.230682 1.50277
0.115877 0.230479 1.50211
0.0533888 0.230278 1.46239
0.0799703 0.23009 1.46702
0.0223688 0.229893 1.42973
0.107432 0.229698 1.46376
0.0349507 0.229506 1.41899
0.123542 0.22932 1.45467
0.0589015 0.229131 1.41381
0.116319 0.228947 1.43392
0.0487824 0.228761 1.3916
0.0354762 0.228578 1.37637
0.0947657 0.228394 1.39746
0.092 0.228212 1.38753
0.0169532 0.22803 1.34145
0.0660006 0.227852 1.35739
0.0634665 0.227671 1.3476
0.0369544 0.227496 1.32575
0.0920805 0.227316 1.34481
0.0635614 0.227144 1.32193
0.0377204 0.226965 1.30053
-0.0267326 0.226797 1.25966
-0.0577787 0.226619 1.23567
0.02997 0.22653 1.26963
-0.0104366 0.226277 1.24224
0.0197898 0.226189 1.24745
0.0228736 0.226028 1.24031
-0.0558863 0.225852 1.19251
0.0198673 0.225694 1.22168
0.0648054 0.22552 1.23575
-0.0123026 0.225366 1.18846
-0.0763396 0.225192 1.14806
-0.0559768 0.225042 1.14948
2.85913e-06 0.224869 1.1691
0.0051732 0.224808 1.16143
-0.0594712 0.224551 1.12222
-0.0932893 0.224465 1.09549
-0.00610773 0.224322 1.13027
0.00197271 0.224152 1.12597
-0.0266349 0.224012 1.10283
-0.0178639 0.223844 1.09889
-0.0287644 0.223707 1.08457
-0.0299945 0.22354 1.07564
-0.109764 0.22349 1.0254
-0.0912898 0.223324 1.02633
0.0142238 0.223157 1.07079
-0.051773 0.223028 1.02887
0.0304054 0.222863 1.06167
-0.05504 0.222738 1.00998
-0.0507451 0.222574 1.00386
-0.0238913 0.222492 1.00756
-0.0615092 0.222371 0.979757
-0.0648836 0.222208 0.969816
-0.0417101 0.22209 0.97237
-0.0641032 0.221929 0.952928
-0.038175 0.221848 0.956198
-0.058782 0.221734 0.936828
-0.0691847 0.221574 0.923397
-0.0459751 0.221463 0.925897
-0.114986 0.221305 0.88317
0.0170348 0.221226 0.939514
-0.105925 0.221118 0.868893
-0.0135688 0.220961 0.906864
-0.00809776 0.220858 0.900419
-0.0568159 0.220702 0.86786
-0.0749058 0.220624 0.849173
-0.00161985 0.220524 0.876598
-0.0236484 0.22037 0.857396
-0.086907 0.220273 0.816507
-0.145489 0.22012 0.779034
-0.0857304 0.220043 0.799295
-0.117184 0.219951 0.774269
-0.0646813 0.219799 0.792349
-0.0262662 0.219709 0.802215
-0.0216333 0.219559 0.796364
-0.082823 0.219409 0.757607
0.0388531 0.219398 0.807628
-0.0193232 0.219249 0.770381
-0.103479 0.219101 0.720151
-0.043288 0.219019 0.740818
0.00849728 0.218945 0.757133
-0.0777497 0.218798 0.705866
-0.161396 0.21872 0.65457
-0.0928249 0.218574 0.680713
-0.0579629 0.218502 0.688584
-0.0613189 0.218427 0.677391
-0.098283 0.218283 0.650773
-0.0537021 0.218211 0.663514
-0.0532939 0.218068 0.655571
-0.063108 0.217997 0.64112
-0.105513 0.217926 0.610379
-0.0657071 0.217788 0.622085
-0.0541622 0.217647 0.619731
-0.0479291 0.217653 0.611789
-0.0812143 0.217513 0.58702
-0.140183 0.217374 0.549414
-0.0520636 0.217313 0.583772
-0.140541 0.217244 0.530012
-0.0403077 0.217106 0.57201
-0.0927718 0.217038 0.536266
-0.0238459 0.216913 0.562371
-0.0825564 0.216777 0.524897
-0.121744 0.216791 0.494117
-0.0844189 0.216656 0.50466
-0.0755746 0.216521 0.500965
-0.0213796 0.216454 0.518566
-0.0846807 0.216405 0.477066
0.00215666 0.216272 0.512368
-0.13798 0.216206 0.43281
-0.0761236 0.216093 0.455211
-0.0442121 0.216028 0.461679
-0.0311913 0.215897 0.460075
-0.0832455 0.215854 0.424096
-0.0278368 0.215725 0.44368
-0.0673838 0.215596 0.415788
-0.0637605 0.215621 0.406239
-0.0907214 0.215493 0.384637
-0.0940472 0.215365 0.374853
-0.134616 0.215302 0.345098
-0.00530782 0.215266 0.399695
-0.0962614 0.21514 0.346094
-0.0592355 0.215015 0.356484
-0.079252 0.214952 0.337013
-0.108465 0.214921 0.312292
-0.0783421 0.214797 0.319226
-0.0305837 0.214674 0.334978
-0.0705097 0.214612 0.305559
-0.0864079 0.214584 0.287436
-0.0350379 0.214463 0.304988
-0.00521642 0.214342 0.311767
-0.139662 0.214221 0.236411
-0.133968 0.214257 0.227708
-0.0319344 0.214138 0.270585
-0.064448 0.214019 0.246189
-0.0790597 0.213901 0.230743
-0.0780157 0.213842 0.221822
-0.0789622 0.213822 0.211046
-0.00368738 0.213705 0.240536
-0.018552 0.213589 0.224955
-0.106482 0.213473 0.17284
-0.0724603 0.213416 0.180413
-0.104654 0.213301 0.156168
-0.143129 0.213286 0.126546
-0.12369 0.213173 0.128105
-0.0682771 0.213116 0.146376
-0.0435103 0.213004 0.150599
-0.00874502 0.212892 0.15982
-0.0607336 0.21278 0.125662
-0.0420879 0.212725 0.125557
-0.0149412 0.212615 0.130967
-0.109332 0.212505 0.0756058
0.00200154 0.212395 0.123105
-0.0949359 0.212341 0.0652155
-0.065317 0.212232 0.071856
-0.0614048 0.212124 0.0656406
-0.063721 0.212017 0.0563083
-0.03798 0.211964 0.0597647
-0.133613 0.211857 0.00377264
-0.0543708 0.211751 0.0352148
0.0217037 0.211646 0.0650703
-0.146282 0.211594 -0.0283316
-0.013236 0.211489 0.0300075
0.708688 0.264758 2.20027
0.498636 0.263501 2.09772
0.618873 0.26248 2.15759
0.544946 0.261741 2.11708
0.517292 0.261072 2.09893
0.544458 0.260509 2.10696
0.604397 0.259773 2.13355
0.504197 0.259387 2.07584
0.524564 0.258828 2.08058
0.403493 0.258271 2.01464
0.442965 0.257783 2.02816
0.386124 0.257401 1.99226
0.443807 0.256954 2.01446
0.399568 0.256453 1.98642
0.353391 0.255996 1.95691
0.348482 0.255604 1.94725
0.364986 0.255214 1.94832
0.312665 0.254825 1.91499
0.313095 0.254547 1.90666
0.262279 0.254162 1.8741
0.294565 0.253779 1.88311
0.298568 0.253343 1.87869
0.332312 0.253127 1.88635
0.258769 0.252749 1.84247
0.248943 0.252374 1.83046
0.246656 0.252109 1.82082
0.2608 0.251738 1.8208
0.267214 0.251476 1.81551
0.306141 0.25111 1.82789
0.302172 0.250853 1.8174
0.258359 0.250533 1.78785
0.301462 0.250279 1.80092
0.264363 0.249961 1.77476
0.193034 0.24967 1.73114
0.173817 0.249422 1.71304
0.141831 0.249144 1.68899
0.165686 0.248862 1.69293
0.197165 0.248619 1.70018
0.198254 0.248339 1.69276
0.209248 0.248067 1.69022
0.127917 0.247829 1.64106
0.151087 0.247548 1.64479
0.106514 0.247312 1.61403
0.239386 0.247079 1.67199
0.161636 0.246824 1.62494
0.137443 0.246619 1.60401
0.149664 0.246335 1.60242
0.13518 0.246108 1.5867
0.151972 0.245884 1.5866
0.0975571 0.245662 1.55088
0.105233 0.245443 1.54619
0.121664 0.245226 1.54586
0.0982931 0.245012 1.52562
0.0913785 0.244811 1.51343
0.173673 0.244522 1.54714
0.0680393 0.244311 1.48579
0.0537591 0.244102 1.4701
0.0845077 0.243903 1.4768
0.131582 0.243697 1.49177
0.100924 0.243494 1.46787
0.0454483 0.243297 1.43148
0.150008 0.243097 1.47517
0.0718553 0.2429 1.42748
0.0299426 0.242705 1.39791
0.0720775 0.24251 1.41037
0.0960046 0.242317 1.41371
0.0254339 0.242123 1.36985
0.0529431 0.241934 1.37496
0.0355338 0.241741 1.3577
0.080475 0.241556 1.37151
0.0378044 0.241364 1.34164
0.126644 0.241182 1.37738
-0.0149935 0.240991 1.29804
0.0261427 0.240812 1.30992
0.0807063 0.240623 1.32869
0.0378225 0.240448 1.29854
0.0587231 0.240259 1.3005
0.0996236 0.240182 1.31075
-0.050151 0.239901 1.22886
0.124915 0.239827 1.30617
-0.016264 0.23964 1.22712
0.0620114 0.239476 1.25748
-0.0180808 0.239291 1.20899
-0.0511153 0.23913 1.18366
-0.0933656 0.238946 1.15412
0.0569817 0.238789 1.22045
-0.0744405 0.238606 1.14634
-0.00529432 0.238514 1.17105
-0.0327722 0.238271 1.14991
0.00608472 0.23818 1.1595
-0.0114913 0.238031 1.14182
-0.0188319 0.23785 1.12978
-0.0165701 0.237705 1.12199
0.0833641 0.237526 1.1636
0.0201842 0.237384 1.12306
0.117913 0.237206 1.16358
-0.0501779 0.237156 1.0691
0.0192955 0.236979 1.0955
-0.0574723 0.236844 1.04811
-0.0509615 0.236668 1.04304
-0.0504535 0.236537 1.03425
-0.0512255 0.236362 1.02555
-0.00431919 0.236275 1.03925
0.00724567 0.236148 1.03595
0.000545372 0.235975 1.02431
-0.00110368 0.235851 1.01437
-0.0324035 0.23568 0.990442
-0.0171159 0.23556 0.988939
-0.0183551 0.235389 0.980046
-0.0465182 0.235304 0.956246
0.029976 0.235188 0.985313
-0.0864917 0.235019 0.918822
-0.0363381 0.234906 0.934681
-0.0870779 0.234739 0.901061
-0.149074 0.234655 0.860372
-0.0328441 0.234546 0.909234
