ply
format ascii 1.0
comment Created by Open3D
element vertex 1862
property double x
property double y
property double z
end_header
0.295686 0.333818 1.7969
0.335118 0.333516 1.80777
0.166459 0.333217 1.71459
0.168313 0.332922 1.70665
0.350608 0.332505 1.79018
0.276647 0.332215 1.74434
0.241311 0.331928 1.71778
-0.0552466 0.331645 1.56061
0.165242 0.33124 1.66322
0.258556 0.330958 1.70101
0.206524 0.33068 1.6661
0.0535396 0.330406 1.5807
0.20611 0.330134 1.64807
0.207009 0.329862 1.63962
0.129523 0.329458 1.59339
0.183213 0.329328 1.60989
0.10387 0.329058 1.56135
0.147338 0.328663 1.57558
-0.0400035 0.328406 1.47295
0.176126 0.328272 1.57076
0.200783 0.327887 1.57555
0.0459208 0.327638 1.48913
0.249391 0.327393 1.58185
0.00245395 0.327129 1.44959
0.0607 0.326889 1.46969
0.190744 0.326758 1.52451
0.0527725 0.326391 1.44791
-0.0116033 0.326159 1.40666
0.116277 0.325898 1.46186
0.173262 0.325671 1.48127
0.0770755 0.325542 1.42302
0.0642141 0.32519 1.40892
0.123518 0.324971 1.42945
0.123987 0.324843 1.41955
-0.0611291 0.3245 1.31928
0.0126013 0.324417 1.34554
0.0119096 0.324162 1.33652
0.265851 0.323956 1.4543
0.152171 0.323753 1.38823
-0.00613457 0.323502 1.30043
-0.0105875 0.323304 1.28896
0.0389076 0.323109 1.30444
-0.0869725 0.32286 1.23287
0.123771 0.32267 1.32895
0.109501 0.322607 1.31105
0.119857 0.32236 1.30762
0.0592874 0.322178 1.26799
0.104217 0.322 1.28108
0.128584 0.321755 1.28467
0.0206841 0.321581 1.22132
0.204832 0.321459 1.30338
0.0975426 0.321289 1.24031
0.0216368 0.321122 1.1929
0.0155276 0.320959 1.18036
0.06537 0.320839 1.1953
-0.0725386 0.32056 1.11827
0.0707597 0.320524 1.17894
0.0973386 0.320371 1.18266
0.0028767 0.320134 1.12689
0.143098 0.319986 1.18741
0.0887506 0.319958 1.14918
0.172537 0.319724 1.18255
-0.0537274 0.319582 1.05977
0.245904 0.319444 1.19991
0.232228 0.319309 1.18337
-0.0710638 0.319292 1.02057
0.267691 0.319162 1.18019
-0.0291444 0.319047 1.02183
0.207824 0.318921 1.13053
0.0171869 0.318903 1.02408
0.0747272 0.318789 1.04292
0.156917 0.31878 1.07279
0.183065 0.318666 1.07596
0.172388 0.318666 1.05928
0.0403084 0.318667 0.981871
0.0806857 0.318675 0.990615
-0.052007 0.318681 0.912846
0.263414 0.318927 1.05607
0.0430486 0.31929 0.929887
0.81248 0.378456 2.40581
0.951235 0.376177 2.48039
0.858709 0.374605 2.43385
0.794781 0.373424 2.39857
0.791849 0.372484 2.39192
0.738197 0.371545 2.35998
0.612903 0.370606 2.29226
0.828115 0.369822 2.39361
0.608007 0.368887 2.27859
0.567434 0.368193 2.25141
0.894325 0.367414 2.40872
0.531813 0.366722 2.22065
0.573157 0.365948 2.23525
0.477716 0.36526 2.18078
0.487542 0.364642 2.17841
0.36811 0.363958 2.11201
0.479311 0.363425 2.15968
0.478556 0.362666 2.15335
0.595819 0.362138 2.2041
0.365305 0.361611 2.08098
0.546713 0.360937 2.16514
0.441986 0.360414 2.10496
0.411009 0.359892 2.08168
0.509292 0.359373 2.12305
0.538682 0.358856 2.12999
0.42364 0.35834 2.06473
0.520327 0.357827 2.10535
0.300651 0.357315 1.98781
0.385909 0.356744 2.02331
0.348489 0.356299 1.99638
0.373353 0.355855 2.00061
0.307315 0.35544 1.95916
0.325345 0.354935 1.96059
0.186549 0.354478 1.88319
0.410636 0.354067 1.98686
0.28817 0.353612 1.91768
0.388749 0.353159 1.96004
0.225656 0.35276 1.87009
0.259564 0.352308 1.87916
0.31722 0.35192 1.89954
0.352316 0.35158 1.90822
0.389584 0.351132 1.91902
0.301935 0.350761 1.86667
0.214723 0.350351 1.81493
0.149568 0.349987 1.77381
0.232899 0.349662 1.8066
0.198306 0.349219 1.78156
0.454169 0.348898 1.90061
0.338419 0.348581 1.83385
0.363394 0.348142 1.83865
0.163748 0.347829 1.72994
0.333351 0.34752 1.80585
0.18092 0.347214 1.72072
0.157502 0.346912 1.70009
0.222261 0.346613 1.72354
0.424464 0.346318 1.81569
0.215009 0.345893 1.7033
0.0772523 0.345601 1.6255
0.126276 0.345311 1.64106
0.103862 0.345026 1.6209
0.227035 0.344599 1.67495
0.189012 0.344461 1.64555
0.0822114 0.344177 1.58322
0.232811 0.34376 1.65097
0.314282 0.343488 1.68271
0.0481512 0.34322 1.54063
0.122862 0.34294 1.5691
0.188586 0.342677 1.59294
0.263267 0.342417 1.62123
0.221665 0.34214 1.59158
0.0907455 0.341885 1.51706
0.181146 0.341634 1.55318
0.115388 0.341358 1.51148
0.174755 0.341112 1.53207
0.0873231 0.34087 1.47923
0.0278295 0.340597 1.4407
-0.0769217 0.340359 1.37918
0.120447 0.340126 1.4687
0.173429 0.339855 1.48644
0.103227 0.339626 1.44215
0.158964 0.339401 1.46082
0.049074 0.339133 1.39714
-0.0115707 0.338913 1.35759
-0.00776851 0.33878 1.34935
0.0786912 0.338564 1.38333
0.127676 0.338352 1.39855
-0.0220987 0.338143 1.31437
0.096059 0.33788 1.36476
0.123007 0.337676 1.36891
0.0202018 0.337476 1.30816
0.113377 0.33728 1.34538
0.0551443 0.337021 1.3076
0.00043056 0.336958 1.26942
0.197342 0.3367 1.35923
0.197371 0.336513 1.34982
0.192145 0.336329 1.33776
0.158054 0.336149 1.31124
0.19289 0.336021 1.31861
-0.0263809 0.335718 1.20091
0.119815 0.335673 1.26305
0.147918 0.335504 1.26755
0.0882575 0.335252 1.22911
0.170067 0.335088 1.26044
0.151629 0.334926 1.24161
0.064501 0.334893 1.18699
-0.0921189 0.334738 1.09902
-0.013175 0.334614 1.12848
0.150766 0.334463 1.20077
0.122902 0.334315 1.17713
-0.0282154 0.33417 1.09184
0.223296 0.334028 1.20783
0.0563479 0.33401 1.11315
0.166733 0.333874 1.15853
0.137988 0.333861 1.1329
0.217095 0.33373 1.1626
0.210262 0.333721 1.14788
0.329937 0.333709 1.19646
0.124747 0.333705 1.08251
0.159133 0.333703 1.08832
0.131233 0.333824 1.06151
0.00562814 0.334067 0.984384
0.194698 0.334196 1.06595
0.940662 0.393224 2.49856
0.839518 0.391749 2.44627
0.621954 0.39036 2.3352
0.730437 0.389131 2.38602
0.804948 0.388152 2.41802
0.535821 0.387175 2.27825
0.600057 0.386199 2.30521
0.600654 0.385474 2.29847
0.546156 0.38466 2.26492
0.595436 0.38369 2.28454
0.512364 0.383127 2.23483
0.661773 0.382162 2.30459
0.534419 0.381602 2.23281
0.594601 0.380886 2.25608
0.626916 0.380087 2.26613
0.497132 0.379532 2.19321
0.554082 0.378821 2.21496
0.551645 0.378269 2.20578
0.524924 0.377483 2.18639
0.415428 0.376936 2.12372
0.536851 0.37639 2.17653
0.580688 0.375846 2.19056
0.553299 0.375222 2.16969
0.390434 0.374609 2.08103
0.525842 0.374071 2.14091
0.249394 0.373535 1.99488
0.480096 0.373001 2.10245
0.292085 0.372536 2.00012
0.353166 0.372005 2.02292
0.446507 0.371541 2.06131
0.438039 0.371044 2.04912
0.469082 0.370521 2.05693
0.344886 0.370059 1.98664
0.33315 0.369598 1.9726
0.453029 0.369123 2.0245
0.416178 0.36865 1.99808
0.309498 0.368177 1.93676
0.196745 0.367763 1.87191
0.308588 0.367292 1.9199
0.368814 0.366933 1.94111
0.446373 0.366537 1.97135
0.161926 0.36607 1.82124
0.401083 0.365686 1.93222
0.170456 0.365256 1.80875
0.128353 0.36488 1.77909
0.379847 0.364542 1.8959
0.42571 0.36408 1.91104
0.277398 0.363747 1.82795
0.272859 0.363417 1.81674
0.286193 0.362959 1.81567
0.203916 0.362634 1.76559
0.155108 0.362313 1.73224
0.0866498 0.361995 1.68905
0.283682 0.361542 1.77989
0.220171 0.361229 1.73917
0.402411 0.36092 1.82131
0.328173 0.360615 1.7752
0.239554 0.360314 1.72188
0.248827 0.360016 1.7175
0.292862 0.359718 1.73052
0.0526356 0.359274 1.60282
0.206498 0.358982 1.67073
0.275591 0.358695 1.69624
0.146266 0.358412 1.62252
0.264772 0.358118 1.67283
0.0117325 0.357839 1.53724
0.13621 0.357565 1.59039
0.409232 0.357273 1.718
0.0950793 0.357004 1.55182
0.164468 0.356738 1.5774
0.130716 0.356449 1.55165
0.145877 0.356188 1.5501
0.110615 0.355931 1.52331
0.184432 0.355645 1.55138
0.283811 0.355393 1.5919
0.120489 0.355145 1.50104
0.212348 0.354901 1.53776
0.114575 0.354618 1.48006
0.13463 0.354379 1.48086
0.0075028 0.354144 1.40804
0.278268 0.353863 1.53464
0.236449 0.353633 1.50445
0.199278 0.353407 1.47657
0.303759 0.353268 1.51863
0.0991866 0.352908 1.40845
0.0586708 0.352828 1.37742
0.0390176 0.352614 1.35822
0.11944 0.35234 1.3897
0.277358 0.352131 1.45927
0.132867 0.351925 1.37761
0.0854217 0.351724 1.34444
0.211683 0.351453 1.39887
0.0611298 0.351256 1.31413
0.153591 0.351198 1.34944
0.198023 0.351008 1.36214
-0.084829 0.35074 1.21203
0.0814266 0.350555 1.28562
0.18901 0.350373 1.32984
0.237041 0.350328 1.34284
0.221135 0.350153 1.32527
0.132336 0.349981 1.27122
0.0589713 0.34985 1.22446
0.15691 0.349683 1.26376
0.251696 0.349519 1.30146
0.0261153 0.349358 1.17895
0.321794 0.3492 1.31705
0.1313 0.349174 1.21061
0.25867 0.349023 1.2645
0.228554 0.349002 1.23821
0.0300315 0.348856 1.12911
0.00881555 0.348839 1.10722
0.0878054 0.348813 1.13555
0.286991 0.348802 1.2238
0.205872 0.348786 1.17196
0.198237 0.348781 1.15674
0.162119 0.3489 1.12588
0.132421 0.349271 1.09534
0.896732 0.410598 2.4992
0.947747 0.408901 2.52395
0.907431 0.407625 2.5001
0.7379 0.406182 2.41295
0.859443 0.405164 2.46831
0.699156 0.404147 2.38281
0.768745 0.403131 2.4123
0.742828 0.402117 2.3941
0.713788 0.401363 2.37246
0.883963 0.400352 2.4524
0.616526 0.39951 2.31232
0.604401 0.39876 2.29927
0.699345 0.397923 2.34045
0.721131 0.397177 2.34442
0.626852 0.396596 2.28914
0.579035 0.395768 2.25903
0.457531 0.395027 2.19145
0.637549 0.394452 2.2734
0.65776 0.393715 2.27674
0.441439 0.393144 2.16057
0.536143 0.392574 2.19993
0.543587 0.391843 2.19697
0.634854 0.391201 2.23526
0.581583 0.390639 2.20069
0.411792 0.390078 2.10789
0.374519 0.38952 2.08136
0.597311 0.388964 2.18489
0.489358 0.38841 2.12305
0.33807 0.387858 2.03957
0.423933 0.387309 2.07468
0.586261 0.386762 2.14804
0.317586 0.386279 2.00541
0.463835 0.385735 2.07076
0.457648 0.385253 2.05943
0.415954 0.38476 2.03046
0.232333 0.38428 1.93046
0.367628 0.3838 1.98995
0.353897 0.383375 1.97448
0.458849 0.382888 2.01891
0.285004 0.382466 1.92343
0.34501 0.381977 1.94546
0.261988 0.381567 1.89534
0.327749 0.381081 1.92028
0.223199 0.380719 1.85904
0.549466 0.380234 2.01428
0.389704 0.379878 1.92544
0.185153 0.379495 1.81445
0.468089 0.379148 1.94692
0.365324 0.378669 1.88771
0.224929 0.378327 1.80852
0.50104 0.377849 1.93879
0.239208 0.377512 1.79888
0.379767 0.377179 1.86016
0.346213 0.37685 1.83436
0.271573 0.376377 1.78932
0.211707 0.376053 1.75037
0.208832 0.375733 1.7399
0.114321 0.375416 1.6836
0.116964 0.375104 1.67586
0.214105 0.374793 1.71538
0.29943 0.374485 1.74897
0.114964 0.374176 1.64771
0.0872817 0.373719 1.62621
0.236773 0.373421 1.69186
0.0740425 0.373127 1.60139
0.173988 0.372821 1.64238
0.21396 0.372532 1.65325
0.198773 0.372247 1.63652
0.203047 0.371966 1.6295
0.162015 0.371664 1.60005
0.204591 0.371388 1.61217
0.242953 0.371116 1.62216
0.174457 0.370816 1.57901
0.150538 0.370549 1.55785
0.201309 0.370287 1.57401
0.335597 0.370028 1.63191
0.176798 0.369732 1.54365
0.156317 0.369478 1.52414
0.311166 0.369229 1.59228
0.174053 0.368984 1.51442
0.206315 0.368691 1.52172
-0.027603 0.368451 1.39543
0.238209 0.368215 1.51899
0.125881 0.367983 1.45345
0.146971 0.367838 1.45377
0.231239 0.367467 1.48794
0.115265 0.367387 1.41911
0.214157 0.367168 1.45911
0.269684 0.366882 1.47811
0.0729896 0.366667 1.3703
-0.0147394 0.366456 1.31694
0.236256 0.36625 1.43293
0.212771 0.366109 1.41102
0.0594818 0.365906 1.32484
0.149196 0.365707 1.36014
0.180149 0.365512 1.36603
0.207416 0.365321 1.37005
0.140616 0.365272 1.3256
0.18304 0.365088 1.33715
0.0542652 0.364907 1.26308
0.0933759 0.364769 1.27251
0.0282243 0.364592 1.23023
0.215025 0.364419 1.31389
0.03771 0.364385 1.21406
0.127855 0.364218 1.24936
0.144678 0.364162 1.24683
0.15371 0.364003 1.2415
0.134849 0.363981 1.22078
0.151513 0.363961 1.2178
0.151722 0.363928 1.20675
-0.0449125 0.363914 1.09706
0.183606 0.364023 1.19864
0.216421 0.364015 1.20362
0.0914678 0.364516 1.12424
0.925909 0.428851 2.53194
0.9708 0.42639 2.5582
0.809353 0.424626 2.47664
0.935343 0.423569 2.534
0.909013 0.42207 2.51833
0.860214 0.421014 2.48844
0.648537 0.419959 2.37716
0.808331 0.418905 2.45166
0.76192 0.41812 2.42123
0.65174 0.417071 2.36085
0.641883 0.416289 2.34878
0.669352 0.415416 2.35607
0.844656 0.414637 2.43665
0.477155 0.41377 2.24652
0.594367 0.412995 2.29813
0.688554 0.412221 2.33826
0.515102 0.411621 2.24336
0.440807 0.410766 2.19994
0.552842 0.410169 2.24783
0.620101 0.409404 2.27461
0.553674 0.408812 2.23332
0.391348 0.408051 2.14537
0.441145 0.407384 2.16282
0.38073 0.406799 2.1246
0.322638 0.406216 2.08755
0.486669 0.405614 2.16175
0.442226 0.405032 2.13159
0.468536 0.40438 2.13738
0.584394 0.403804 2.18739
0.406907 0.403231 2.09076
0.477338 0.402727 2.11758
0.449526 0.402156 2.09582
0.478736 0.401632 2.10225
0.484475 0.401071 2.09727
0.506122 0.400569 2.09981
0.373538 0.400068 2.02525
0.319809 0.399569 1.99013
0.465791 0.399069 2.05491
0.310517 0.39857 1.96909
0.301325 0.398139 1.9558
0.333787 0.397641 1.96389
0.251351 0.39714 1.91459
0.34877 0.396712 1.95466
0.400998 0.396205 1.97279
0.267082 0.39579 1.89714
0.212981 0.395419 1.86106
0.182867 0.394917 1.83808
0.196425 0.394551 1.83583
0.410254 0.394163 1.93393
0.396882 0.393664 1.91937
0.3578 0.39331 1.89078
0.23382 0.392813 1.82096
0.287296 0.392464 1.83865
0.192434 0.392119 1.78216
0.38698 0.391778 1.87036
0.244224 0.391286 1.79121
0.358106 0.390951 1.83909
0.116482 0.390619 1.70919
0.274414 0.390291 1.77906
0.315244 0.389967 1.79036
0.298696 0.389482 1.77439
0.0855206 0.389325 1.65728
0.20205 0.389003 1.70648
0.0710196 0.38869 1.63184
0.35203 0.388221 1.76461
0.186223 0.387916 1.67255
0.25476 0.387616 1.69764
0.268673 0.387298 1.69558
0.144888 0.387003 1.62451
0.298566 0.386712 1.69214
0.207312 0.386425 1.63729
0.179045 0.386111 1.61419
0.28457 0.38583 1.65771
0.221804 0.385552 1.61707
0.0834438 0.385279 1.53861
0.0690528 0.384969 1.52249
0.175484 0.384701 1.56641
0.18716 0.384437 1.56293
0.211961 0.384178 1.566
0.418637 0.383922 1.65997
0.115687 0.383617 1.49962
0.0763012 0.383367 1.47055
0.14536 0.383121 1.49568
0.0365237 0.382879 1.43183
0.216887 0.382728 1.51175
0.13256 0.38234 1.46156
0.0591714 0.382258 1.41399
0.240103 0.382029 1.49496
0.172128 0.381804 1.45146
0.146602 0.381582 1.42916
0.193371 0.381286 1.44374
0.263412 0.38107 1.4692
0.226953 0.381005 1.43997
0.0286927 0.380797 1.33124
0.11007 0.380592 1.36229
0.165509 0.38039 1.38036
0.0428488 0.380245 1.30884
0.245366 0.380144 1.39949
0.0749503 0.379953 1.30456
0.0111683 0.379809 1.26249
0.286986 0.379726 1.38964
0.20662 0.379545 1.33966
0.0531738 0.37951 1.25171
0.166972 0.379335 1.29877
0.268892 0.379305 1.33846
0.312003 0.379252 1.34897
0.318432 0.379228 1.34085
0.177728 0.379188 1.25934
0.0748497 0.37917 1.19651
0.217092 0.379279 1.25495
0.438105 0.379531 1.35132
0.0901836 0.380047 1.1605
0.925532 0.446601 2.55517
0.975371 0.444056 2.58357
0.9207 0.442229 2.55516
0.751173 0.440676 2.46762
0.742782 0.43958 2.4577
0.783302 0.438304 2.47351
0.671251 0.437209 2.41189
0.670658 0.436116 2.40606
0.771436 0.435024 2.45097
0.589108 0.433935 2.35437
0.765159 0.433122 2.43514
0.677448 0.432311 2.38407
0.656626 0.431408 2.36712
0.549277 0.4306 2.30631
0.737873 0.429703 2.39413
0.533647 0.428899 2.28495
0.615668 0.428097 2.31892
0.699969 0.427475 2.35282
0.643748 0.426591 2.31835
0.568775 0.425795 2.27391
0.552039 0.42518 2.25737
0.493812 0.424566 2.22011
0.606594 0.423777 2.26964
0.492555 0.423167 2.20452
0.674923 0.42256 2.28762
0.572686 0.421855 2.22916
0.53748 0.421175 2.20408
0.573112 0.420502 2.21441
0.505488 0.419905 2.17258
0.541141 0.419311 2.18242
0.488564 0.418786 2.14766
0.359348 0.418195 2.0751
0.369418 0.417606 2.07221
0.235529 0.417083 1.99687
0.593218 0.416498 2.16783
0.299164 0.416031 2.01205
0.294571 0.415453 2.00187
0.529453 0.414933 2.11103
0.414096 0.414359 2.04551
0.435938 0.413911 2.04765
0.309164 0.413392 1.97606
0.279574 0.412875 1.95308
0.412973 0.412437 2.01101
0.357307 0.411921 1.97504
0.355437 0.411494 1.9653
0.428549 0.410973 1.99382
0.491599 0.410586 2.01628
0.330576 0.410172 1.92694
0.327756 0.409651 1.91758
0.223327 0.409276 1.85628
0.47134 0.408757 1.97237
0.355934 0.408388 1.90558
0.334385 0.408004 1.88586
0.265477 0.407646 1.84228
0.33437 0.407133 1.86888
0.267363 0.40678 1.82625
0.312534 0.406431 1.8397
0.341676 0.405922 1.84646
0.252354 0.405579 1.79267
0.228883 0.40524 1.77178
0.43849 0.404903 1.86743
0.241469 0.404569 1.75977
0.221123 0.404239 1.74043
0.295198 0.403914 1.76828
0.272309 0.40358 1.74773
0.255121 0.403094 1.73135
0.171587 0.402779 1.68037
0.254193 0.402468 1.71244
0.165016 0.402162 1.65861
0.172908 0.401859 1.65329
0.0958928 0.401532 1.60575
0.144625 0.401235 1.62084
0.194851 0.400942 1.63666
0.201672 0.400654 1.63076
0.212392 0.40033 1.62713
0.292286 0.400047 1.65775
0.310027 0.399769 1.65727
0.233149 0.399494 1.60946
0.260135 0.399225 1.61357
0.0860696 0.398905 1.51759
0.152856 0.398641 1.54158
0.230083 0.398381 1.57077
0.124535 0.398125 1.50854
0.187095 0.397967 1.5295
0.194134 0.397716 1.52356
0.241659 0.397469 1.53783
0.157524 0.397226 1.48625
0.0197066 0.396987 1.4078
0.169338 0.396753 1.47306
0.0805902 0.396523 1.4191
0.0771171 0.396368 1.4071
0.179926 0.396142 1.4489
-0.00340671 0.395921 1.34761
0.177042 0.395855 1.42677
0.304902 0.395641 1.48103
0.214451 0.39543 1.42611
0.0709342 0.395224 1.34463
0.161476 0.395171 1.37875
0.0947413 0.394971 1.33562
0.268032 0.394881 1.41149
0.276725 0.394731 1.40561
0.301917 0.394652 1.40733
0.0184488 0.394616 1.25431
0.192029 0.394551 1.3301
0.140568 0.394522 1.29302
0.206287 0.39447 1.31476
0.0493301 0.394572 1.22368
0.25153 0.394698 1.31194
0.158708 0.394809 1.25283
0.245361 0.395743 1.27544
1.04937 0.465737 2.63336
0.900265 0.462088 2.5683
0.898394 0.460012 2.56722
1.00801 0.458404 2.61905
0.834964 0.457269 2.52665
0.696655 0.45566 2.45469
0.607342 0.454525 2.40429
0.805252 0.453392 2.49756
0.854115 0.452359 2.51573
0.919059 0.45123 2.54262
1.01432 0.450386 2.58288
0.787654 0.449261 2.46406
0.758474 0.448325 2.4428
0.557738 0.447487 2.33518
0.76077 0.44665 2.42948
0.72717 0.445723 2.40612
0.597718 0.444891 2.33424
0.710502 0.44406 2.38352
0.691746 0.443416 2.36583
0.653262 0.442503 2.34012
0.638508 0.441679 2.32573
0.625156 0.441043 2.31081
0.441082 0.440307 2.21124
0.668288 0.439591 2.31722
0.596961 0.43896 2.27338
0.601165 0.438227 2.26805
0.436759 0.437522 2.17827
0.396794 0.436899 2.15018
0.608702 0.436277 2.24804
0.455639 0.435658 2.16344
0.428525 0.435042 2.14183
0.478732 0.434428 2.1589
0.416938 0.433817 2.11998
0.634827 0.433208 2.22092
0.540716 0.432603 2.16588
0.485975 0.43206 2.1301
0.450597 0.431458 2.10446
0.400425 0.430917 2.07102
0.519038 0.430318 2.12241
0.372933 0.429849 2.04054
0.380909 0.42931 2.03625
0.286702 0.428721 1.98127
0.498848 0.428267 2.07849
0.468257 0.42773 2.05499
0.407447 0.427287 2.01571
0.380429 0.426752 1.99404
0.305418 0.426356 1.94736
0.252144 0.425786 1.91288
0.227388 0.425396 1.89133
0.38932 0.424855 1.96429
0.265219 0.424438 1.89333
0.310723 0.424055 1.90693
0.348673 0.423518 1.91796
0.503842 0.423141 1.98639
0.295149 0.422767 1.87289
0.19905 0.422387 1.81576
0.312832 0.421866 1.86468
0.265458 0.421503 1.83183
0.0741784 0.42114 1.72704
0.398735 0.420788 1.8801
0.259896 0.420438 1.80147
0.161868 0.420088 1.74326
0.301356 0.419568 1.80519
0.335029 0.419228 1.8128
0.392084 0.418891 1.83209
0.278988 0.41856 1.76629
0.277357 0.418215 1.75634
0.197732 0.417716 1.70866
0.245485 0.417395 1.72326
0.286254 0.417078 1.73435
0.189715 0.416766 1.67677
0.213003 0.416458 1.67908
0.263927 0.416119 1.69548
0.144263 0.415816 1.6263
0.261648 0.415518 1.67563
0.225343 0.415225 1.6481
0.210259 0.414936 1.63115
0.101456 0.414768 1.56634
0.209474 0.414318 1.61233
0.244638 0.414039 1.62048
0.224128 0.413764 1.60076
0.231286 0.413658 1.59346
0.214713 0.413392 1.57567
0.259392 0.413063 1.58905
0.311932 0.412802 1.6058
0.33748 0.412546 1.60904
0.136525 0.412293 1.499
0.0906877 0.412045 1.46649
0.276888 0.411801 1.54999
0.267316 0.411722 1.53417
0.102551 0.411485 1.44213
0.0838391 0.411253 1.4231
0.166547 0.411025 1.45476
0.187684 0.410959 1.4542
0.176618 0.410738 1.43893
0.232525 0.410521 1.45712
0.105422 0.410465 1.38238
0.219219 0.410256 1.42947
0.157399 0.410205 1.38733
0.185405 0.410113 1.39048
0.369021 0.409916 1.4724
0.318451 0.409877 1.4358
0.0991959 0.409959 1.31375
0.390015 0.409896 1.44806
0.208788 0.409993 1.34488
0.182178 0.41012 1.31873
0.277465 0.410509 1.3511
0.316357 0.411043 1.35392
0.953245 0.480312 2.61748
1.02768 0.478168 2.65428
0.985594 0.476506 2.63005
0.890221 0.474842 2.57927
0.840434 0.473473 2.54959
0.908835 0.472104 2.57908
0.857141 0.470932 2.5474
0.874924 0.46976 2.55051
0.770992 0.468591 2.49281
0.900481 0.467523 2.55127
0.5272 0.466552 2.35779
0.9099 0.465487 2.54294
0.861975 0.464521 2.51222
0.781249 0.463654 2.46453
0.66745 0.462788 2.40034
0.633625 0.461831 2.37677
0.563281 0.46097 2.33437
0.636271 0.460111 2.36368
0.605029 0.459446 2.33967
0.600352 0.45859 2.33021
0.738264 0.457651 2.39263
0.698198 0.456993 2.36429
0.558964 0.45623 2.28708
0.593455 0.455493 2.29661
0.630624 0.454841 2.30695
0.553532 0.454081 2.26092
0.443486 0.453355 2.19823
0.388803 0.452711 2.16271
0.5382 0.452069 2.22924
0.399441 0.451386 2.15202
0.53817 0.450746 2.21328
0.521056 0.450108 2.19664
0.494518 0.449473 2.17531
0.393764 0.448841 2.11688
0.604306 0.448211 2.21412
0.393273 0.447651 2.10013
0.512081 0.447088 2.1511
0.440601 0.44647 2.10736
0.507417 0.445909 2.13238
0.311599 0.445428 2.02557
0.480583 0.444819 2.10208
0.310228 0.44426 2.0086
0.295346 0.443795 1.99222
0.527181 0.443238 2.09989
0.351503 0.442785 2.00308
0.282817 0.442229 1.96053
0.427599 0.441674 2.02474
0.353002 0.441233 1.97847
0.420844 0.44068 2.00426
0.508547 0.44025 2.0391
0.341714 0.439698 1.9476
0.29494 0.439302 1.91501
0.436949 0.438908 1.97682
0.318737 0.438501 1.90864
0.410921 0.437948 1.94676
0.219204 0.437567 1.84168
0.354633 0.437016 1.90146
0.17377 0.436641 1.80181
0.42754 0.43627 1.91946
0.245598 0.435903 1.81924
0.323868 0.43554 1.84913
0.372174 0.435179 1.86404
0.228768 0.434642 1.78445
0.309813 0.43429 1.8157
0.200081 0.433943 1.75154
0.245109 0.433601 1.76475
0.318056 0.433263 1.7919
0.340208 0.432906 1.79382
0.31746 0.432574 1.77312
0.101974 0.432069 1.65742
0.395558 0.431923 1.79345
0.248213 0.431605 1.7104
0.262681 0.431253 1.70853
0.298892 0.43094 1.71724
0.238264 0.430632 1.67751
0.351585 0.430154 1.72614
0.242881 0.429855 1.66233
0.269421 0.429734 1.66474
0.296842 0.429444 1.66896
0.216528 0.429158 1.61929
0.198036 0.428877 1.60051
0.331113 0.428535 1.65803
0.127649 0.428259 1.54675
0.129131 0.427988 1.53792
0.277758 0.427721 1.60265
0.334295 0.427459 1.6213
0.183601 0.427369 1.53492
0.203023 0.427115 1.53498
0.287775 0.426865 1.56768
0.192439 0.426619 1.51031
0.361015 0.426543 1.58348
0.234871 0.426305 1.51067
0.227556 0.426071 1.49725
0.237647 0.426006 1.49111
0.136136 0.425883 1.42966
0.222576 0.42572 1.46255
0.291712 0.425609 1.48633
0.334695 0.425558 1.49654
0.335651 0.425464 1.4861
0.318529 0.425421 1.46619
0.395603 0.42538 1.49336
0.12251 0.425431 1.34464
0.312327 0.425558 1.42672
0.399275 0.425658 1.45759
0.322846 0.42619 1.40295
1.08631 0.49873 2.7071
1.07388 0.496518 2.7002
1.1675 0.494297 2.7465
1.13542 0.492578 2.72718
1.07792 0.491162 2.69348
0.865862 0.489949 2.5814
0.907254 0.488535 2.59728
0.893889 0.487324 2.58467
0.820271 0.486216 2.54139
0.851867 0.485009 2.55136
0.956698 0.483804 2.598
0.864446 0.482902 2.54435
0.720664 0.481704 2.46677
0.845127 0.480805 2.52156
0.769434 0.479909 2.47631
0.686458 0.479014 2.42745
0.798782 0.478028 2.47686
0.680739 0.477138 2.41054
0.853504 0.476449 2.48843
0.641151 0.475563 2.37502
0.774925 0.47468 2.43471
0.624211 0.473997 2.35095
0.719735 0.473033 2.3921
0.648503 0.472327 2.3483
0.579402 0.471483 2.30648
0.751765 0.470811 2.38435
0.642532 0.470022 2.32219
0.601968 0.469276 2.29414
0.425292 0.468611 2.19756
0.558006 0.467949 2.25568
0.729246 0.467238 2.33342
0.453125 0.466578 2.18719
0.635433 0.46592 2.27019
0.556842 0.465264 2.22276
0.348755 0.464612 2.11059
0.566714 0.463963 2.21147
0.494526 0.463316 2.16729
0.45281 0.462808 2.13745
0.561888 0.46217 2.18391
0.562 0.461589 2.17554
0.439891 0.460955 2.10644
0.355898 0.460468 2.05544
0.517857 0.459889 2.12807
0.281569 0.459264 2.00191
0.490707 0.458687 2.09818
0.344501 0.458218 2.01607
0.481913 0.457643 2.07652
0.531209 0.457185 2.09212
0.34632 0.456611 1.99147
0.276795 0.456196 1.94742
0.381539 0.455756 1.9907
0.437883 0.455185 2.01074
0.262469 0.454779 1.91374
0.295154 0.454209 1.92199
0.26414 0.453789 1.89735
0.393771 0.453218 1.95414
0.366038 0.452822 1.93102
0.346038 0.45243 1.91176
0.392618 0.452042 1.92577
0.319565 0.451658 1.87997
0.212688 0.451281 1.81722
0.385923 0.45072 1.8959
0.325888 0.450345 1.8566
0.206623 0.449977 1.78765
0.324914 0.449428 1.83885
0.403758 0.44907 1.86893
0.358939 0.448717 1.83716
0.444005 0.448368 1.87032
0.46811 0.448025 1.87298
0.224088 0.447656 1.74178
0.217977 0.447318 1.72932
0.297782 0.446985 1.75981
0.391129 0.446657 1.79705
0.211165 0.446333 1.69762
0.116189 0.446013 1.64066
0.118856 0.445699 1.6325
0.217405 0.445389 1.67227
0.249314 0.445209 1.67773
0.228065 0.444725 1.65898
0.390624 0.444426 1.73072
0.22434 0.444131 1.63802
0.377737 0.44384 1.70514
0.183573 0.443555 1.59846
0.0794546 0.44345 1.53539
0.26976 0.443172 1.6209
0.198432 0.442899 1.57557
0.400025 0.442631 1.66669
0.204306 0.442367 1.55913
0.328902 0.442281 1.61031
0.140718 0.442025 1.50647
0.321345 0.441945 1.58563
0.393874 0.441697 1.61211
0.276204 0.441555 1.54264
0.321795 0.441384 1.55504
0.146174 0.441255 1.45651
0.362423 0.441194 1.55335
0.283503 0.441082 1.50304
0.164909 0.44103 1.43239
0.291192 0.440933 1.48456
0.349431 0.441014 1.50124
0.393943 0.441102 1.51099
0.514147 0.441231 1.55823
0.43977 0.441629 1.50592
0.160255 0.442478 1.3472
1.16213 0.517857 2.76569
1.02218 0.514753 2.69927
1.21094 0.512773 2.79119
1.06923 0.511 2.71684
0.910729 0.509538 2.63246
0.942871 0.507763 2.64521
0.977871 0.506302 2.65774
0.906826 0.505364 2.61438
0.901466 0.503906 2.60685
0.849004 0.502659 2.57464
0.847775 0.501724 2.56634
0.861826 0.500481 2.56748
0.804868 0.499342 2.53259
0.844918 0.498412 2.54506
0.787039 0.497386 2.50917
0.7713 0.49646 2.49382
0.581917 0.495234 2.39345
0.721214 0.494313 2.45568
0.571214 0.493601 2.37209
0.540445 0.492684 2.34936
0.871653 0.49177 2.50765
0.67617 0.490858 2.40264
0.775587 0.490154 2.44387
0.714909 0.489162 2.40682
0.701343 0.488547 2.3911
0.604457 0.487563 2.336
0.561481 0.48687 2.30612
0.673838 0.486134 2.35421
0.418176 0.485364 2.21854
0.479077 0.484601 2.24114
0.73026 0.483919 2.35843
0.635905 0.48318 2.30333
0.561848 0.482499 2.25806
0.46205 0.481821 2.19994
0.556338 0.481145 2.23888
0.562048 0.480473 2.23354
0.634062 0.479804 2.26137
0.506294 0.479137 2.18933
0.639793 0.478618 2.24701
0.40496 0.47796 2.12144
0.448403 0.477358 2.13468
0.351207 0.476705 2.07797
0.649225 0.476105 2.21856
0.505901 0.475455 2.13882
0.343872 0.474964 2.04873
0.404595 0.474366 2.07074
0.348915 0.473887 2.0338
0.419032 0.473291 2.06055
0.436337 0.472823 2.06007
0.27963 0.472229 1.97347
0.335112 0.471802 1.99185
0.380284 0.471181 2.00642
0.530715 0.470761 2.07229
0.409065 0.47017 2.0033
0.304674 0.469735 1.94191
0.537858 0.469146 2.05038
0.407436 0.468737 1.97584
0.322011 0.468332 1.92379
0.15926 0.467923 1.83313
0.327619 0.467336 1.90928
0.404241 0.466942 1.93825
0.347128 0.466552 1.90034
0.361306 0.466163 1.89809
0.353876 0.465585 1.88639
0.433064 0.465207 1.91662
0.409378 0.464833 1.89539
0.397067 0.464464 1.87984
0.174897 0.464099 1.75934
0.372027 0.46374 1.84848
0.423864 0.463385 1.86496
0.321751 0.463004 1.80466
0.124003 0.462655 1.69634
0.303659 0.462311 1.7767
0.372658 0.461972 1.80172
0.264852 0.46145 1.7397
0.340538 0.461121 1.76802
0.137396 0.460983 1.65553
0.277835 0.460663 1.7162
0.335854 0.460348 1.73563
0.33756 0.460037 1.72689
0.297453 0.459731 1.69722
0.339882 0.45943 1.70881
0.208312 0.459133 1.63337
0.409847 0.45895 1.72364
0.371217 0.458736 1.69407
0.198847 0.458452 1.59818
0.223978 0.458173 1.60101
0.209203 0.457899 1.58387
0.230804 0.457809 1.58352
0.244691 0.457542 1.58067
0.335864 0.45728 1.61645
0.200702 0.457201 1.53765
0.0554258 0.457051 1.45434
0.222314 0.456804 1.52789
0.315681 0.456737 1.56327
0.182631 0.456674 1.48543
0.280278 0.456729 1.52199
0.379686 0.45662 1.56073
0.376288 0.456695 1.54662
0.314057 0.456778 1.50301
0.339016 0.457041 1.50156
0.433527 0.457446 1.53372
0.335536 0.458627 1.46334
1.15078 0.536582 2.78447
1.063 0.533702 2.74214
1.10801 0.531662 2.76195
1.17549 0.529297 2.79481
1.08025 0.527789 2.74189
0.924892 0.52628 2.65899
1.02256 0.524772 2.70267
0.84841 0.523265 2.61051
0.962492 0.521976 2.66137
0.75419 0.520793 2.55052
0.868237 0.519507 2.60147
0.934649 0.518327 2.62808
0.681199 0.517047 2.49538
0.722791 0.516086 2.5085
0.791959 0.514813 2.53718
0.734435 0.513856 2.50082
0.78385 0.512901 2.51797
0.93568 0.511948 2.58636
0.835369 0.510903 2.52925
0.686772 0.509955 2.4475
0.795203 0.50901 2.49429
0.856892 0.508067 2.51775
0.946338 0.507339 2.55389
0.542834 0.506401 2.34481
0.749206 0.505553 2.4402
0.603992 0.504745 2.3596
0.58686 0.503899 2.3433
0.608674 0.503019 2.34672
0.690909 0.502386 2.37894
0.44372 0.501543 2.24772
0.449178 0.500756 2.24253
0.465021 0.499979 2.24252
0.558066 0.499279 2.28068
0.593407 0.498649 2.2896
0.857569 0.497812 2.41423
0.539877 0.497116 2.2471
0.697457 0.496424 2.31763
0.563707 0.495735 2.2425
0.554015 0.495198 2.2285
0.616438 0.494425 2.25205
0.724463 0.493743 2.29787
0.521183 0.493218 2.1871
0.491023 0.492545 2.16384
0.609552 0.491924 2.21462
0.616508 0.491256 2.20996
0.53077 0.490754 2.15792
0.545525 0.490136 2.1569
0.565475 0.489646 2.15768
0.45265 0.48903 2.09292
0.43472 0.488552 2.07473
0.376835 0.487938 2.03749
0.433862 0.487324 2.05772
0.370773 0.48686 2.01695
0.436429 0.486248 2.04154
0.262725 0.485817 1.94529
0.52083 0.485373 2.06506
0.530932 0.484764 2.06195
0.420342 0.484344 1.99725
0.425734 0.483928 1.99055
0.472125 0.483511 2.00437
0.476094 0.482905 1.99827
0.182349 0.4825 1.84199
0.45462 0.481896 1.97009
0.42962 0.481496 1.94819
0.382099 0.481101 1.91502
0.247034 0.480711 1.83807
0.38213 0.480326 1.89618
0.196519 0.479945 1.79393
0.367676 0.47957 1.87004
0.278965 0.479199 1.81621
0.364889 0.478804 1.84987
0.411911 0.47844 1.8639
0.429276 0.47808 1.86308
0.302995 0.477725 1.79043
0.453207 0.477375 1.856
0.397546 0.47703 1.81862
0.234621 0.476497 1.72896
0.430406 0.476162 1.81727
0.309979 0.475832 1.74745
0.333783 0.475699 1.74836
0.356468 0.475379 1.75006
0.280049 0.475063 1.70219
0.303019 0.474752 1.704
0.222984 0.474445 1.65428
0.248112 0.474333 1.65575
0.183113 0.474035 1.61352
0.303559 0.473742 1.66398
0.365758 0.473543 1.68465
0.282031 0.473356 1.63227
0.413021 0.473172 1.68724
0.332701 0.4729 1.63722
0.355897 0.472817 1.63756
0.1769 0.47266 1.53736
0.267582 0.472586 1.57138
0.248511 0.472447 1.55102
0.32459 0.472382 1.57769
0.270072 0.472442 1.5381
0.224741 0.472385 1.504
0.353694 0.472458 1.55605
0.267862 0.472852 1.49823
0.230273 0.47326 1.46441
0.462334 0.474464 1.55923
1.31358 0.556909 2.88368
1.17195 0.552861 2.81952
1.0538 0.550435 2.75916
1.04004 0.548329 2.74949
1.07921 0.54622 2.76639
1.07261 0.544665 2.75769
1.01592 0.543109 2.72403
1.00227 0.541555 2.71195
0.839319 0.540003 2.62528
0.92879 0.538781 2.66319
0.90798 0.537456 2.64656
0.877026 0.536238 2.62436
0.946455 0.534918 2.65294
1.04469 0.533926 2.69426
0.944687 0.532935 2.63649
0.713064 0.531624 2.51468
0.831237 0.530638 2.56609
0.829232 0.529654 2.55744
0.789842 0.528354 2.53186
0.837957 0.527376 2.54835
0.834276 0.52662 2.53777
0.630806 0.525646 2.42853
0.500459 0.524674 2.35588
0.693942 0.523705 2.44519
0.658574 0.522918 2.4191
0.561978 0.521994 2.3632
0.601679 0.521033 2.37571
0.67319 0.520294 2.40291
0.693599 0.51942 2.40536
0.604471 0.518605 2.35276
0.539174 0.517873 2.31163
0.645591 0.517003 2.35719
0.563251 0.516201 2.30802
0.733132 0.515479 2.38454
0.530425 0.514759 2.27478
0.482382 0.514043 2.24238
0.511987 0.513246 2.2493
0.597486 0.512531 2.28373
0.483163 0.511819 2.21826
0.508947 0.511111 2.22286
0.618788 0.510406 2.2695
0.546577 0.509864 2.22418
0.582497 0.509169 2.23387
0.472849 0.508526 2.17049
0.497757 0.507835 2.17472
0.572214 0.507317 2.2027
0.512094 0.506677 2.16416
0.549669 0.505997 2.17475
0.493245 0.505497 2.13726
0.411167 0.50486 2.08782
0.363111 0.504224 2.05541
0.370494 0.503737 2.04982
0.472881 0.503103 2.09268
0.322277 0.50263 2.00807
0.506516 0.501997 2.0919
0.457103 0.501556 2.05773
0.531238 0.501103 2.08543
0.428544 0.500473 2.02587
0.362294 0.500043 1.98328
0.360801 0.499616 1.97307
0.432802 0.498984 2.00094
0.524282 0.498565 2.03722
0.189738 0.497939 1.86183
0.279968 0.497525 1.8975
0.442612 0.497114 1.96936
0.369156 0.496707 1.92317
0.365115 0.496304 1.91168
0.426278 0.495907 1.93278
0.374739 0.495515 1.8975
0.250436 0.494924 1.8272
0.457763 0.494543 1.92133
0.442295 0.494166 1.90405
0.362098 0.493795 1.85439
0.344974 0.493429 1.83625
0.181591 0.493068 1.74496
0.233614 0.492712 1.76137
0.346347 0.492511 1.80708
0.508129 0.492161 1.87835
0.409572 0.491815 1.81944
0.409772 0.491474 1.80989
0.336648 0.491139 1.76365
0.309142 0.490808 1.74021
0.558853 0.490554 1.85486
0.138647 0.490237 1.63501
0.233205 0.489924 1.67252
0.378788 0.489617 1.73552
0.345751 0.489508 1.70782
0.358037 0.489209 1.70414
0.0707983 0.489107 1.5493
0.220161 0.488915 1.61342
0.249929 0.488632 1.6184
0.274277 0.488545 1.61927
0.42286 0.48838 1.68283
0.387226 0.488303 1.65366
0.260261 0.488228 1.5788
0.271001 0.48821 1.57238
0.402056 0.488273 1.62553
0.417284 0.488402 1.62028
0.345142 0.488477 1.57173
0.309328 0.488884 1.53889
0.442801 0.489631 1.58815
1.29796 0.572464 2.90477
1.26735 0.569739 2.88901
1.29235 0.567572 2.89847
1.00486 0.565403 2.75182
1.01202 0.563231 2.7526
1.07362 0.561629 2.7779
1.00258 0.560366 2.73529
1.11209 0.558766 2.78468
1.0993 0.557167 2.77299
0.956597 0.555908 2.69472
0.864916 0.554545 2.64255
0.916089 0.553289 2.66132
1.00138 0.551931 2.69773
1.14666 0.55091 2.76248
0.847068 0.54966 2.60602
0.786522 0.548541 2.56847
0.894517 0.547525 2.6147
0.883459 0.546283 2.60263
0.904014 0.545272 2.60523
0.716159 0.544168 2.50415
0.616586 0.543163 2.44675
0.847466 0.54216 2.5546
0.88823 0.541387 2.56623
0.623212 0.540389 2.4262
0.607865 0.539394 2.41104
0.748073 0.538489 2.47322
0.651944 0.537639 2.41697
0.828423 0.536736 2.49736
0.729089 0.535895 2.43955
0.664442 0.534994 2.39944
0.715281 0.534163 2.41674
0.626651 0.533342 2.36429
0.607343 0.532592 2.34615
0.535865 0.531771 2.30235
0.585017 0.531029 2.31846
0.696035 0.530224 2.36589
0.470905 0.529491 2.24489
0.454755 0.528761 2.22839
0.646433 0.528093 2.31548
0.617254 0.527367 2.29251
0.634691 0.526645 2.29286
0.47545 0.525926 2.20489
0.552074 0.525262 2.23457
0.398172 0.524548 2.1493
0.515186 0.524013 2.19848
0.574594 0.523309 2.21988
0.516422 0.522648 2.18226
0.580306 0.521988 2.2057
0.470155 0.52129 2.14238
0.417541 0.520782 2.10673
0.576673 0.520125 2.17787
0.474726 0.519629 2.11753
0.52044 0.518974 2.132
0.55083 0.518514 2.13767
0.363713 0.517839 2.0359
0.508944 0.517386 2.09899
0.575691 0.516925 2.12291
0.596401 0.516275 2.12499
0.171691 0.515625 1.90439
0.35849 0.515184 1.98829
0.291429 0.514748 1.94525
0.577052 0.514099 2.07989
0.383412 0.51367 1.97356
0.286614 0.513245 1.91564
0.398589 0.512824 1.9621
0.405657 0.512407 1.95611
0.451296 0.511994 1.9694
0.330082 0.511567 1.89937
0.546296 0.510967 1.99918
0.406309 0.510566 1.91964
0.538243 0.510172 1.97603
0.365481 0.509785 1.88005
0.427306 0.509403 1.90135
0.323545 0.509026 1.83984
0.370544 0.508654 1.8537
0.434416 0.508287 1.87597
0.317806 0.507926 1.80799
0.348393 0.507569 1.81359
0.24709 0.507218 1.75323
0.336856 0.506871 1.78839
0.4521 0.506734 1.8349
0.378905 0.506397 1.78854
0.229724 0.506065 1.70417
0.414913 0.505737 1.78697
0.363798 0.505617 1.75023
0.29738 0.505299 1.70719
0.342012 0.505077 1.71903
0.213895 0.504772 1.64508
0.325994 0.50467 1.68985
0.277483 0.504478 1.65494
0.182629 0.504386 1.59618
0.49514 0.504299 1.74107
0.370941 0.504132 1.66817
0.335412 0.504174 1.63815
0.402837 0.504101 1.66041
0.271777 0.504158 1.58251
0.46889 0.504418 1.66727
0.409237 0.504958 1.62164
0.417782 0.505381 1.61092
1.32894 0.591955 2.94452
1.38079 0.589153 2.96972
1.09948 0.586685 2.82691
1.15666 0.584453 2.85237
1.17131 0.582565 2.85505
1.28908 0.580916 2.90825
0.826544 0.579029 2.6725
0.970769 0.577382 2.73908
1.04905 0.575736 2.77275
1.00201 0.574438 2.74217
1.03192 0.573035 2.75064
1.00663 0.57174 2.73104
1.01293 0.570342 2.7278
0.879 0.569051 2.65398
0.845687 0.568 2.62936
0.869445 0.566611 2.63498
0.838721 0.565564 2.61173
0.764907 0.564283 2.56816
0.996047 0.563241 2.67592
0.772099 0.5622 2.55618
0.882118 0.561162 2.60346
0.708988 0.560033 2.50967
0.771605 0.559001 2.53332
0.796159 0.557972 2.53796
0.742102 0.557035 2.50287
0.72896 0.556156 2.48799
0.739984 0.555135 2.48596
0.731698 0.554202 2.47387
0.729437 0.553336 2.46448
0.657654 0.552406 2.42071
0.901504 0.551549 2.53441
0.632502 0.5507 2.39168
0.569397 0.549849 2.35195
0.607625 0.549009 2.36287
0.700598 0.548156 2.40127
0.724005 0.547391 2.40445
0.567389 0.54663 2.31763
0.418237 0.545807 2.23492
0.577854 0.545054 2.30625
0.696388 0.544305 2.35704
0.626636 0.543617 2.3134
0.62025 0.542873 2.30178
0.572215 0.542132 2.26935
0.580038 0.541395 2.26486
0.659687 0.540843 2.29528
0.60937 0.54016 2.26148
0.538078 0.539434 2.21747
0.580904 0.538712 2.23053
0.56471 0.538031 2.21388
0.555691 0.537506 2.19995
0.541146 0.536827 2.18417
0.499111 0.536118 2.15485
0.55698 0.535639 2.17418
0.574795 0.534938 2.1748
0.456644 0.534466 2.10613
0.513001 0.533982 2.12481
0.422963 0.533309 2.07142
0.419521 0.532637 2.06136
0.547145 0.532169 2.11565
0.514884 0.531499 2.09123
0.441007 0.531047 2.04471
0.555397 0.5306 2.09234
0.415662 0.530156 2.01289
0.54176 0.529494 2.0677
0.309857 0.529059 1.94217
0.48366 0.528628 2.01948
0.469595 0.528185 2.00295
0.354868 0.527759 1.93601
0.276067 0.527336 1.88703
0.610086 0.526723 2.04566
0.464699 0.526312 1.96335
0.390383 0.525873 1.91678
0.394701 0.525467 1.90934
0.270126 0.525065 1.83744
0.392685 0.524711 1.88883
0.481316 0.524328 1.92345
0.363349 0.523951 1.85476
0.43989 0.523579 1.8833
0.437985 0.523212 1.87261
0.313503 0.52285 1.80061
0.411791 0.522493 1.83998
0.294184 0.522352 1.77002
0.318365 0.522005 1.7723
0.243102 0.521872 1.72348
0.269412 0.521535 1.72679
0.477749 0.521289 1.82053
0.396113 0.520965 1.76981
0.404637 0.520852 1.76279
0.378673 0.520637 1.7392
0.501575 0.520535 1.78931
0.435686 0.520341 1.74565
0.276553 0.520249 1.65468
0.419193 0.52016 1.71458
0.469858 0.520115 1.72821
0.459328 0.520239 1.71009
0.303404 0.520294 1.61975
0.451459 0.520694 1.67904
0.394626 0.521109 1.63576
0.405217 0.521882 1.62373
1.14907 0.612253 2.87665
1.44668 0.608781 3.02706
1.40847 0.606244 3.00557
1.30629 0.604303 2.94953
1.21619 0.602007 2.90122
1.02305 0.600064 2.7999
1.37261 0.598122 2.97
1.07601 0.596428 2.81599
0.954531 0.595088 2.74798
1.11717 0.593397 2.82372
1.07701 0.591708 2.79812
1.12518 0.590374 2.81511
0.990637 0.589042 2.7408
0.812544 0.587606 2.64525
0.89725 0.586278 2.68066
0.884435 0.585197 2.66621
1.01672 0.583771 2.72599
0.893505 0.582695 2.65641
0.902969 0.581377 2.65438
0.908231 0.580305 2.64912
0.859543 0.579235 2.61693
0.789644 0.578168 2.57416
0.817646 0.577009 2.58084
0.778871 0.575949 2.55371
1.09213 0.574891 2.70262
0.844214 0.573836 2.57098
0.715417 0.572961 2.49805
0.849116 0.571976 2.55695
0.790139 0.57093 2.51987
0.496051 0.570053 2.36443
0.642081 0.569088 2.42953
0.511765 0.568209 2.35606
0.69864 0.567334 2.44121
0.718321 0.566468 2.44276
0.659884 0.565587 2.40536
0.675153 0.564727 2.40474
0.576456 0.563945 2.34678
0.866097 0.563165 2.483
0.548872 0.562389 2.31581
0.652771 0.561441 2.36013
0.398507 0.560669 2.22447
0.602394 0.560082 2.31693
0.712238 0.559321 2.36334
0.357241 0.558563 2.17734
0.526284 0.557671 2.25411
0.469874 0.556916 2.21746
0.551698 0.556354 2.24891
0.599264 0.555651 2.26403
0.651139 0.554907 2.28156
0.675937 0.554365 2.28446
0.645662 0.553664 2.26074
0.358504 0.552932 2.10878
0.518153 0.552438 2.17893
0.566509 0.551714 2.19474
0.628818 0.551227 2.21623
0.533425 0.550511 2.16017
0.44958 0.549816 2.10981
0.574933 0.549325 2.16292
0.57721 0.548632 2.15566
0.403255 0.548162 2.05905
0.354196 0.547693 2.0249
0.51567 0.547003 2.09731
0.475726 0.546545 2.06769
0.352652 0.546086 1.99654
0.45425 0.545633 2.03771
0.366491 0.544966 1.98548
0.247932 0.544509 1.91664
0.301674 0.544068 1.93388
0.532487 0.543631 2.03964
0.297859 0.543199 1.91269
0.420557 0.542543 1.96574
0.43613 0.542119 1.96388
0.265279 0.541699 1.86879
0.444493 0.541283 1.94874
0.421558 0.540872 1.9276
0.231368 0.540464 1.82282
0.533979 0.540112 1.96414
0.406929 0.539716 1.8909
0.455617 0.539325 1.90552
0.182183 0.538943 1.75904
0.337878 0.538571 1.82708
0.296041 0.538421 1.79498
0.193457 0.538059 1.73385
0.547703 0.537918 1.89976
0.586834 0.537565 1.90945
0.352177 0.537304 1.78169
0.355581 0.537179 1.7721
0.314887 0.536845 1.74181
0.296185 0.536615 1.72185
0.505824 0.536505 1.81531
0.541544 0.536297 1.82245
0.456237 0.536312 1.76764
0.437164 0.536219 1.74665
0.450548 0.536252 1.74107
0.404624 0.536295 1.70577
0.291061 0.536556 1.63522
0.396057 0.536962 1.67299
0.605906 0.537384 1.76307
1.32005 0.632441 2.9862
1.39217 0.629236 3.02202
1.45615 0.626018 3.05398
1.17949 0.624022 2.9105
1.22154 0.62141 2.92913
1.10198 0.619412 2.8644
1.17069 0.618032 2.89121
1.21304 0.616036 2.90759
1.19444 0.614295 2.89246
1.13342 0.612556 2.85618
1.08036 0.610927 2.82348
1.00577 0.609446 2.77942
1.02418 0.608074 2.78144
1.08174 0.606345 2.8047
1.13781 0.604978 2.82565
0.952355 0.603865 2.72475
0.983104 0.602501 2.73313
0.947749 0.601039 2.70899
0.878619 0.599933 2.66637
0.904124 0.598829 2.6711
0.927007 0.597477 2.67574
0.770981 0.596378 2.58979
0.781944 0.595281 2.58737
0.734819 0.594094 2.55638
0.765161 0.593004 2.56372
0.807699 0.591918 2.57719
0.742388 0.590834 2.53677
0.822523 0.58984 2.56868
0.756433 0.588924 2.52715
0.806466 0.587849 2.54449
0.697842 0.586942 2.48173
0.852615 0.585958 2.55109
0.545869 0.585049 2.38936
0.720709 0.584154 2.4684
0.858044 0.583169 2.52917
0.789948 0.582285 2.48676
0.828318 0.581478 2.49724
0.716708 0.580675 2.43274
0.645136 0.579695 2.38919
0.674835 0.578897 2.3954
0.61997 0.578102 2.35935
0.701924 0.577311 2.39171
0.692646 0.576523 2.37848
0.746686 0.575739 2.39693
0.590951 0.574959 2.3105
0.590073 0.574183 2.30151
0.631142 0.573456 2.31327
0.596079 0.572685 2.28723
0.491351 0.571918 2.22638
0.604687 0.57136 2.27347
0.639492 0.570637 2.28221
0.54638 0.569882 2.22719
0.782821 0.569371 2.33566
0.546406 0.568625 2.20901
0.444052 0.567906 2.14926
0.525916 0.567165 2.18178
0.495328 0.566667 2.15678
0.44973 0.565935 2.12557
0.767004 0.565445 2.27451
0.503452 0.564953 2.13306
0.603433 0.56424 2.17463
0.34131 0.563763 2.03386
0.466863 0.563289 2.08693
0.373224 0.562584 2.03173
0.424288 0.562111 2.0476
0.574852 0.561647 2.11319
0.514621 0.560952 2.07472
0.384075 0.560496 1.99975
0.431688 0.560045 2.01386
0.393688 0.559598 1.98516
0.571558 0.558921 2.06573
0.389135 0.558483 1.96481
0.436209 0.558049 1.97864
0.336018 0.557619 1.91882
0.478896 0.557193 1.98053
0.414979 0.556772 1.93884
0.38854 0.556587 1.91452
0.418239 0.556174 1.91962
0.360219 0.555765 1.88085
0.367727 0.555361 1.87484
0.223014 0.555025 1.79232
0.421209 0.554633 1.88162
0.199285 0.554244 1.76085
0.356198 0.55409 1.8281
0.513996 0.553709 1.89717
0.418804 0.553432 1.83913
0.325981 0.553299 1.78141
0.355653 0.553045 1.78568
0.507676 0.552924 1.85033
0.442723 0.552692 1.80717
0.279659 0.552582 1.71421
0.418191 0.552372 1.77268
0.306674 0.552392 1.7047
0.51085 0.552423 1.79449
0.425277 0.55255 1.73881
0.432351 0.55273 1.7291
0.446685 0.553003 1.72243
0.51017 0.553784 1.7371
1.50052 0.653745 3.09735
1.64859 0.649572 3.17445
1.46659 0.646636 3.08161
1.55712 0.643958 3.12411
1.24883 0.641907 2.96471
1.19517 0.639223 2.93534
1.28545 0.637171 2.97542
1.13641 0.635752 2.89326
0.975912 0.633703 2.8081
1.2552 0.632024 2.94134
1.07954 0.63024 2.84764
1.20366 0.628458 2.90389
0.976364 0.627046 2.78291
1.16709 0.625636 2.87099
1.04766 0.624123 2.80451
1.08755 0.622718 2.81727
0.848816 0.621315 2.69078
0.998297 0.619812 2.7589
0.87749 0.618674 2.69031
0.951178 0.617279 2.72017
1.04454 0.616146 2.75874
0.871326 0.615015 2.66408
0.909394 0.613628 2.67625
0.86145 0.612503 2.6443
0.763081 0.611287 2.58758
0.990781 0.610169 2.69352
0.843831 0.609053 2.61216
0.87174 0.608028 2.61785
0.823539 0.607005 2.58553
0.738193 0.605981 2.53468
0.926326 0.604878 2.62099
0.857309 0.60394 2.57799
0.775836 0.602937 2.52911
0.70514 0.60192 2.48573
0.811026 0.60101 2.53017
0.774468 0.600069 2.50358
0.814766 0.599165 2.51527
0.817356 0.598338 2.50778
0.651861 0.597328 2.41717
0.686248 0.596505 2.42563
0.675107 0.595687 2.41134
0.617306 0.594872 2.37374
0.666057 0.593867 2.39039
0.711795 0.593057 2.4046
0.666916 0.59225 2.37353
0.754956 0.591448 2.40892
0.568275 0.59065 2.30698
0.612752 0.590061 2.31958
0.612081 0.589314 2.31044
0.570944 0.588527 2.2813
0.588371 0.587745 2.28145
0.713429 0.587185 2.33431
0.418547 0.586441 2.17817
0.716357 0.585671 2.31855
0.543665 0.58493 2.22356
0.648641 0.584166 2.26755
0.476191 0.583653 2.17154
0.553934 0.582898 2.20193
0.447416 0.582393 2.1389
0.655893 0.581647 2.23467
0.505632 0.58115 2.14977
0.541577 0.580658 2.15797
0.559162 0.579925 2.1583
0.430774 0.579437 2.08436
0.409101 0.578954 2.06377
0.441411 0.578231 2.07149
0.42517 0.577757 2.05362
0.511329 0.577044 2.08827
0.443772 0.576578 2.04473
0.369915 0.576116 1.99804
0.791804 0.575659 2.19922
0.611978 0.574965 2.10088
0.523068 0.574517 2.04666
0.431241 0.574073 1.99097
0.269702 0.573633 1.90041
0.610033 0.573198 2.06079
0.526622 0.573006 2.00793
0.610984 0.572579 2.04031
0.54581 0.572157 1.99791
0.359272 0.571738 1.89483
0.561472 0.57139 1.98573
0.481703 0.570984 1.93599
0.473426 0.570582 1.92199
0.545573 0.570421 1.94682
0.500009 0.570027 1.91416
0.359255 0.569723 1.83339
0.359752 0.569577 1.82233
0.549922 0.569294 1.90693
0.368075 0.569157 1.80465
0.454775 0.568894 1.83741
0.520248 0.568768 1.85876
0.478514 0.568767 1.82575
0.374007 0.56866 1.76199
0.358584 0.568677 1.74203
0.407464 0.568835 1.75336
0.528801 0.568967 1.80108
0.41883 0.569374 1.73146
0.455102 0.570163 1.7326
1.65915 0.674053 3.20311
1.4236 0.670411 3.08555
1.47917 0.667399 3.11123
1.44447 0.664381 3.09192
1.3906 0.662005 3.0606
1.18673 0.659899 2.95329
1.30912 0.657793 3.00921
1.44505 0.655687 3.07198
1.27936 0.653582 2.98403
1.20738 0.651478 2.94301
1.1037 0.650023 2.88357
1.24384 0.648301 2.9472
1.22397 0.646473 2.93133
1.0153 0.645024 2.81957
1.00651 0.643576 2.8078
1.12504 0.642025 2.86018
1.06474 0.640582 2.82276
1.20819 0.639141 2.88726
0.927449 0.637601 2.74015
1.00612 0.636166 2.77236
1.10578 0.635001 2.81396
0.985104 0.633572 2.74658
0.912118 0.632411 2.70194
0.867603 0.631254 2.67157
0.695225 0.630098 2.57731
0.846195 0.628775 2.64551
0.986065 0.627532 2.70786
0.928531 0.626477 2.67072
0.857253 0.625332 2.62716
0.89082 0.624281 2.63564
0.923032 0.623147 2.64387
0.941654 0.622096 2.64497
0.800145 0.621047 2.56604
0.765487 0.620101 2.5401
0.784304 0.619055 2.54141
0.817137 0.618121 2.54925
0.546739 0.617077 2.40602
0.797482 0.616154 2.52284
0.808721 0.615307 2.51959
0.859381 0.614267 2.537
0.659022 0.613425 2.428
0.602126 0.612388 2.3917
0.765054 0.61155 2.4644
0.608274 0.610716 2.37726
0.784433 0.609886 2.45661
0.519233 0.60906 2.3153
0.622504 0.608238 2.35824
0.545271 0.60742 2.31093
0.590403 0.606605 2.32483
0.666295 0.606014 2.35304
0.668137 0.605246 2.34513
0.469015 0.604444 2.23693
0.655752 0.603647 2.32168
0.553195 0.602882 2.26165
0.689028 0.602091 2.32097
0.552619 0.601537 2.24302
0.777173 0.600775 2.34662
0.627123 0.599997 2.26303
0.460623 0.599476 2.16994
0.553034 0.598707 2.20759
0.551529 0.598195 2.197
0.509729 0.597687 2.16626
0.521745 0.596932 2.16373
0.526322 0.596429 2.1562
0.521484 0.59568 2.14527
0.47819 0.595186 2.11381
0.575548 0.594446 2.15399
0.55173 0.593961 2.13226
0.600233 0.59323 2.14801
0.516489 0.592754 2.09632
0.587941 0.592283 2.12222
0.43213 0.591815 2.03449
0.50518 0.591352 2.06118
0.45769 0.590893 2.0276
0.593825 0.590439 2.08582
0.455961 0.589989 2.00704
0.351532 0.589544 1.94498
0.477477 0.589103 1.99809
0.380943 0.588666 1.93996
0.567268 0.588234 2.02325
0.565207 0.587872 2.01198
0.35992 0.587452 1.89943
0.533901 0.587037 1.97651
0.510016 0.586869 1.95328
0.43011 0.586462 1.90339
0.520052 0.586146 1.93794
0.409106 0.585993 1.87112
0.461799 0.585698 1.88694
0.50069 0.585556 1.895
0.400228 0.585281 1.83415
0.610558 0.585149 1.92788
0.394286 0.585134 1.80763
0.436276 0.585011 1.81715
