ply
format ascii 1.0
comment Created by Open3D
element vertex 1759
property double x
property double y
property double z
end_header
-0.117558 0.166524 0.706104
-0.119928 0.166411 0.696874
-0.12228 0.166297 0.687657
-0.11912 0.166277 0.67883
-0.121436 0.166164 0.669635
-0.123733 0.166052 0.660454
-0.126013 0.165941 0.651286
-0.122696 0.165923 0.642493
-0.124938 0.165812 0.633347
-0.127163 0.165702 0.624213
-0.129369 0.165592 0.615093
-0.125895 0.165577 0.606333
-0.128063 0.165468 0.597234
-0.130212 0.165359 0.588147
-0.132343 0.16525 0.579074
-0.13123 0.165196 0.570199
-0.130804 0.165131 0.561291
-0.132878 0.165023 0.552251
-0.134933 0.164917 0.543223
-0.133786 0.164863 0.53438
-0.13316 0.164801 0.525515
-0.135156 0.164696 0.51652
-0.133983 0.164643 0.507699
-0.135952 0.164538 0.498724
-0.137901 0.164433 0.489762
-0.137044 0.164376 0.480949
-0.135836 0.164324 0.472158
-0.137725 0.16422 0.463227
-0.139595 0.164117 0.454308
-0.141445 0.164015 0.445402
-0.140207 0.163964 0.436643
-0.139102 0.16391 0.427883
-0.140892 0.163809 0.419007
-0.139626 0.163759 0.410268
-0.141386 0.163658 0.401412
-0.143126 0.163558 0.392567
-0.144845 0.163458 0.383734
-0.140485 0.163459 0.375143
-0.142163 0.16336 0.366327
-0.14382 0.163261 0.357523
-0.142495 0.163212 0.348835
-0.144122 0.163114 0.34005
-0.145727 0.163017 0.331277
-0.147312 0.16292 0.322514
-0.145955 0.162871 0.313856
-0.144287 0.162828 0.305212
-0.145808 0.162732 0.296477
-0.144422 0.162685 0.287837
-0.145912 0.16259 0.279121
-0.14738 0.162495 0.270415
-0.148826 0.162401 0.261721
-0.147407 0.162354 0.253109
-0.148822 0.16226 0.244433
-0.150214 0.162167 0.235767
-0.145388 0.162176 0.227254
-0.146737 0.162084 0.218603
-0.148064 0.161992 0.209963
-0.146591 0.161946 0.20139
-0.147886 0.161855 0.192767
-0.149158 0.161764 0.184154
-0.150407 0.161674 0.175552
-0.148899 0.161629 0.167006
-0.150115 0.161539 0.15842
-0.151309 0.16145 0.149845
-0.149775 0.161406 0.141318
-0.150935 0.161317 0.132759
-0.152072 0.161229 0.124211
-0.150513 0.161185 0.115703
-0.151616 0.161098 0.107171
-0.152696 0.161011 0.0986478
-0.151111 0.160968 0.0901586
-0.152156 0.160882 0.0816522
-0.153178 0.160796 0.0731551
-0.151567 0.160753 0.0646843
-0.152554 0.160668 0.0562032
-0.153517 0.160584 0.0477312
-0.15188 0.160541 0.0392784
-0.152808 0.160458 0.0308221
-0.153711 0.160374 0.0223746
-0.152047 0.160333 0.0139396
-0.152915 0.16025 0.00550751
0.545097 0.202575 2.03378
0.505973 0.201729 2.01544
0.481001 0.201155 1.99989
0.456002 0.200581 1.98439
0.437193 0.200127 1.97012
0.418421 0.199673 1.95591
0.404153 0.199307 1.94259
0.388366 0.198911 1.92903
0.374212 0.198547 1.91581
0.362944 0.198239 1.90315
0.348946 0.197879 1.89004
0.337776 0.197573 1.87747
0.326648 0.197268 1.86494
0.315566 0.196965 1.85246
0.301934 0.196613 1.83955
0.290992 0.196313 1.82716
0.280108 0.196014 1.81481
0.273659 0.1958 1.80327
0.262891 0.195504 1.79099
0.252191 0.195209 1.77877
0.245911 0.194999 1.76733
0.235344 0.194707 1.75518
0.231413 0.194542 1.7442
0.218766 0.194211 1.73175
0.214856 0.194047 1.72081
0.204528 0.193761 1.70882
0.19859 0.193559 1.69758
0.19041 0.193314 1.686
0.182635 0.193077 1.67451
0.178778 0.192915 1.66368
0.168802 0.192636 1.65188
0.163182 0.192441 1.64081
0.159359 0.19228 1.63005
0.151294 0.192038 1.61862
0.144143 0.191814 1.60737
0.138788 0.191625 1.59643
0.135013 0.191465 1.58575
0.127033 0.191226 1.57444
0.121797 0.191039 1.56357
0.11665 0.190854 1.55274
0.111593 0.190671 1.54194
0.107881 0.190513 1.53137
0.101325 0.190302 1.52038
0.0963193 0.19012 1.50965
0.0902481 0.189919 1.49877
0.0855117 0.189742 1.48812
0.0818687 0.189587 1.47764
0.0772459 0.189413 1.46704
0.0727226 0.189241 1.45647
0.0691211 0.189087 1.44605
0.0647156 0.188917 1.43554
0.0611405 0.188764 1.42515
0.0542907 0.188549 1.41433
0.0499467 0.188381 1.40387
0.0464081 0.188229 1.39355
0.0421858 0.188064 1.38314
0.0380692 0.187901 1.37277
0.0345767 0.18775 1.3625
0.0305855 0.187589 1.35218
0.0271221 0.187439 1.34195
0.0232584 0.187281 1.33167
0.0198248 0.187132 1.32148
0.0160904 0.186977 1.31125
0.0126874 0.186828 1.30109
0.00929552 0.18668 1.29094
0.00571226 0.186528 1.28079
0.00235185 0.186381 1.27068
0.00282323 0.186305 1.26106
-0.00442632 0.186085 1.25049
-0.00381869 0.186012 1.24092
-0.00712198 0.185866 1.23087
-0.0104133 0.18572 1.22084
-0.0135825 0.185577 1.21084
-0.0168403 0.185433 1.20085
-0.0198711 0.185292 1.19089
-0.0230947 0.185148 1.18093
-0.0259857 0.185011 1.17102
-0.0291745 0.184868 1.16109
-0.0285088 0.184797 1.15162
-0.0350777 0.184592 1.14133
-0.0382181 0.18445 1.13145
-0.0369951 0.184389 1.12208
-0.0401075 0.184249 1.11223
-0.0425614 0.18412 1.10246
-0.045637 0.18398 1.09264
-0.0486991 0.183841 1.08284
-0.0509842 0.183715 1.07314
-0.0540087 0.183577 1.06336
-0.0532762 0.183508 1.054
-0.0554045 0.183386 1.04435
-0.0583855 0.183248 1.03462
-0.0603667 0.18313 1.02501
-0.0633087 0.182993 1.01531
-0.0625419 0.182925 1.00601
-0.0643639 0.182809 0.996446
-0.0672609 0.182674 0.98679
-0.0689342 0.182561 0.977269
-0.071791 0.182427 0.967644
-0.0746331 0.182293 0.958034
-0.0725006 0.18225 0.948913
-0.0753108 0.182117 0.939329
-0.0781061 0.181984 0.92976
-0.079442 0.181878 0.92034
-0.0821957 0.181747 0.9108
-0.084934 0.181615 0.901276
-0.0825225 0.181578 0.892228
-0.0852279 0.181447 0.882728
-0.0879177 0.181317 0.873243
-0.0889125 0.181218 0.863919
-0.0915593 0.181089 0.854462
-0.0941902 0.18096 0.84502
-0.0914981 0.180929 0.836041
-0.0940949 0.180801 0.826623
-0.0966757 0.180673 0.817219
-0.0973265 0.180581 0.807986
-0.0963936 0.180517 0.79889
-0.0989234 0.180391 0.789525
-0.0994091 0.180302 0.780333
-0.101894 0.180177 0.770994
-0.104362 0.180052 0.76167
-0.103393 0.179989 0.75262
-0.103685 0.179904 0.743481
-0.106101 0.179781 0.734193
-0.108499 0.179657 0.724919
-0.105234 0.179637 0.716068
-0.107597 0.179514 0.706816
-0.109942 0.179392 0.697578
-0.112269 0.179271 0.688353
-0.10885 0.179254 0.679536
-0.111141 0.179133 0.670333
-0.113414 0.179012 0.661144
-0.113163 0.178938 0.652133
-0.112095 0.178878 0.643183
-0.114313 0.178759 0.634028
-0.116512 0.178641 0.624887
-0.116066 0.17857 0.615922
-0.118217 0.178452 0.606805
-0.117109 0.178394 0.597896
-0.119234 0.178277 0.588801
-0.118591 0.17821 0.579881
-0.120667 0.178094 0.570809
-0.119526 0.178036 0.561933
-0.121575 0.177921 0.552883
-0.120736 0.177858 0.544005
-0.119568 0.177801 0.53515
-0.12156 0.177687 0.526133
-0.123533 0.177574 0.517128
-0.125486 0.177461 0.508136
-0.121295 0.177458 0.499465
-0.123209 0.177346 0.490492
-0.125103 0.177234 0.481531
-0.126978 0.177123 0.472582
-0.128833 0.177012 0.463645
-0.124468 0.177013 0.455005
-0.126283 0.176903 0.446087
-0.128078 0.176794 0.43718
-0.126812 0.176739 0.428417
-0.128578 0.17663 0.41953
-0.127298 0.176576 0.410781
-0.128785 0.176472 0.401925
-0.127482 0.176419 0.39319
-0.129166 0.176312 0.384345
-0.130831 0.176205 0.37551
-0.132474 0.176099 0.366688
-0.13114 0.176046 0.357983
-0.129357 0.176001 0.3493
-0.130938 0.175897 0.340505
-0.129575 0.175844 0.33182
-0.131126 0.17574 0.323044
-0.132656 0.175637 0.314279
-0.134165 0.175534 0.305525
-0.13277 0.175482 0.296869
-0.130709 0.175443 0.288238
-0.132154 0.175341 0.279511
-0.130729 0.17529 0.270872
-0.132143 0.175189 0.262164
-0.133535 0.175089 0.253466
-0.134906 0.174988 0.244778
-0.133448 0.174939 0.236168
-0.134786 0.174839 0.227499
-0.136103 0.17474 0.218839
-0.134621 0.174691 0.21025
-0.132199 0.174658 0.201684
-0.13345 0.174561 0.193049
-0.134678 0.174464 0.184425
-0.133155 0.174415 0.175859
-0.134351 0.174319 0.167252
-0.135524 0.174223 0.158655
-0.133977 0.174175 0.150108
-0.135117 0.17408 0.141528
-0.136234 0.173986 0.132958
-0.134661 0.173938 0.12443
-0.135745 0.173844 0.115876
-0.136806 0.173751 0.107332
-0.137843 0.173658 0.0987966
-0.136234 0.173612 0.0902948
-0.137237 0.17352 0.0817759
-0.138217 0.173428 0.0732663
-0.136582 0.173382 0.0647827
-0.137527 0.173291 0.056289
-0.138449 0.173201 0.0478042
-0.136788 0.173156 0.0393386
-0.137674 0.173066 0.0308695
-0.138537 0.172977 0.0224091
-0.136849 0.172932 0.0139611
-0.137677 0.172844 0.00551603
0.589391 0.218263 2.07504
0.536301 0.217067 2.05378
0.511386 0.216452 2.0381
0.486427 0.215837 2.02247
0.468602 0.215369 2.00827
0.450785 0.214902 1.99412
0.432512 0.214426 1.97993
0.413815 0.213941 1.96571
0.3952 0.213459 1.95155
0.38391 0.213127 1.93881
0.369899 0.21274 1.9256
0.3587 0.212411 1.91294
0.347542 0.212083 1.90033
0.333796 0.211703 1.88727
0.322763 0.211378 1.87474
0.311782 0.211055 1.86226
0.300857 0.210733 1.84982
0.294384 0.210502 1.8382
0.283571 0.210183 1.82584
0.272822 0.209866 1.81352
0.266513 0.209639 1.80201
0.255893 0.209325 1.78977
0.245347 0.209013 1.77758
0.239225 0.208791 1.76618
0.228825 0.208482 1.75407
0.222839 0.208263 1.74274
0.214596 0.207999 1.73105
0.208692 0.207782 1.71978
0.202478 0.207559 1.70848
0.192799 0.207266 1.69662
0.188926 0.207092 1.68575
0.180774 0.20683 1.6742
0.173393 0.206585 1.6628
0.167891 0.206378 1.65173
0.16146 0.206152 1.64053
0.154403 0.205913 1.62925
0.149087 0.205711 1.61827
0.145296 0.205539 1.60756
0.137287 0.205282 1.59619
0.132091 0.205082 1.58529
0.125703 0.204858 1.57423
0.121966 0.204688 1.5636
0.115313 0.20446 1.55254
0.110333 0.204265 1.54175
0.105447 0.204072 1.531
0.100655 0.203882 1.52028
0.0959598 0.203693 1.50959
0.0913621 0.203507 1.49894
0.0877173 0.20334 1.48844
0.080873 0.203109 1.4775
0.078854 0.202975 1.46728
0.0752514 0.202809 1.45684
0.0683003 0.202576 1.44594
0.0639803 0.202397 1.43543
0.059764 0.202219 1.42496
0.0562139 0.202055 1.4146
0.0521204 0.201881 1.40418
0.0481334 0.201708 1.39379
0.0446296 0.201546 1.38348
0.0407689 0.201376 1.37314
0.0372941 0.201215 1.36287
0.0335616 0.201048 1.35258
0.0301165 0.200887 1.34235
0.0265141 0.200724 1.33211
0.0230994 0.200564 1.32191
0.0196957 0.200404 1.31173
0.0162452 0.200244 1.30155
0.0128727 0.200085 1.29141
0.0095115 0.199927 1.28128
0.00621559 0.199771 1.27117
0.00288658 0.199613 1.26107
0.00365187 0.199538 1.2515
-0.00356966 0.199303 1.24095
-0.00268728 0.19923 1.23142
-0.00595766 0.199075 1.22139
-0.00921608 0.19892 1.21137
-0.0120909 0.198772 1.20142
-0.0153151 0.198618 1.19144
-0.0180497 0.198474 1.18153
-0.021239 0.19832 1.17158
-0.0238324 0.198179 1.16171
-0.0269861 0.198027 1.1518
-0.0263034 0.197951 1.14234
-0.0287442 0.197813 1.13253
-0.0318571 0.197662 1.12266
-0.0341542 0.197527 1.11289
-0.0372303 0.197377 1.10305
-0.0393829 0.197245 1.09333
-0.0424215 0.197096 1.08352
-0.0444288 0.196968 1.07384
-0.0474294 0.19682 1.06407
-0.0504163 0.196672 1.05431
-0.0485336 0.196621 1.04507
-0.0514903 0.196474 1.03534
-0.0544332 0.196327 1.02562
-0.0561111 0.196206 1.01605
-0.0590144 0.196061 1.00636
-0.0568747 0.196015 0.997197
-0.0597469 0.19587 0.987537
-0.0626046 0.195726 0.977892
-0.0639748 0.195611 0.968406
-0.0667919 0.195468 0.958791
-0.0659692 0.195397 0.949538
-0.0671786 0.195285 0.940099
-0.0699487 0.195143 0.930525
-0.071009 0.195035 0.921122
-0.0737372 0.194894 0.911577
-0.0764502 0.194754 0.902047
-0.0737751 0.19472 0.893015
-0.0764548 0.19458 0.883509
-0.0791191 0.194441 0.874018
-0.0798408 0.19434 0.864709
-0.082462 0.194202 0.855247
-0.0850673 0.194064 0.845799
-0.0821144 0.194036 0.836832
-0.0846855 0.193899 0.827408
-0.0872405 0.193763 0.817998
-0.0876217 0.193669 0.808778
-0.0866738 0.193601 0.799674
-0.0891778 0.193466 0.790302
-0.089396 0.193376 0.781122
-0.0918551 0.193242 0.771776
-0.0942975 0.193109 0.762445
-0.0909332 0.193089 0.753567
-0.0933399 0.192956 0.744258
-0.0957297 0.192824 0.734963
-0.0956066 0.192741 0.725864
-0.0945859 0.192675 0.716838
-0.0969225 0.192545 0.707579
-0.0992418 0.192414 0.698333
-0.0989265 0.192335 0.689282
-0.101199 0.192206 0.680062
-0.10014 0.192142 0.671079
-0.099662 0.192066 0.662064
-0.10188 0.191938 0.652877
-0.10408 0.191811 0.643704
-0.102989 0.191747 0.634755
-0.102319 0.191675 0.625784
-0.104463 0.191549 0.616645
-0.106589 0.191424 0.607519
-0.105466 0.191361 0.598601
-0.104603 0.191294 0.589673
-0.106673 0.191169 0.58058
-0.108724 0.191046 0.571499
-0.1045 0.191043 0.562787
-0.106513 0.19092 0.553726
-0.108507 0.190798 0.544678
-0.110482 0.190676 0.535642
-0.106108 0.190677 0.526956
-0.108044 0.190556 0.517939
-0.109961 0.190435 0.508935
-0.111859 0.190315 0.499942
-0.110633 0.190255 0.491117
-0.109195 0.1902 0.482307
-0.111034 0.190081 0.473345
-0.112853 0.189963 0.464395
-0.114652 0.189845 0.455458
-0.109963 0.189852 0.446824
-0.111722 0.189735 0.437904
-0.113461 0.189619 0.428996
-0.115181 0.189503 0.4201
-0.113875 0.189446 0.41134
-0.112024 0.189399 0.402608
-0.113682 0.189284 0.39374
-0.112348 0.189227 0.385
-0.113978 0.189114 0.376152
-0.115587 0.189 0.367315
-0.114231 0.188944 0.358597
-0.112142 0.188902 0.349909
-0.113689 0.18879 0.3411
-0.115215 0.188679 0.332302
-0.11672 0.188568 0.323515
-0.115318 0.188513 0.314831
-0.116792 0.188403 0.306063
-0.114449 0.188366 0.29742
-0.11587 0.188257 0.288671
-0.114428 0.188203 0.280013
-0.115819 0.188095 0.271282
-0.117187 0.187987 0.262561
-0.115723 0.187934 0.253923
-0.11706 0.187827 0.245221
-0.115582 0.187774 0.236596
-0.115728 0.18769 0.227938
-0.114224 0.187637 0.219325
-0.115475 0.187532 0.210658
-0.116704 0.187428 0.202001
-0.11791 0.187324 0.193353
-0.116372 0.187272 0.184767
-0.117546 0.187169 0.176137
-0.118698 0.187067 0.167518
-0.117135 0.187016 0.158951
-0.118255 0.186914 0.150348
-0.119351 0.186813 0.141754
-0.120425 0.186712 0.133171
-0.118827 0.186662 0.12463
-0.11574 0.18664 0.116111
-0.116747 0.18654 0.10755
-0.115117 0.186491 0.0990242
-0.11609 0.186393 0.0904792
-0.11704 0.186295 0.0819434
-0.115385 0.186246 0.0734359
-0.116301 0.186149 0.064916
-0.117193 0.186052 0.056405
-0.118062 0.185956 0.0479031
-0.11637 0.185908 0.0394201
-0.117205 0.185813 0.0309335
-0.118015 0.185718 0.0224558
-0.116297 0.185671 0.0139902
-0.117072 0.185577 0.00552756
0.585088 0.232938 2.09604
0.541824 0.231877 2.07659
0.516913 0.231221 2.06084
0.491986 0.230564 2.04514
0.474189 0.230065 2.03088
0.456412 0.229567 2.01668
0.438669 0.22907 2.00253
0.423548 0.228631 1.98892
0.409427 0.228215 1.97555
0.39094 0.227703 1.96139
0.379716 0.22735 1.94865
0.36853 0.226999 1.93594
0.35476 0.226592 1.92279
0.343693 0.226244 1.91017
0.332676 0.225897 1.8976
0.321712 0.225552 1.88506
0.315217 0.225305 1.87337
0.304361 0.224963 1.86092
0.293566 0.224623 1.84851
0.282838 0.224284 1.83614
0.27656 0.224043 1.8246
0.265962 0.223708 1.81231
0.259807 0.223469 1.80083
0.249351 0.223138 1.78863
0.243169 0.2229 1.7772
0.233023 0.222575 1.76511
0.229092 0.222387 1.75411
0.218887 0.222062 1.74206
0.213091 0.221833 1.73079
0.203056 0.221512 1.71883
0.197416 0.221287 1.70763
0.19099 0.221045 1.69632
0.1837 0.220785 1.68489
0.178236 0.220564 1.67378
0.171725 0.220321 1.66253
0.164761 0.220068 1.65122
0.159484 0.219852 1.64021
0.154294 0.219639 1.62923
0.147641 0.219393 1.61804
0.142485 0.219181 1.60711
0.136194 0.218944 1.59602
0.131295 0.218737 1.58517
0.127557 0.218555 1.57452
0.120764 0.218308 1.56341
0.115918 0.218103 1.55263
0.111167 0.2179 1.54188
0.106513 0.2177 1.53116
0.101956 0.217502 1.52047
0.097499 0.217306 1.50982
0.0938539 0.217128 1.49931
0.0868637 0.216878 1.48832
0.0824659 0.216683 1.47773
0.0781701 0.216492 1.46718
0.0745752 0.216315 1.45674
0.0704001 0.216127 1.44624
0.0663298 0.21594 1.43577
0.0623655 0.215756 1.42533
0.0588336 0.215582 1.41497
0.0549949 0.215401 1.40458
0.0514915 0.215227 1.39425
0.0477804 0.21505 1.38391
0.0443062 0.214877 1.37362
0.0407244 0.214702 1.36334
0.03728 0.214531 1.35308
0.0338292 0.214359 1.34284
0.0304154 0.214188 1.33263
0.0270122 0.214018 1.32242
0.0236199 0.213848 1.31224
0.0203428 0.213681 1.30209
0.0169821 0.213512 1.29194
0.0138399 0.213348 1.28183
0.0105115 0.21318 1.27171
0.00750571 0.213019 1.26166
0.00421023 0.212852 1.25157
0.00524972 0.212778 1.24205
-0.00191979 0.212529 1.23152
-0.000761831 0.212457 1.22202
-0.00399727 0.212292 1.21201
-0.00659939 0.21214 1.20208
-0.00980011 0.211976 1.19209
-0.0122613 0.211828 1.18221
-0.0154267 0.211665 1.17226
-0.0185797 0.211502 1.16233
-0.0208754 0.211358 1.15251
-0.0239923 0.211197 1.1426
-0.0223453 0.211136 1.13326
-0.0254335 0.210975 1.12338
-0.0274558 0.210837 1.11364
-0.0305069 0.210678 1.1038
-0.0335448 0.210518 1.09397
-0.035398 0.210384 1.08429
-0.0383979 0.210226 1.07449
-0.0363755 0.210174 1.06525
-0.0393453 0.210017 1.05548
-0.0423016 0.20986 1.04573
-0.0438521 0.209733 1.03614
-0.0467692 0.209577 1.02641
-0.0481732 0.209453 1.01686
-0.0510505 0.209299 1.00717
-0.0502496 0.209222 0.997861
-0.0514951 0.209102 0.988357
-0.0543266 0.208948 0.978707
-0.055425 0.208831 0.969239
-0.0582156 0.208679 0.959619
-0.0573777 0.208603 0.950359
-0.0583166 0.20849 0.940938
-0.0610601 0.208339 0.931358
-0.0618515 0.20823 0.921972
-0.0645529 0.20808 0.912421
-0.0672392 0.207931 0.902884
-0.0643082 0.207899 0.893866
-0.066961 0.207751 0.884354
-0.0695985 0.207603 0.874857
-0.0700549 0.207501 0.865562
-0.0726491 0.207354 0.856093
-0.0717268 0.207281 0.846937
-0.0720229 0.207182 0.837684
-0.0745671 0.207037 0.828252
-0.074716 0.206941 0.819031
-0.0772159 0.206797 0.809627
-0.0796995 0.206653 0.800237
-0.0762411 0.206633 0.791333
-0.0786896 0.206491 0.781966
-0.0811216 0.206348 0.772612
-0.0775326 0.206331 0.763735
-0.079929 0.20619 0.754404
-0.0823088 0.206049 0.745087
-0.0819633 0.205965 0.735984
-0.084297 0.205825 0.726693
-0.0866139 0.205686 0.717415
-0.0827558 0.205675 0.708591
-0.0850361 0.205536 0.699335
-0.0872992 0.205398 0.690092
-0.0833126 0.20539 0.68129
-0.0855388 0.205253 0.672069
-0.0877475 0.205117 0.66286
-0.086911 0.205043 0.653865
-0.0890722 0.204908 0.644681
-0.0912156 0.204774 0.63551
-0.0900946 0.204706 0.626557
-0.0890707 0.204637 0.617604
-0.0911584 0.204504 0.608466
-0.0932281 0.204371 0.599341
-0.0888321 0.204372 0.590613
-0.0908635 0.20424 0.581508
-0.0928765 0.204109 0.572415
-0.0916972 0.204043 0.563516
-0.0903307 0.203982 0.554632
-0.0922866 0.203852 0.545571
-0.0942239 0.203722 0.536523
-0.0926868 0.203664 0.527671
-0.0914586 0.2036 0.518808
-0.0933379 0.203472 0.50979
-0.0951981 0.203345 0.500785
-0.0934764 0.203291 0.491969
-0.0922134 0.203228 0.483135
-0.0940149 0.203102 0.47416
-0.095797 0.202977 0.465196
-0.0938915 0.202927 0.456414
-0.0925931 0.202865 0.447609
-0.0943157 0.202741 0.438675
-0.0960186 0.202617 0.429753
-0.0939302 0.202572 0.421003
-0.0925958 0.20251 0.412225
-0.0942384 0.202388 0.403332
-0.0958609 0.202267 0.39445
-0.0945053 0.202207 0.385694
-0.0922197 0.202165 0.37698
-0.0937812 0.202045 0.368125
-0.0953224 0.201926 0.359282
-0.0968431 0.201807 0.350451
-0.0914634 0.201829 0.341867
-0.0929428 0.201711 0.333051
-0.0944015 0.201593 0.324246
-0.0958394 0.201477 0.315452
-0.0943995 0.201418 0.306757
-0.0958073 0.201302 0.297981
-0.0930968 0.20127 0.289336
-0.0944509 0.201155 0.280579
-0.0929724 0.201098 0.271909
-0.0942958 0.200984 0.263169
-0.0955979 0.200871 0.25444
-0.0968785 0.200758 0.245722
-0.0911588 0.200787 0.23718
-0.0923968 0.200675 0.228476
-0.0936132 0.200563 0.219782
-0.0948078 0.200452 0.211098
-0.0932569 0.200397 0.20248
-0.0944198 0.200287 0.193813
-0.0955606 0.200178 0.185156
-0.0966794 0.200069 0.176509
-0.0950944 0.200014 0.167918
-0.0935051 0.19996 0.159331
-0.0928837 0.199887 0.150734
-0.0939144 0.19978 0.142119
-0.0922884 0.199726 0.13355
-0.0932863 0.19962 0.124952
-0.0942615 0.199515 0.116363
-0.0926105 0.199462 0.107813
-0.0935526 0.199358 0.0992403
-0.0944718 0.199254 0.0906771
-0.0953679 0.19915 0.0821231
-0.0936811 0.199098 0.0735971
-0.0945436 0.198996 0.0650589
-0.0953828 0.198893 0.0565295
-0.0961986 0.198792 0.048009
-0.0944753 0.198741 0.0395074
-0.0952569 0.19864 0.0310022
-0.0960149 0.19854 0.0225058
-0.0942654 0.19849 0.0140214
-0.0949888 0.198391 0.00553991
0.622487 0.248722 2.13642
0.576567 0.24753 2.11623
0.551714 0.246833 2.10034
0.522565 0.246035 2.08366
0.504781 0.245504 2.0693
0.487009 0.244973 2.05498
0.469263 0.244444 2.04071
0.451555 0.243916 2.02649
0.436664 0.243454 2.01287
0.419039 0.242929 1.99876
0.405287 0.242495 1.98544
0.39407 0.24212 1.97264
0.382891 0.241747 1.95987
0.371754 0.241374 1.94715
0.358111 0.240944 1.934
0.347104 0.240576 1.92137
0.33615 0.240209 1.90878
0.325254 0.239843 1.89623
0.314417 0.23948 1.88373
0.308054 0.23922 1.87207
0.297338 0.23886 1.85965
0.286691 0.238502 1.84727
0.280503 0.238248 1.83572
0.269993 0.237893 1.82343
0.259561 0.237541 1.81118
0.253572 0.237292 1.79974
0.243294 0.236944 1.78757
0.237448 0.236699 1.77621
0.229171 0.236397 1.76444
0.223412 0.236155 1.75314
0.215171 0.235855 1.74143
0.207802 0.235575 1.72989
0.202278 0.235339 1.7187
0.195726 0.235078 1.70734
0.188675 0.234807 1.69593
0.183333 0.234575 1.68483
0.176692 0.234314 1.67353
0.169977 0.234051 1.66224
0.164826 0.233824 1.65123
0.158094 0.233561 1.63999
0.152977 0.233336 1.62902
0.146782 0.233086 1.61791
0.141924 0.232867 1.60702
0.138172 0.232673 1.59633
0.133422 0.232457 1.5855
0.12649 0.232191 1.57435
0.12178 0.231976 1.56357
0.117167 0.231763 1.55282
0.112652 0.231553 1.5421
0.108236 0.231346 1.53142
0.10392 0.23114 1.52077
0.100276 0.230951 1.51024
0.0931424 0.230682 1.4992
0.0888878 0.230479 1.48862
0.0847364 0.230278 1.47806
0.0811423 0.23009 1.46761
0.077113 0.229893 1.45711
0.0731896 0.229698 1.44664
0.0693731 0.229506 1.4362
0.0658428 0.22932 1.42582
0.0621531 0.229131 1.41543
0.0586515 0.228947 1.40509
0.0550904 0.228761 1.39475
0.051618 0.228578 1.38444
0.0481557 0.228394 1.37415
0.0447035 0.228212 1.36388
0.0413126 0.22803 1.35363
0.0380337 0.227852 1.34341
0.0346325 0.227671 1.33319
0.0314873 0.227496 1.32301
0.0281175 0.227316 1.31283
0.0251073 0.227144 1.3027
0.0217697 0.226965 1.29255
0.0188958 0.226797 1.28248
0.0155909 0.226619 1.27236
0.0162195 0.22653 1.26275
0.00958307 0.226277 1.25225
0.010225 0.226189 1.24266
0.00763684 0.226028 1.23269
0.00440349 0.225852 1.22265
0.00195513 0.225694 1.21273
-0.00124348 0.22552 1.20272
-0.00355109 0.225366 1.19284
-0.00671436 0.225192 1.18287
-0.00888038 0.225042 1.17303
-0.0120077 0.224869 1.16309
-0.0102218 0.224808 1.15374
-0.0171223 0.224551 1.14339
-0.0164069 0.224465 1.13393
-0.0182769 0.224322 1.12419
-0.021326 0.224152 1.11432
-0.0230523 0.224012 1.10462
-0.0260637 0.223844 1.09479
-0.0276458 0.223707 1.08513
-0.0306188 0.22354 1.07533
-0.028338 0.22349 1.06611
-0.0312807 0.223324 1.05634
-0.0342098 0.223157 1.04658
-0.035491 0.223028 1.03701
-0.0383808 0.222863 1.02728
-0.0395168 0.222738 1.01775
-0.0423666 0.222574 1.00805
-0.04155 0.222492 0.998734
-0.0425288 0.222371 0.989247
-0.0453326 0.222208 0.979592
-0.0461661 0.22209 0.970142
-0.0489288 0.221929 0.960515
-0.048075 0.221848 0.951248
-0.0487508 0.221734 0.941843
-0.0514663 0.221574 0.932257
-0.0519969 0.221463 0.922886
-0.0546702 0.221305 0.913328
-0.0537778 0.221226 0.904108
-0.0541507 0.221118 0.89478
-0.0567755 0.220961 0.885261
-0.0570038 0.220858 0.875966
-0.0595853 0.220702 0.866475
-0.0586529 0.220624 0.8573
-0.058724 0.220524 0.848046
-0.0612557 0.22037 0.838592
-0.061183 0.220273 0.829369
-0.0636706 0.22012 0.819943
-0.0626968 0.220043 0.810812
-0.0624677 0.219951 0.801627
-0.0649043 0.219799 0.792237
-0.0645328 0.219709 0.783082
-0.0669242 0.219559 0.773718
-0.0692994 0.219409 0.764369
-0.0653812 0.219398 0.75551
-0.0677204 0.219249 0.746183
-0.070043 0.219101 0.736869
-0.0693463 0.219019 0.727789
-0.0682861 0.218945 0.718741
-0.0705556 0.218798 0.709463
-0.069705 0.21872 0.700416
-0.0719279 0.218574 0.691162
-0.0708368 0.218502 0.682148
-0.0698333 0.218427 0.673133
-0.072002 0.218283 0.663913
-0.0708866 0.218211 0.654922
-0.072982 0.218068 0.645727
-0.071845 0.217997 0.636752
-0.070705 0.217926 0.627783
-0.072619 0.217788 0.618629
-0.0746672 0.217647 0.609479
-0.0700156 0.217653 0.600745
-0.0720258 0.217513 0.591615
-0.0740179 0.217374 0.582496
-0.0724122 0.217313 0.573597
-0.0712027 0.217244 0.564681
-0.0731382 0.217106 0.555594
-0.0719176 0.217038 0.546693
-0.0732717 0.216913 0.537658
-0.0751394 0.216777 0.528605
-0.0701302 0.216791 0.519924
-0.0719589 0.216656 0.51089
-0.0737688 0.216521 0.501868
-0.0724911 0.216454 0.493011
-0.0704178 0.216405 0.484197
-0.0721693 0.216272 0.475205
-0.0708649 0.216206 0.466367
-0.0716698 0.216093 0.457438
-0.0703418 0.216028 0.448614
-0.0720151 0.215897 0.439663
-0.0696425 0.215854 0.430897
-0.0712648 0.215725 0.421966
-0.0728674 0.215596 0.413046
-0.0673894 0.215621 0.404425
-0.0689518 0.215493 0.395522
-0.0704942 0.215365 0.386629
-0.069094 0.215302 0.377859
-0.0664137 0.215266 0.369142
-0.0678955 0.21514 0.360277
-0.0693572 0.215015 0.351423
-0.06792 0.214952 0.342679
-0.0650725 0.214921 0.333988
-0.0664728 0.214797 0.32516
-0.0678526 0.214674 0.316343
-0.0663778 0.214612 0.307625
-0.0633651 0.214584 0.298957
-0.0646829 0.214463 0.290166
-0.0659798 0.214342 0.281385
-0.0672558 0.214221 0.272614
-0.0612908 0.214257 0.264046
-0.0625251 0.214138 0.25529
-0.0637382 0.214019 0.246544
-0.06493 0.213901 0.237808
-0.0633687 0.213842 0.229146
-0.0599988 0.213822 0.220528
-0.0611272 0.213705 0.211816
-0.0622339 0.213589 0.203114
-0.063319 0.213473 0.194422
-0.0617084 0.213416 0.185789
-0.0627619 0.213301 0.177114
-0.0591672 0.213286 0.168527
-0.060166 0.213173 0.159867
-0.0585151 0.213116 0.151257
-0.0594818 0.213004 0.142613
-0.0604262 0.212892 0.133979
-0.0613483 0.21278 0.125355
-0.0596629 0.212725 0.11677
-0.0605525 0.212615 0.108161
-0.0614195 0.212505 0.0995622
-0.0622638 0.212395 0.090972
-0.0605432 0.212341 0.0824118
-0.0613544 0.212232 0.0738373
-0.0621426 0.212124 0.0652717
-0.0629079 0.212017 0.0567149
-0.0611515 0.211964 0.0481789
-0.0618831 0.211857 0.0396374
-0.0625915 0.211751 0.0311045
-0.0632765 0.211646 0.0225801
-0.0614836 0.211594 0.0140678
-0.0621344 0.211489 0.00555828
0.664097 0.264758 2.17798
0.618442 0.263501 2.15763
0.582316 0.26248 2.13931
0.557476 0.261741 2.12334
0.535436 0.261072 2.108
0.517674 0.260509 2.09357
0.492875 0.259773 2.07778
0.482216 0.259387 2.06485
0.464546 0.258828 2.05057
0.446934 0.258271 2.03636
0.432074 0.257783 2.02272
0.421497 0.257401 2.00995
0.408296 0.256954 1.9967
0.392874 0.256453 1.98307
0.379204 0.255996 1.96982
0.368164 0.255604 1.95709
0.357176 0.255214 1.94442
0.346242 0.254825 1.93178
0.339803 0.254547 1.92001
0.328979 0.254162 1.90745
0.318218 0.253779 1.89494
0.305322 0.253343 1.88207
0.301308 0.253127 1.87085
0.290747 0.252749 1.85846
0.280261 0.252374 1.84612
0.274237 0.252109 1.83461
0.263901 0.251738 1.82235
0.258015 0.251476 1.81091
0.247839 0.25111 1.79873
0.242101 0.250853 1.78737
0.233819 0.250533 1.77558
0.228172 0.250279 1.76427
0.219925 0.249961 1.75254
0.21279 0.24967 1.74102
0.207385 0.249422 1.72982
0.200708 0.249144 1.71843
0.1939 0.248862 1.70704
0.188682 0.248619 1.69593
0.181913 0.248339 1.68459
0.175451 0.248067 1.67333
0.170429 0.247829 1.66232
0.163564 0.247548 1.65103
0.158578 0.247312 1.64006
0.153683 0.247079 1.62913
0.147924 0.246824 1.61809
0.144173 0.246619 1.60738
0.13716 0.246335 1.59617
0.132491 0.246108 1.58536
0.127919 0.245884 1.57458
0.123445 0.245662 1.56383
0.11907 0.245443 1.55311
0.114796 0.245226 1.54243
0.110624 0.245012 1.53178
0.106982 0.244811 1.52123
0.0997069 0.244522 1.51015
0.0955966 0.244311 1.49957
0.0915905 0.244102 1.48902
0.0879987 0.243903 1.47854
0.084116 0.243697 1.46804
0.0803401 0.243494 1.45757
0.0767939 0.243297 1.44715
0.0731445 0.243097 1.43674
0.069604 0.2429 1.42635
0.0661054 0.242705 1.41599
0.0626165 0.24251 1.40564
0.0592251 0.242317 1.39532
0.0557658 0.242123 1.38501
0.0525058 0.241934 1.37475
0.0490767 0.241741 1.36447
0.0459494 0.241556 1.35425
0.0425513 0.241364 1.34401
0.039558 0.241182 1.33384
0.0361915 0.240991 1.32363
0.0333335 0.240812 1.31351
0.0299992 0.240623 1.30334
0.0272776 0.240448 1.29326
0.0239761 0.240259 1.28313
0.0253103 0.240182 1.27359
0.018124 0.239901 1.26299
0.0195763 0.239827 1.2535
0.0163347 0.23964 1.24342
0.0140155 0.239476 1.23348
0.0108084 0.239291 1.22344
0.00862917 0.23913 1.21354
0.00545723 0.238946 1.20353
0.00341867 0.238789 1.19367
0.000282404 0.238606 1.1837
0.00098289 0.238514 1.17419
-0.00471488 0.238271 1.16394
-0.00399937 0.23818 1.15445
-0.00574401 0.238031 1.14469
-0.0088027 0.23785 1.13479
-0.0104049 0.237705 1.12507
-0.0134261 0.237526 1.11521
-0.0148856 0.237384 1.10553
-0.0178688 0.237206 1.09569
-0.0154568 0.237156 1.08646
-0.0184098 0.236979 1.07665
-0.0195973 0.236844 1.06704
-0.0225113 0.236668 1.05726
-0.0235557 0.236537 1.0477
-0.0264304 0.236362 1.03795
-0.0256198 0.236275 1.0286
-0.0265092 0.236148 1.01907
-0.0293387 0.235975 1.00937
-0.0300851 0.235851 0.999884
-0.0328741 0.23568 0.990207
-0.0334777 0.23556 0.980758
-0.0362257 0.235389 0.97111
-0.0353607 0.235304 0.961825
-0.0358094 0.235188 0.952421
-0.0385103 0.235019 0.942812
-0.0388168 0.234906 0.933442
-0.0414757 0.234739 0.923862
-0.0405722 0.234655 0.914623
-0.0407241 0.234546 0.905294
-0.0433347 0.23438 0.895753
-0.0433454 0.234275 0.886457
-0.0459131 0.23411 0.876943
-0.0422933 0.234091 0.867982
-0.0448267 0.233927 0.858492
-0.0445724 0.233828 0.849253
-0.047062 0.233666 0.83979
-0.0495362 0.233504 0.830341
-0.0456772 0.23349 0.821428
-0.0481165 0.233329 0.812001
-0.047572 0.233238 0.802828
-0.0499666 0.233078 0.793428
-0.0489462 0.232998 0.78431
-0.0482512 0.232911 0.775173
-0.0505943 0.232753 0.765809
-0.0497635 0.232669 0.756698
-0.0520611 0.232512 0.747359
-0.0509973 0.232434 0.738282
-0.050018 0.232354 0.729205
-0.0522629 0.232198 0.719901
-0.0511502 0.232121 0.710849
-0.0533489 0.231967 0.70157
-0.0488199 0.23197 0.692771
-0.0509819 0.231817 0.683512
-0.0531268 0.231665 0.674266
-0.0517375 0.231595 0.665268
-0.0538354 0.231444 0.656046
-0.0490882 0.231452 0.647281
-0.0511489 0.231302 0.638079
-0.0499778 0.231227 0.629093
-0.0515319 0.231089 0.619943
-0.050339 0.231015 0.610973
-0.049143 0.230941 0.602008
-0.0505266 0.230807 0.592896
-0.0493085 0.230733 0.583946
-0.0473999 0.230676 0.575043
-0.0493018 0.230531 0.565927
-0.0472711 0.230476 0.557042
-0.0491243 0.230332 0.547948
-0.043878 0.230352 0.53925
-0.0456928 0.230209 0.530174
-0.0444087 0.230138 0.521271
-0.0452056 0.230019 0.512267
-0.0438987 0.229948 0.503379
-0.041515 0.229902 0.494549
-0.0432233 0.229762 0.485524
-0.0407258 0.229719 0.47671
-0.0423843 0.22958 0.467705
-0.0367843 0.229609 0.459045
-0.0384038 0.229471 0.450057
-0.0370288 0.229402 0.441212
-0.0372708 0.229297 0.432302
-0.0358723 0.229229 0.42347
-0.0330479 0.229194 0.414703
-0.0316306 0.229126 0.405881
-0.0316296 0.229026 0.397008
-0.0301886 0.228959 0.388199
-0.0271736 0.228929 0.379454
-0.0257138 0.228863 0.370655
-0.0254794 0.228768 0.361816
-0.0194507 0.228807 0.353189
-0.0208001 0.228677 0.344305
-0.0175415 0.228652 0.335586
-0.0142223 0.228628 0.326871
-0.00804899 0.22867 0.318248
-0.00650533 0.228606 0.309479
0.0016077 0.228693 0.300912
0.653287 0.279447 2.19793
0.61725 0.278371 2.17945
0.592467 0.27759 2.16335
0.563365 0.276697 2.14644
0.545627 0.276102 2.13189
0.527904 0.275508 2.1174
0.505922 0.274804 2.1021
0.48827 0.274213 2.08771
0.477643 0.273806 2.07477
0.460076 0.273219 2.06049
0.445218 0.272703 2.04679
0.434658 0.272299 2.03396
0.421526 0.271829 2.02067
0.406761 0.271317 2.0071
0.393783 0.270851 1.99392
0.382755 0.270437 1.98114
0.37178 0.270025 1.96841
0.360859 0.269614 1.95572
0.349996 0.269205 1.94307
0.336934 0.26874 1.93004
0.332891 0.268509 1.91873
0.322212 0.268107 1.9062
0.309496 0.267651 1.89334
0.303169 0.267362 1.88168
0.295009 0.267026 1.8697
0.284618 0.266632 1.85735
0.278695 0.266354 1.84584
0.26846 0.265965 1.83357
0.26198 0.265673 1.82201
0.252611 0.265307 1.80995
0.246985 0.265038 1.79858
0.2387 0.264701 1.78677
0.233168 0.264435 1.77547
0.224918 0.264099 1.76371
0.21802 0.263798 1.75221
0.212738 0.263539 1.74101
0.205937 0.263242 1.72958
0.199376 0.262951 1.71821
0.194285 0.262698 1.7071
0.187389 0.262398 1.69572
0.182332 0.262147 1.68466
0.176291 0.26187 1.67346
0.171492 0.261625 1.66249
0.164442 0.261323 1.65117
0.159681 0.26108 1.64024
0.155014 0.260839 1.62935
0.150443 0.260602 1.61849
0.143296 0.260298 1.60724
0.138765 0.260062 1.59643
0.134332 0.259828 1.58565
0.129999 0.259597 1.5749
0.125766 0.259369 1.56419
0.121635 0.259144 1.55351
0.11798 0.258931 1.54292
0.113969 0.258709 1.53229
0.106555 0.258401 1.52117
0.106261 0.258275 1.51113
0.102667 0.258064 1.50062
0.095141 0.257753 1.48954
0.0914054 0.25754 1.47904
0.0878444 0.257331 1.46858
0.0842351 0.257121 1.45814
0.080702 0.256913 1.44772
0.0772206 0.256706 1.43732
0.0738488 0.256503 1.42695
0.0703641 0.256297 1.41659
0.0671227 0.256097 1.40627
0.0636677 0.255892 1.39594
0.0605581 0.255696 1.38567
0.0571334 0.255492 1.37538
0.054157 0.2553 1.36516
0.0507632 0.255097 1.3549
0.047921 0.254909 1.34473
0.0445589 0.254707 1.3345
0.0418521 0.254523 1.32438
0.0424738 0.254423 1.31471
0.0359518 0.254141 1.30411
0.0365865 0.254042 1.29446
0.0341406 0.253864 1.28443
0.0308696 0.253666 1.2743
0.0285617 0.253493 1.26431
0.0253247 0.253296 1.25422
0.0231556 0.253126 1.24427
0.0211023 0.252959 1.23435
0.0179233 0.252764 1.22431
0.0160097 0.252601 1.21443
0.0128661 0.252407 1.20442
0.0135677 0.252311 1.19488
0.0118049 0.252152 1.18506
0.00870147 0.25196 1.17509
0.00707931 0.251805 1.16531
0.00401255 0.251614 1.15538
0.00253137 0.251463 1.14564
-0.000498246 0.251273 1.13574
-0.00183825 0.251126 1.12604
-0.00107832 0.251031 1.11659
-0.00229105 0.250888 1.10692
-0.00525291 0.2507 1.09708
-0.00632447 0.25056 1.08745
-0.00924775 0.250374 1.07764
-0.0101782 0.250238 1.06805
-0.0130624 0.250053 1.05827
-0.0101763 0.250013 1.0491
-0.0130293 0.249829 1.03934
-0.0136926 0.2497 1.02983
-0.0165057 0.249517 1.0201
-0.0170288 0.249392 1.01061
-0.0198015 0.249211 1.00092
-0.0189423 0.249121 0.991591
-0.0193133 0.249 0.982152
-0.0220397 0.24882 0.972493
-0.0222713 0.248703 0.963088
-0.0249564 0.248524 0.953458
-0.0214875 0.248499 0.944423
-0.0241396 0.248322 0.934817
-0.0241092 0.248212 0.925473
-0.0267191 0.248036 0.915895
-0.0265517 0.247929 0.906583
-0.0291191 0.247754 0.897032
-0.0253198 0.247738 0.888062
-0.0278532 0.247565 0.878534
-0.0274294 0.247465 0.869278
-0.0299195 0.247292 0.859778
-0.0289358 0.247207 0.850587
-0.0283646 0.247111 0.841368
-0.030805 0.24694 0.831904
-0.0301006 0.246847 0.822713
-0.0290816 0.246763 0.813554
-0.0282606 0.246673 0.804386
-0.0306219 0.246505 0.794971
-0.0296705 0.246419 0.785829
-0.031987 0.246252 0.77644
-0.0309065 0.24617 0.767324
-0.0298312 0.246087 0.758214
-0.0286386 0.246007 0.749119
-0.0308742 0.245843 0.739776
-0.0295557 0.245767 0.730705
-0.0317457 0.245604 0.721386
-0.0270159 0.245611 0.712573
-0.0291696 0.24545 0.703275
-0.0276197 0.245379 0.694246
-0.0264696 0.245299 0.685196
-0.0248143 0.245231 0.676185
-0.0268854 0.245072 0.66693
-0.0251112 0.245007 0.657941
-0.023923 0.244928 0.648918
-0.0220474 0.244866 0.639946
-0.0208419 0.244788 0.630935
-0.0220444 0.24465 0.621781
-0.016809 0.244671 0.613032
-0.0187296 0.244516 0.603848
-0.016561 0.244461 0.59492
-0.0153022 0.244384 0.585942
-0.0130407 0.244332 0.577028
-0.010703 0.244282 0.568122
-0.00941214 0.244206 0.559161
-0.00698617 0.244158 0.550268
-0.00448875 0.244112 0.541383
-0.00192233 0.244067 0.532505
0.003752 0.244099 0.523793
0.00643377 0.244057 0.514924
0.0121939 0.24409 0.506215
0.019424 0.244159 0.497575
0.695171 0.29573 2.24001
0.652248 0.294404 2.21991
0.62753 0.293582 2.20368
0.59846 0.292641 2.18662
0.576435 0.291895 2.17107
0.558723 0.291269 2.15646
0.541031 0.290644 2.1419
0.51907 0.289902 2.12652
0.501459 0.28928 2.11208
0.490846 0.288852 2.09908
0.473327 0.288234 2.08474
0.462763 0.287808 2.07182
0.445367 0.287195 2.05759
0.434868 0.286771 2.04476
0.420112 0.286231 2.03113
0.409668 0.28581 2.01837
0.396824 0.285324 2.00519
0.386471 0.284906 1.99252
0.375565 0.284473 1.97977
0.364717 0.284043 1.96707
0.35393 0.283615 1.95441
0.343209 0.283188 1.94179
0.33472 0.282824 1.92963
0.3264 0.282464 1.91752
0.315881 0.282044 1.90503
0.307441 0.281682 1.89296
0.299479 0.281333 1.881
0.289188 0.280921 1.86865
0.283369 0.280631 1.85713
0.273239 0.280224 1.84486
0.26757 0.279939 1.83342
0.259241 0.279581 1.82152
0.253664 0.279299 1.81014
0.245369 0.278944 1.7983
0.2384 0.278624 1.78672
0.231627 0.278311 1.7752
0.224836 0.277997 1.7637
0.219605 0.277725 1.75248
0.211412 0.277374 1.74079
0.206287 0.277106 1.72964
0.200141 0.276811 1.71834
0.1963 0.276578 1.70744
0.188191 0.27623 1.69585
0.183355 0.275971 1.68483
0.178612 0.275715 1.67385
0.173962 0.275462 1.66289
0.166787 0.27514 1.65155
0.161414 0.274868 1.64052
0.156981 0.274621 1.62966
0.152647 0.274377 1.61884
0.148412 0.274136 1.60805
0.144707 0.273909 1.59736
0.137317 0.273584 1.58611
0.133142 0.273345 1.57539
0.129069 0.273109 1.5647
0.125099 0.272876 1.55404
0.121233 0.272647 1.54341
0.117608 0.272424 1.53284
0.113865 0.272198 1.52227
0.110229 0.271975 1.51173
0.102565 0.271644 1.5006
0.103078 0.271533 1.49071
0.0954212 0.271202 1.47963
0.0919601 0.270985 1.46918
0.0925091 0.270875 1.45933
0.0850994 0.270553 1.44835
0.0856591 0.270444 1.43852
0.0783974 0.270125 1.4276
0.0753056 0.269919 1.41728
0.071856 0.269703 1.40693
0.0688962 0.2695 1.39667
0.0694869 0.269393 1.3869
0.0626505 0.269087 1.37613
0.0632531 0.26898 1.3664
0.0565701 0.268679 1.35568
0.057185 0.268573 1.34597
0.0546154 0.268382 1.33584
0.0521596 0.268194 1.32574
0.0488505 0.267983 1.31554
0.0465312 0.267799 1.30549
0.0432552 0.26759 1.29532
0.0410729 0.26741 1.28532
0.0378306 0.267202 1.27519
0.0357861 0.267026 1.26522
0.0325781 0.26682 1.25512
0.0306719 0.266648 1.2452
0.0313609 0.266545 1.23561
0.0295801 0.266377 1.22573
0.0264346 0.266173 1.2157
0.0247927 0.266008 1.20586
0.021683 0.265805 1.19585
0.0201803 0.265645 1.18605
0.0187921 0.265488 1.17628
0.0157435 0.265287 1.16632
0.0164893 0.265187 1.15682
0.011483 0.264934 1.14667
0.0122444 0.264835 1.13718
0.0111458 0.264686 1.1275
0.0101608 0.264541 1.11784
0.00721706 0.264343 1.10797
0.00637074 0.264202 1.09835
0.0034655 0.264006 1.08852
0.00645068 0.263966 1.07933
0.00357625 0.263771 1.06952
0.00299203 0.263637 1.05997
0.00015693 0.263444 1.05019
-0.000289843 0.263313 1.04067
-0.00308518 0.263121 1.03092
0.000235194 0.26309 1.02181
-0.00252832 0.262899 1.01208
-0.00271651 0.262776 1.00263
-0.00543949 0.262587 0.992932
-0.00549226 0.262468 0.983512
-0.00817428 0.26228 0.973844
-0.00452635 0.262258 0.964801
-0.00717563 0.262071 0.955158
-0.00697487 0.261959 0.945797
-0.00958248 0.261773 0.936181
-0.00572471 0.261757 0.927179
-0.00829902 0.261572 0.917587
-0.00784898 0.261467 0.908283
-0.0103809 0.261284 0.898718
-0.00980061 0.261183 0.889443
-0.00881652 0.261092 0.880212
-0.00812208 0.260993 0.870961
-0.00732825 0.260898 0.861726
-0.00975515 0.260718 0.852223
-0.00541049 0.260715 0.843304
-0.00780301 0.260537 0.833824
-0.00677348 0.260447 0.824638
-0.00912226 0.26027 0.815183
-0.00796972 0.260184 0.806023
-0.00690197 0.260097 0.796862
-0.00564313 0.260014 0.787723
-0.00455933 0.259926 0.778576
-0.00319595 0.259846 0.769457
-0.00174361 0.259769 0.76035
-0.000629902 0.259682 0.751223
-0.00238107 0.259522 0.74189
-0.000727921 0.25945 0.732817
0.00428224 0.259465 0.723993
0.00543997 0.25938 0.714892
0.00400055 0.259227 0.705615
0.0059098 0.259162 0.696581
0.0111204 0.259182 0.687778
0.0123225 0.259099 0.678702
0.0143811 0.259038 0.66969
0.019708 0.259061 0.660897
0.021893 0.259003 0.651899
0.0283559 0.259056 0.643178
0.0338586 0.259084 0.634394
0.0479778 0.259334 0.626144
0.74825 0.312501 2.28484
0.6943 0.310785 2.26218
0.662658 0.309719 2.24434
0.633629 0.30873 2.22713
0.611613 0.307945 2.21144
0.586897 0.307083 2.19526
0.571914 0.306504 2.18114
0.547271 0.305645 2.16508
0.536635 0.305193 2.15195
0.519065 0.30454 2.13743
0.504154 0.303965 2.12351
0.486685 0.303317 2.10911
0.47614 0.302869 2.09614
0.4588 0.302226 2.08185
0.448324 0.301781 2.06896
0.433576 0.301214 2.05527
0.423156 0.300772 2.04246
0.410394 0.300262 2.02923
0.400067 0.299824 2.01651
0.389776 0.299387 2.00383
0.379523 0.298951 1.99118
0.368753 0.298501 1.97847
0.358048 0.298053 1.9658
0.347411 0.297608 1.95318
0.341039 0.297285 1.94139
0.330785 0.296852 1.92889
0.320361 0.296414 1.9164
0.313873 0.296089 1.90466
0.30416 0.295672 1.89236
0.295751 0.295293 1.88032
0.288262 0.29494 1.86848
0.279891 0.294563 1.8565
0.272685 0.294219 1.84476
0.265933 0.293889 1.83312
0.258895 0.293551 1.82146
0.2506 0.293177 1.8096
0.243869 0.292848 1.79804
0.238659 0.292563 1.78677
0.231716 0.292229 1.77521
0.225325 0.29191 1.76378
0.218336 0.291575 1.75227
0.213264 0.291295 1.7411
0.207229 0.290988 1.7298
0.202412 0.290716 1.71872
0.195268 0.290378 1.70727
0.190487 0.290107 1.69623
0.184995 0.289817 1.6851
0.180482 0.289554 1.67415
0.173179 0.289213 1.66277
0.168706 0.288952 1.65186
0.16433 0.288694 1.64099
0.160053 0.288439 1.63016
0.155875 0.288187 1.61935
0.151799 0.287939 1.60859
0.144278 0.287593 1.59729
0.143953 0.287451 1.58715
0.136574 0.287109 1.57592
0.132662 0.286866 1.56525
0.128855 0.286627 1.55461
0.125152 0.28639 1.54401
0.121542 0.286156 1.53344
0.11794 0.285923 1.52288
0.11438 0.285691 1.51235
0.110928 0.285462 1.50185
0.107372 0.285231 1.49134
0.104047 0.285006 1.48089
0.100519 0.284776 1.47043
0.0973232 0.284555 1.46003
0.0942371 0.284338 1.44966
0.090758 0.284109 1.43925
0.0878028 0.283896 1.42893
0.0843534 0.283669 1.41856
0.0815302 0.28346 1.40828
0.0781111 0.283234 1.39794
0.0754209 0.283029 1.38772
0.072843 0.282827 1.37753
0.0694765 0.282604 1.36724
0.067033 0.282406 1.35709
0.0636984 0.282184 1.34684
0.0613902 0.28199 1.33674
0.0591951 0.2818 1.32667
0.0559156 0.28158 1.31647
0.0538566 0.281394 1.30644
0.0506106 0.281175 1.29627
0.0525854 0.281103 1.28679
0.045476 0.280776 1.27616
0.0475675 0.280707 1.26671
0.0443826 0.28049 1.2566
0.0427211 0.280317 1.2467
0.0395712 0.280102 1.23663
0.0380471 0.279932 1.22677
0.036636 0.279766 1.21693
0.033546 0.279553 1.20691
0.0342789 0.279446 1.19735
0.0292184 0.279179 1.18712
0.0318658 0.279126 1.17781
0.0288411 0.278916 1.16785
0.0278277 0.278761 1.15813
0.0248401 0.278552 1.1482
0.0239634 0.278402 1.13852
0.0247513 0.278298 1.12903
0.0239969 0.278152 1.11939
0.0210772 0.277945 1.10951
0.0204587 0.277803 1.0999
0.0199495 0.277663 1.09031
0.0170943 0.277459 1.08048
0.0203897 0.277425 1.07132
0.0139036 0.277121 1.06112
0.0173105 0.27709 1.05199
0.0145258 0.276889 1.04221
0.0144037 0.276761 1.03272
0.0152807 0.27666 1.02334
0.0116691 0.276436 1.01352
0.0153762 0.276415 1.00444
0.0126904 0.276216 0.994733
0.0129202 0.276099 0.985324
0.0138416 0.276 0.97599
0.0141858 0.275886 0.966607
0.0146301 0.275775 0.957242
0.0120452 0.27558 0.947597
0.0126157 0.275472 0.938262
0.0135828 0.275376 0.92897
0.0142637 0.275271 0.919659
0.0150401 0.27517 0.910363
0.0125577 0.274978 0.900782
0.013456 0.27488 0.891514
0.0178947 0.274879 0.882565
0.0154737 0.27469 0.873018
0.016568 0.274598 0.863787
0.017751 0.274508 0.854569
0.0188068 0.274414 0.845348
0.0200899 0.274327 0.836151
0.0214578 0.274242 0.826968
0.0262755 0.274252 0.818071
0.0273699 0.27416 0.808874
0.0289001 0.27408 0.799717
0.0305089 0.274002 0.790573
0.0321943 0.273926 0.781439
0.0372639 0.273943 0.772571
0.0430869 0.27398 0.763759
0.044254 0.27389 0.754595
0.0502715 0.273933 0.745797
0.0596968 0.274068 0.737246
0.726743 0.327036 2.30275
0.697842 0.326 2.28533
0.661853 0.32475 2.26647
0.646863 0.32414 2.25215
0.622183 0.323236 2.23582
0.600189 0.322414 2.22012
0.582554 0.321726 2.20539
0.567579 0.321119 2.19125
0.549999 0.320433 2.17662
0.532475 0.31975 2.16205
0.517567 0.319147 2.14805
0.50015 0.318469 2.13359
0.489625 0.317999 2.12057
0.472344 0.317326 2.10622
0.461891 0.31686 2.09329
0.451464 0.316396 2.08039
0.436759 0.315802 2.06667
0.426395 0.31534 2.05385
0.413781 0.314811 2.04063
0.403519 0.314353 2.02789
0.393295 0.313897 2.0152
0.383111 0.313442 2.00254
0.37297 0.312989 1.98993
0.362352 0.312522 1.97725
0.353837 0.312119 1.965
0.345334 0.311717 1.95279
0.33537 0.311271 1.94032
0.326904 0.310871 1.92817
0.318453 0.310471 1.91604
0.309052 0.310043 1.90377
0.302373 0.309698 1.89203
0.293373 0.309283 1.87989
0.286603 0.308935 1.86818
0.279498 0.308578 1.85643
0.274069 0.308271 1.84501
0.264357 0.307836 1.83284
0.257448 0.307486 1.8212
0.250823 0.307144 1.80964
0.245666 0.306847 1.79835
0.240593 0.306552 1.7871
0.232377 0.306164 1.77533
0.227413 0.305873 1.76414
0.219237 0.305487 1.75242
0.214383 0.3052 1.74129
0.20962 0.304916 1.7302
0.204184 0.304613 1.71902
0.196861 0.304253 1.70753
0.192309 0.303976 1.69654
0.187852 0.303703 1.68558
0.183492 0.303432 1.67465
0.17923 0.303165 1.66376
0.171747 0.302802 1.65236
0.167527 0.302536 1.64151
0.163407 0.302274 1.6307
0.159388 0.302015 1.61992
0.155472 0.301759 1.60917
0.151658 0.301507 1.59846
0.147949 0.301258 1.58778
0.144307 0.301011 1.57712
0.140672 0.300764 1.56649
0.132902 0.300395 1.55524
0.129363 0.300152 1.54465
0.129895 0.30003 1.5347
0.122356 0.299669 1.52354
0.11905 0.299433 1.51304
0.115502 0.299191 1.50252
0.112324 0.298959 1.49208
0.109256 0.298731 1.48166
0.105755 0.298491 1.47119
0.102817 0.298267 1.46082
0.0993455 0.298028 1.45039
0.0965378 0.297809 1.44007
0.0938409 0.297593 1.42979
0.0904204 0.297356 1.41941
0.0878559 0.297144 1.40917
0.0844662 0.296909 1.39883
0.0820349 0.296701 1.38863
0.0826579 0.296584 1.37887
0.0763791 0.296264 1.36818
0.07815 0.296181 1.35859
0.0708898 0.295832 1.3478
0.0727757 0.295753 1.33825
0.0694975 0.295522 1.32803
0.0675692 0.295331 1.31799
0.0657531 0.295143 1.30799
0.0625314 0.294914 1.29781
0.0608506 0.294731 1.28785
0.0576629 0.294503 1.2777
0.0561177 0.294324 1.26778
0.0568249 0.294211 1.25816
0.0515551 0.293923 1.2478
0.0540901 0.293864 1.23841
0.0509893 0.29364 1.22835
0.0498126 0.293473 1.21853
0.0467476 0.29325 1.2085
0.045706 0.293087 1.19872
0.044774 0.292927 1.18896
0.0417703 0.292707 1.17898
0.0447332 0.29266 1.1697
0.0417589 0.292441 1.15974
0.0410809 0.292289 1.15006
0.0381439 0.292072 1.14013
0.037599 0.291924 1.13048
0.0384143 0.291816 1.121
0.0342873 0.291564 1.11097
0.0376667 0.291531 1.10179
0.034824 0.291317 1.09193
0.0346337 0.29118 1.08237
0.0345468 0.291046 1.07283
0.035416 0.290941 1.0634
0.0354435 0.29081 1.05389
0.0355719 0.290683 1.0444
0.0328524 0.290474 1.03463
0.0331071 0.290351 1.02517
0.0340198 0.290247 1.01578
0.0343852 0.290127 1.00635
0.0348473 0.29001 0.996935
0.0354047 0.289896 0.987537
0.0363568 0.289793 0.978185
0.0370204 0.289683 0.968811
0.037776 0.289575 0.959454
0.0387554 0.289473 0.950125
0.039614 0.289368 0.940791
0.0405609 0.289266 0.931473
0.0415945 0.289166 0.922169
0.0426144 0.289067 0.91287
0.0472029 0.289069 0.903898
0.0484025 0.288975 0.894625
0.0496828 0.288883 0.885365
0.054461 0.288891 0.876416
0.0558823 0.288803 0.867177
0.0612276 0.288827 0.858278
0.0662145 0.288842 0.849348
0.0718329 0.288874 0.840469
0.0769469 0.288892 0.831547
0.101652 0.289472 0.824221
0.773185 0.34387 2.34666
0.737431 0.342566 2.32758
0.708511 0.341482 2.31007
0.679539 0.340397 2.29261
0.650556 0.339312 2.27523
0.635551 0.338674 2.26088
0.617925 0.337953 2.24602
0.595977 0.337095 2.23031
0.578418 0.336377 2.21556
0.563465 0.335743 2.20141
0.545989 0.335029 2.18677
0.535423 0.334536 2.17361
0.518059 0.333827 2.15909
0.503218 0.333199 2.14512
0.492737 0.332709 2.13208
0.475569 0.332009 2.11773
0.465168 0.331523 2.10478
0.454797 0.331038 2.09187
0.444457 0.330556 2.07899
0.42761 0.329867 2.06486
0.417378 0.329389 2.05208
0.407186 0.328912 2.03933
0.397034 0.328437 2.02663
0.386925 0.327964 2.01396
0.376861 0.327492 2.00134
0.368837 0.327086 1.98913
0.360314 0.326664 1.97686
0.35046 0.3262 1.96436
0.340156 0.325723 1.95181
0.333503 0.325361 1.93997
0.324216 0.324917 1.92767
0.315787 0.3245 1.91555
0.308591 0.324122 1.90369
0.300201 0.323707 1.89163
0.294727 0.323384 1.88013
0.286369 0.32297 1.86813
0.279641 0.322609 1.85646
0.272666 0.32224 1.84476
0.266117 0.321884 1.83316
0.259861 0.321538 1.82163
0.252733 0.321165 1.80997
0.246669 0.320826 1.79853
0.239493 0.320452 1.78691
0.234582 0.32015 1.77571
0.228882 0.319823 1.76439
0.22423 0.319529 1.75328
0.216894 0.319151 1.74172
0.212279 0.318859 1.73065
0.207131 0.318551 1.71951
0.202787 0.318267 1.70853
0.195287 0.317886 1.69703
0.190984 0.317605 1.68609
0.18678 0.317327 1.67519
0.182674 0.317052 1.66432
0.178669 0.316781 1.65348
0.174766 0.316513 1.64268
0.167044 0.316127 1.63128
0.163186 0.315861 1.62052
0.15943 0.315599 1.6098
0.155768 0.315339 1.5991
0.152134 0.315081 1.58843
