ply
format ascii 1.0
comment Created by Open3D
element vertex 1750
property double x
property double y
property double z
end_header
-0.10896 0.101752 0.544747
-0.0795601 0.101705 0.550639
-0.138321 0.10161 0.514503
-0.117312 0.101516 0.518244
-0.0972755 0.10147 0.519458
-0.180279 0.101387 0.470744
-0.0325618 0.101295 0.53781
-0.108612 0.101249 0.490978
-0.0904282 0.101158 0.493267
-0.187599 0.101113 0.435876
-0.124515 0.101035 0.460084
-0.124918 0.100946 0.453044
-0.0182158 0.100902 0.497585
-0.0978366 0.100814 0.450923
-0.100603 0.100727 0.442675
-0.189671 0.100684 0.389328
-0.142785 0.100611 0.405279
-0.210694 0.100568 0.362504
-0.17166 0.100484 0.375113
-0.208192 0.100399 0.349924
-0.220991 0.100358 0.334699
-0.20502 0.100275 0.335742
-0.210862 0.100233 0.323992
-0.18548 0.100167 0.329008
-0.285272 0.100127 0.270273
-0.165808 0.100046 0.32301
-0.115008 0.100006 0.339567
-0.121325 0.0999267 0.329391
-0.236095 0.0998481 0.26497
-0.266448 0.0998091 0.240939
-0.120822 0.0997316 0.306692
-0.10748 0.0996932 0.304502
-0.24041 0.0996348 0.230116
-0.166371 0.099597 0.258262
-0.251266 0.0995221 0.20869
-0.167651 0.099485 0.241615
-0.178259 0.0994113 0.229158
-0.21554 0.0993747 0.201627
-0.206121 0.0993022 0.199154
-0.210392 0.0992305 0.189813
-0.228589 0.099195 0.171806
-0.231947 0.0991245 0.16289
-0.245755 0.0990896 0.147068
-0.159821 0.0990204 0.182765
-0.111492 0.0989861 0.198
-0.258158 0.0989387 0.116373
-0.169706 0.0989051 0.151651
-0.206038 0.0988386 0.126135
-0.236937 0.0988056 0.101725
-0.140094 0.0987403 0.142761
-0.0833054 0.098708 0.162181
-0.167416 0.098644 0.112702
-0.2044 0.0986123 0.0852222
-0.280423 0.0985496 0.0397476
-0.227198 0.0985185 0.0573579
-0.226394 0.0984571 0.0502568
-0.241091 0.0984267 0.0338905
-0.282712 0.0983666 0.00553557
-0.156193 0.0983368 0.0597606
-0.204741 0.098278 0.0279
-0.16104 0.0982489 0.0406995
-0.226552 0.0981914 0.000312677
-0.111817 0.098163 0.0486118
0.740678 0.128588 1.35451
0.672556 0.127604 1.33908
0.676064 0.126918 1.35028
0.493528 0.126457 1.26149
0.536936 0.125994 1.28582
0.481931 0.125619 1.25826
0.502372 0.125226 1.26903
0.463453 0.124922 1.24738
0.44216 0.124547 1.23687
0.446146 0.124227 1.23731
0.366212 0.124013 1.19245
0.339535 0.123695 1.17761
0.27554 0.123481 1.14079
0.385534 0.12318 1.19382
0.388844 0.122952 1.19122
0.345586 0.122724 1.16535
0.308414 0.122498 1.14254
0.295792 0.122272 1.13202
0.351874 0.122047 1.15585
0.226595 0.121837 1.08856
0.23319 0.121642 1.08677
0.199969 0.121463 1.06455
0.263362 0.121255 1.09165
0.165959 0.12106 1.03795
0.230665 0.120887 1.06462
0.19009 0.120749 1.03747
0.150119 0.120544 1.01294
0.254064 0.120397 1.05843
0.137591 0.120194 0.995674
0.121969 0.120049 0.981378
0.233859 0.119856 1.0325
0.148595 0.119712 0.983398
0.094154 0.11957 0.949689
0.147783 0.119429 0.969998
0.144629 0.119237 0.963687
0.122003 0.119098 0.945875
0.153005 0.11896 0.954856
0.150522 0.118829 0.946876
0.0369518 0.118693 0.883549
0.0883543 0.118558 0.902682
0.115975 0.118425 0.909896
-0.0132252 0.118297 0.838573
0.144408 0.118166 0.910764
-0.0424339 0.118038 0.810627
0.0534936 0.117911 0.851881
0.0540874 0.117784 0.845517
0.0528282 0.117658 0.838182
-0.0176409 0.117533 0.796247
0.0328733 0.117408 0.814809
0.00599886 0.117284 0.794681
-0.00523167 0.11716 0.782379
-0.0856097 0.117037 0.735507
-0.0221045 0.116916 0.760538
-0.0481846 0.116794 0.740812
0.079641 0.116734 0.795842
-0.0412013 0.116615 0.728653
-0.0742261 0.116495 0.705455
-0.0180751 0.116376 0.726847
-0.117685 0.116261 0.670212
-0.111342 0.116143 0.666691
-0.0332523 0.116085 0.69688
-0.0444204 0.115968 0.684608
-0.00522692 0.115857 0.697305
-0.0908923 0.115741 0.647772
-0.114565 0.115627 0.629234
-0.0434264 0.115577 0.6557
0.0109463 0.115463 0.676175
0.00470846 0.11535 0.666342
-0.0384761 0.115238 0.638031
-0.160727 0.115191 0.567745
-0.0872867 0.11508 0.597735
-0.0681081 0.114969 0.600589
-0.142395 0.114914 0.554622
-0.0731657 0.114816 0.582095
-0.116902 0.114707 0.553472
-0.137218 0.114653 0.534492
-0.159021 0.114546 0.51683
-0.143025 0.114452 0.517583
-0.0978886 0.114399 0.53133
-0.128862 0.114294 0.509058
-0.0822578 0.11419 0.525566
-0.118306 0.114138 0.498724
-0.022066 0.114049 0.539482
-0.116758 0.113946 0.485312
-0.139103 0.113895 0.465317
-0.163858 0.113794 0.446104
-0.151567 0.113694 0.445403
-0.163797 0.11366 0.429825
-0.176096 0.113561 0.416805
-0.165232 0.113512 0.413409
-0.201054 0.113414 0.388612
-0.0929155 0.113317 0.435783
-0.130185 0.113269 0.408317
-0.185455 0.113192 0.37303
-0.111007 0.113144 0.401415
-0.114994 0.11305 0.392477
-0.259869 0.112956 0.313081
-0.153024 0.11291 0.357659
-0.161892 0.112818 0.346246
-0.16347 0.112772 0.33661
-0.203744 0.112681 0.309474
-0.14203 0.112656 0.330628
-0.162916 0.112567 0.313153
-0.189002 0.112478 0.293059
-0.136619 0.112434 0.310382
-0.193397 0.112347 0.274919
-0.16794 0.112304 0.278773
-0.106483 0.112218 0.302402
-0.161934 0.112175 0.265795
-0.110633 0.11209 0.28432
-0.209203 0.112072 0.225169
-0.172085 0.111988 0.236564
-0.203342 0.111906 0.21375
-0.100666 0.111865 0.256177
-0.116425 0.111784 0.241082
-0.214019 0.111744 0.183365
-0.250864 0.111665 0.157696
-0.0955679 0.111625 0.226414
-0.146401 0.111547 0.19372
-0.266036 0.111508 0.124962
-0.0890033 0.111432 0.206167
-0.175131 0.111393 0.154152
-0.148072 0.111318 0.160335
-0.180561 0.111281 0.135127
-0.225133 0.111207 0.10546
-0.173893 0.11117 0.122104
-0.224434 0.111097 0.0894156
-0.185131 0.111089 0.0988995
-0.183046 0.111018 0.0924756
-0.184929 0.110983 0.0825228
-0.1754 0.110913 0.0797816
-0.15185 0.110845 0.0840222
-0.261578 0.110811 0.020121
-0.171124 0.110744 0.0577722
-0.154735 0.11071 0.0569134
-0.174175 0.110645 0.0395759
-0.240249 0.110612 -0.00253145
-0.147583 0.110548 0.0361403
-0.201601 0.110516 4.37182e-05
0.771009 0.143408 1.36697
0.745642 0.14224 1.37488
0.649117 0.141399 1.33816
0.555211 0.140887 1.2936
0.582571 0.140294 1.31208
0.621777 0.139858 1.33209
0.469053 0.139441 1.25569
0.508164 0.139084 1.27353
0.473132 0.138667 1.25611
0.418592 0.13833 1.22669
0.402221 0.137994 1.2164
0.453491 0.137738 1.23767
0.405044 0.137403 1.2114
0.335649 0.137148 1.17238
0.376099 0.13685 1.18961
0.260218 0.136579 1.1279
0.304447 0.136327 1.14575
0.327751 0.136076 1.15315
0.285681 0.135842 1.12742
0.261621 0.135656 1.1093
0.279293 0.135409 1.1139
0.19959 0.135177 1.0694
0.211003 0.134945 1.07048
0.247402 0.134765 1.08254
0.223734 0.134548 1.06574
0.147114 0.134371 1.02127
0.185381 0.134143 1.03583
0.267461 0.13398 1.07033
0.177846 0.133764 1.02066
0.118169 0.133593 0.9846
0.210748 0.133434 1.02434
0.118847 0.133219 0.973598
0.111657 0.133061 0.963462
0.103515 0.132905 0.952831
0.139 0.132691 0.965848
0.236175 0.132537 1.00788
0.129269 0.132384 0.947854
0.0684123 0.132238 0.910666
0.0711797 0.132088 0.905453
0.103398 0.131939 0.914938
0.124603 0.131792 0.918888
0.0236571 0.131649 0.861671
0.0900594 0.131505 0.888189
0.0638974 0.131363 0.868371
0.066139 0.131221 0.862775
0.0543525 0.13108 0.850151
0.0995195 0.13094 0.866015
0.0510755 0.130801 0.835083
-0.00568503 0.130661 0.799997
-0.00948277 0.130524 0.791368
0.0612777 0.130386 0.820045
0.0168282 0.130251 0.791045
0.00497514 0.130115 0.778413
0.0417212 0.129979 0.790085
-0.0315098 0.129848 0.74664
0.0264572 0.129714 0.768917
-0.0807594 0.129648 0.706418
-0.0051888 0.12952 0.737322
0.0146936 0.129388 0.740557
0.0368516 0.129256 0.74493
-0.0280693 0.129133 0.705521
-0.0440039 0.129068 0.688682
-0.0243329 0.128938 0.691807
-0.0827774 0.128809 0.655873
-0.0380708 0.128691 0.671202
-0.0575856 0.128563 0.654719
-0.0858913 0.1285 0.631713
-0.0951873 0.128385 0.619972
0.015709 0.12826 0.668682
-0.0692846 0.128136 0.619443
-0.0156009 0.128074 0.637442
-0.0941354 0.127964 0.590991
-0.0896089 0.127841 0.586495
-0.151441 0.12772 0.548815
-0.165743 0.12766 0.532826
-0.166614 0.127554 0.525109
-0.117141 0.127435 0.543059
-0.0331336 0.127376 0.576226
-0.0472727 0.127258 0.562365
-0.0675334 0.127158 0.544846
-0.116155 0.1271 0.511697
-0.0905153 0.126984 0.517698
-0.132463 0.12687 0.489896
-0.0310603 0.126812 0.531763
-0.13631 0.126718 0.471627
-0.0965802 0.126606 0.484632
-0.105308 0.12655 0.471429
-0.177414 0.126439 0.428504
-0.156365 0.126328 0.432146
-0.165877 0.126274 0.418551
-0.164597 0.126186 0.411522
-0.19355 0.126132 0.388199
-0.087305 0.126025 0.434399
-0.119235 0.125918 0.411497
-0.141762 0.125865 0.391384
-0.230342 0.125784 0.33928
-0.194657 0.125732 0.348264
-0.126112 0.125628 0.375554
-0.19324 0.125526 0.334991
-0.168844 0.125475 0.338325
-0.272807 0.125374 0.279325
-0.192935 0.125323 0.310393
-0.13036 0.125223 0.334641
-0.154857 0.125151 0.314353
-0.17394 0.125102 0.295926
-0.084447 0.125005 0.333581
-0.166691 0.124957 0.283569
-0.200591 0.124861 0.259503
-0.125437 0.124814 0.288183
-0.149179 0.124719 0.269171
-0.150664 0.124626 0.261268
-0.193796 0.12458 0.230792
-0.134561 0.124517 0.252106
-0.153689 0.124472 0.233617
-0.210019 0.124382 0.198223
-0.142964 0.124337 0.222816
-0.176963 0.124248 0.198558
-0.237435 0.124204 0.159379
-0.212307 0.124117 0.164653
-0.245237 0.124031 0.140875
-0.121322 0.123988 0.193871
-0.169599 0.123904 0.162386
-0.212119 0.123862 0.132153
-0.182539 0.123779 0.139563
-0.17755 0.123737 0.133073
-0.152819 0.123656 0.138023
-0.141854 0.123615 0.134508
-0.191256 0.123536 0.102356
-0.219273 0.123496 0.0793358
-0.150966 0.123417 0.106
-0.253235 0.123379 0.0458401
-0.256467 0.123336 0.0353516
-0.184513 0.123298 0.0622811
-0.220386 0.123223 0.0367651
-0.196995 0.123186 0.039398
-0.215642 0.123113 0.0224538
-0.188624 0.123076 0.026884
-0.137697 0.123005 0.0446843
-0.117517 0.122934 0.0470802
-0.156574 0.122899 0.0184433
0.733901 0.156966 1.36837
0.723133 0.156043 1.37436
0.638262 0.155287 1.3392
0.564342 0.154721 1.30472
0.604338 0.154154 1.32732
0.491845 0.153695 1.27098
0.456925 0.153323 1.25122
0.441228 0.152864 1.24341
0.389267 0.152473 1.21575
0.499124 0.152123 1.268
0.384191 0.151822 1.20664
0.393418 0.151453 1.20916
0.413133 0.151124 1.21595
0.367721 0.150826 1.1894
0.352798 0.15053 1.17809
0.255041 0.150253 1.12489
0.400135 0.149995 1.19268
0.27394 0.14972 1.12528
0.251189 0.149463 1.1092
0.307447 0.149191 1.13305
0.375172 0.149005 1.16034
0.23299 0.148736 1.08497
0.312257 0.148482 1.11996
0.298602 0.1483 1.10656
0.238391 0.148048 1.07184
0.21081 0.147796 1.05345
0.217382 0.147617 1.05017
0.193087 0.14743 1.03173
0.163872 0.147191 1.01228
0.203567 0.147016 1.02555
0.157443 0.146834 0.996104
0.169703 0.146596 0.997472
0.15696 0.146426 0.984487
0.182218 0.146257 0.99048
0.0415804 0.146089 0.913503
0.141791 0.145858 0.958786
0.128548 0.145692 0.945537
0.193478 0.145527 0.971349
0.0704808 0.145365 0.90317
0.216669 0.145206 0.969496
0.0146624 0.145046 0.861783
0.137323 0.144888 0.916373
0.162756 0.144732 0.92233
0.0975279 0.144576 0.882964
0.0294398 0.144421 0.842185
0.00069654 0.144266 0.821068
0.0200608 0.144112 0.824019
0.0936717 0.143961 0.854039
-0.034578 0.143808 0.783186
0.00237575 0.143657 0.79494
0.0347265 0.143509 0.804281
-0.0375463 0.143359 0.761421
0.00542099 0.143215 0.776023
0.122863 0.143067 0.828018
0.0352749 0.142919 0.7775
0.0735401 0.142845 0.787724
0.0136727 0.142706 0.75085
0.0667879 0.14256 0.770684
0.0554163 0.142424 0.758
-0.0582233 0.14228 0.694448
-0.021229 0.142137 0.706214
0.00187126 0.142065 0.708882
-0.048311 0.141934 0.676719
-0.0786452 0.141793 0.654814
-0.0678141 0.141653 0.65349
-0.0371333 0.141527 0.661679
-0.132462 0.141457 0.605144
-0.0663283 0.141319 0.63146
-0.0947197 0.141197 0.61004
-0.0932051 0.141061 0.604028
-0.0452448 0.140994 0.619147
0.0054825 0.140859 0.637741
-0.04739 0.140742 0.603984
-0.0529281 0.140609 0.594424
-0.0684411 0.140543 0.577811
-0.0153401 0.140411 0.597567
-0.0470745 0.140301 0.574276
-0.0903272 0.140236 0.543794
-0.0645815 0.140106 0.549848
-0.00967719 0.139978 0.570473
-0.0434093 0.139914 0.544758
-0.0240635 0.13981 0.546889
-0.0835513 0.139684 0.51029
-0.0336275 0.139559 0.528387
-0.0645857 0.139497 0.504055
-0.163027 0.139398 0.447172
-0.0593255 0.139337 0.490164
-0.0821374 0.139215 0.47186
-0.0773652 0.139095 0.467337
-0.0737495 0.138975 0.462223
-0.246488 0.138942 0.366117
-0.177613 0.138824 0.393606
-0.0532246 0.138765 0.446933
-0.169029 0.138649 0.382068
-0.221472 0.138533 0.34887
-0.164539 0.138476 0.368465
-0.114949 0.138391 0.385285
-0.155458 0.138335 0.35615
-0.152483 0.138222 0.350613
-0.171427 0.138111 0.334101
-0.123879 0.138055 0.348988
-0.203792 0.137945 0.301971
-0.18265 0.137891 0.303651
-0.175763 0.137815 0.298918
-0.11936 0.137708 0.320007
-0.17742 0.137655 0.282068
-0.125726 0.13755 0.30078
-0.141904 0.137497 0.283777
-0.22223 0.137393 0.236455
-0.182925 0.13729 0.248928
-0.135222 0.137239 0.263853
-0.011502 0.137138 0.318508
-0.166861 0.137124 0.230662
-0.0926209 0.137025 0.260537
-0.157463 0.136975 0.219165
-0.181157 0.136877 0.200044
-0.165858 0.136781 0.200397
-0.135079 0.136733 0.20682
-0.192944 0.136638 0.17056
-0.140096 0.136591 0.188008
-0.126879 0.136497 0.187257
-0.189957 0.136451 0.146731
-0.165844 0.136359 0.151395
-0.0908155 0.136314 0.179911
-0.177227 0.136224 0.129279
-0.0974479 0.136135 0.161717
-0.17035 0.136091 0.116246
-0.173341 0.136004 0.107262
-0.117473 0.136001 0.124718
-0.187061 0.135916 0.0823864
-0.146393 0.135874 0.0936648
-0.202926 0.13579 0.0578225
-0.136569 0.135749 0.0819304
-0.139198 0.135667 0.0730004
-0.11243 0.135627 0.0772991
-0.208959 0.135547 0.0213781
-0.2377 0.135507 -0.00209364
-0.211989 0.135429 0.00306361
-0.166409 0.135352 0.0181247
-0.275777 0.135314 -0.0456904
0.828619 0.171876 1.41301
0.717654 0.170873 1.36871
0.621369 0.169954 1.32992
0.580551 0.169242 1.31413
0.610154 0.16872 1.32919
0.601369 0.168123 1.32689
0.483413 0.1676 1.26835
0.468603 0.167195 1.25864
0.517308 0.166791 1.28074
0.491943 0.166387 1.26584
0.501103 0.165963 1.26875
0.391916 0.165582 1.21151
0.377889 0.165256 1.20057
0.433631 0.164876 1.22586
0.326185 0.164573 1.16776
0.41008 0.164271 1.20535
0.286793 0.16397 1.13935
0.314128 0.163612 1.15012
0.382346 0.163374 1.17843
0.267736 0.163094 1.1164
0.284491 0.162814 1.12007
0.285123 0.162536 1.1157
0.248238 0.162321 1.09101
0.242363 0.162044 1.08341
0.194736 0.161768 1.05496
0.185582 0.16156 1.04408
0.214316 0.161367 1.05182
0.261991 0.161094 1.07104
0.215113 0.160903 1.04096
0.145292 0.160641 1.00122
0.187678 0.160444 1.016
0.187095 0.160257 1.00903
0.156642 0.159997 0.989061
0.154648 0.159812 0.9814
0.13719 0.15963 0.965985
0.172152 0.159449 0.976755
0.156879 0.15919 0.964469
0.188534 0.159096 0.971396
0.183222 0.158837 0.964136
0.0488796 0.158662 0.890228
0.146032 0.158488 0.932038
0.0147483 0.158317 0.859612
0.0947688 0.158146 0.892848
0.0543933 0.157975 0.865894
0.00574781 0.157807 0.834769
0.0444875 0.157638 0.847378
0.0749791 0.157469 0.855871
0.0388481 0.157305 0.830961
0.00611718 0.157139 0.807845
-0.0384338 0.156978 0.778682
0.0175992 0.156813 0.799949
-0.00980119 0.156649 0.779504
0.0133882 0.156493 0.784157
0.0681172 0.156331 0.804774
-0.040405 0.156178 0.74352
-0.0495092 0.156018 0.732216
-0.0253444 0.155858 0.737549
0.0315156 0.155789 0.756754
0.0198279 0.155631 0.744159
0.046687 0.155473 0.750838
0.0117908 0.15533 0.726271
0.00157906 0.155174 0.714405
-0.082247 0.15502 0.665731
-0.0089315 0.154958 0.693064
0.0228097 0.154805 0.702167
-0.0245405 0.154652 0.671723
-0.0826309 0.154577 0.63379
-0.00813269 0.154443 0.66377
-0.00690619 0.154294 0.657603
-0.10729 0.154145 0.600628
-0.0756156 0.154017 0.609106
-0.0111212 0.153943 0.632472
-0.0602403 0.153797 0.601113
-0.0381439 0.153673 0.604721
-0.175474 0.153529 0.529233
0.0635159 0.153457 0.639853
-0.0492859 0.153314 0.576627
-0.0387247 0.153197 0.574361
-0.0850361 0.153127 0.542329
-0.0853753 0.152987 0.53531
-0.116674 0.152847 0.512804
5.05372e-05 0.152778 0.562296
-0.0447476 0.152668 0.53223
-0.0600788 0.152532 0.517679
-0.151109 0.152396 0.465269
-0.128864 0.152329 0.467518
-0.119101 0.152225 0.46461
-0.096148 0.152092 0.469158
-0.0553107 0.152026 0.480697
-0.0687496 0.151895 0.467038
-0.115807 0.151765 0.436558
-0.119675 0.151733 0.424767
-0.118406 0.151605 0.418423
-0.172775 0.151478 0.384248
-0.0350033 0.151415 0.444244
-0.13354 0.151289 0.38797
-0.105524 0.151226 0.393087
-0.147815 0.151138 0.363834
-0.0684981 0.151016 0.396442
-0.15588 0.150955 0.343846
-0.160529 0.150834 0.334453
-0.175207 0.150714 0.320029
-0.100236 0.150654 0.348604
-0.14642 0.150575 0.317213
-0.227442 0.150517 0.267779
-0.133392 0.1504 0.307663
-0.148249 0.150285 0.293076
-0.208014 0.150228 0.254261
-0.129145 0.150115 0.286514
-0.146455 0.150002 0.270658
-0.227234 0.149947 0.221324
-0.191582 0.149878 0.230599
-0.216583 0.149824 0.209138
-0.133189 0.149715 0.243569
-0.117643 0.149661 0.242374
-0.134516 0.149555 0.226644
-0.168322 0.149449 0.202426
-0.223245 0.149396 0.165981
-0.134067 0.149293 0.203225
-0.151961 0.149241 0.185285
-0.194249 0.149139 0.156766
-0.127932 0.149038 0.182526
-0.139522 0.148988 0.167719
-0.153915 0.148936 0.151589
-0.206718 0.148887 0.116155
-0.100784 0.14879 0.161644
-0.161917 0.148742 0.122034
-0.152934 0.148647 0.119012
-0.107605 0.148599 0.13262
-0.169937 0.148506 0.0939043
-0.202234 0.148414 0.0701794
-0.171288 0.148369 0.0765724
-0.196834 0.148278 0.0561852
-0.171689 0.148234 0.0596633
-0.101641 0.148145 0.0870333
-0.17877 0.148102 0.0393593
-0.213118 0.148015 0.0144915
-0.092671 0.147972 0.0655894
-0.206872 0.147888 0.00075312
-0.160981 0.147846 0.014557
-0.207953 0.147763 -0.0167077
0.796208 0.187654 1.37786
0.741376 0.185807 1.37779
0.762917 0.184815 1.39774
0.647575 0.183943 1.34679
0.510644 0.183274 1.28075
0.57569 0.182628 1.31527
0.508316 0.182061 1.28195
0.525886 0.181598 1.2889
0.517879 0.18108 1.28433
0.485653 0.180619 1.26646
0.485305 0.180206 1.26355
0.512916 0.17977 1.27516
0.433825 0.179417 1.23164
0.498825 0.179006 1.26152
0.398609 0.178677 1.20699
0.356622 0.17833 1.18204
0.386961 0.177941 1.19423
0.338281 0.177681 1.16406
0.308221 0.177376 1.14424
0.368991 0.177055 1.17024
0.347438 0.176752 1.15472
0.385615 0.17645 1.16908
0.247935 0.176219 1.09393
0.16513 0.175919 1.04783
0.160925 0.17562 1.04105
0.240425 0.175395 1.07443
0.272845 0.175099 1.08598
0.241757 0.17489 1.06376
0.181698 0.174595 1.0291
0.210407 0.17439 1.03677
0.172654 0.174187 1.01119
0.214322 0.173896 1.02741
0.284482 0.173695 1.05577
0.107471 0.173497 0.96052
0.111866 0.173214 0.958013
0.143969 0.173019 0.967326
0.133778 0.172825 0.955466
0.202384 0.172634 0.982978
0.182696 0.172445 0.966302
0.106917 0.172257 0.921593
0.134904 0.171976 0.931025
0.14439 0.17179 0.928944
0.0891164 0.171605 0.894505
0.104134 0.17142 0.895221
0.0995096 0.171238 0.886049
0.0351087 0.171055 0.847062
0.06404 0.170878 0.854629
0.0962442 0.170696 0.863949
0.00881715 0.170522 0.813293
-0.026619 0.170343 0.788795
0.0761058 0.170164 0.833384
0.115417 0.169995 0.846046
0.0766287 0.169818 0.819877
0.0333674 0.169729 0.789284
0.0149207 0.169477 0.7752
-0.0124146 0.169303 0.754759
0.046719 0.169229 0.775047
0.020507 0.169057 0.755166
-0.0265676 0.168885 0.724855
-0.0581315 0.16873 0.701906
0.0674229 0.16856 0.757902
0.0446278 0.168475 0.737578
-0.0255573 0.168325 0.695254
0.0101511 0.168157 0.706322
-0.0168117 0.167991 0.686054
-0.0718974 0.167846 0.651199
0.0719812 0.167682 0.716337
-0.0657268 0.1676 0.638575
-0.0313611 0.16746 0.648373
-0.0551536 0.167298 0.629663
-0.0740943 0.167138 0.613377
-0.145106 0.167083 0.568321
-0.0981309 0.166924 0.584979
-0.0595316 0.166766 0.597446
-0.0750364 0.166637 0.582133
-0.0225381 0.166559 0.599482
-0.0409517 0.166404 0.583422
-0.0941109 0.16625 0.549985
-0.0794553 0.166128 0.549644
-0.0231115 0.166052 0.568918
-0.0649518 0.165901 0.541115
-0.0871656 0.165751 0.523118
-0.162605 0.165709 0.475626
-0.0978234 0.165561 0.501106
-0.160348 0.165414 0.462925
-0.0290075 0.165268 0.521668
-0.113911 0.165231 0.469356
-0.210888 0.165087 0.413916
-0.0203076 0.164944 0.502245
-0.065737 0.164873 0.470629
-0.0951507 0.164732 0.44895
-0.127323 0.16463 0.424816
-0.106275 0.164561 0.42643
-0.0832346 0.164423 0.430939
-0.0757135 0.164286 0.427677
-0.120071 0.164218 0.396586
-0.122141 0.164124 0.387354
-0.12607 0.16399 0.378324
-0.0967717 0.163924 0.384049
-0.0129379 0.163792 0.418883
-0.0826382 0.163661 0.376935
-0.0799018 0.163596 0.369374
-0.152065 0.163511 0.324907
-0.0716281 0.163448 0.356183
-0.0849264 0.16332 0.342384
-0.0612244 0.163195 0.347068
-0.0636457 0.163132 0.336907
-0.111614 0.163008 0.305735
-0.236178 0.162933 0.234866
-0.11932 0.162873 0.284325
-0.112603 0.162752 0.28044
-0.0745901 0.162692 0.290471
-0.147171 0.162573 0.246911
-0.0327646 0.162455 0.296825
-0.10785 0.162397 0.250295
-0.137529 0.162281 0.22814
-0.123527 0.162167 0.227804
-0.119108 0.162162 0.219486
-0.218584 0.16205 0.162369
-0.161839 0.161994 0.18172
-0.110433 0.161884 0.200014
-0.117328 0.161829 0.187537
-0.0760716 0.16172 0.200725
-0.0963089 0.161613 0.183143
-0.091303 0.16156 0.176597
-0.217664 0.161455 0.105921
-0.145605 0.161403 0.13289
-0.146063 0.161299 0.125131
-0.203969 0.161197 0.0886237
-0.133756 0.161147 0.114648
-0.219218 0.161046 0.0643261
-0.145869 0.160997 0.0919053
-0.0473791 0.160899 0.133523
-0.212638 0.160802 0.0432386
-0.140089 0.160754 0.0703931
-0.186565 0.160659 0.0394613
-0.188478 0.160613 0.0293696
-0.234434 0.16052 -0.00134212
-0.181382 0.160474 0.0160333
-0.157813 0.160383 0.0200428
-0.202674 0.160338 -0.0115549
-0.137721 0.16025 0.0131045
0.785479 0.201089 1.3924
0.64481 0.199806 1.33538
0.671758 0.198844 1.35593
0.690241 0.198013 1.3697
0.573608 0.197292 1.31382
0.654653 0.196709 1.3541
0.525674 0.196099 1.28996
0.465436 0.195541 1.2592
0.503846 0.195045 1.27659
0.522198 0.194575 1.28348
0.375406 0.194106 1.20782
0.360537 0.193662 1.19767
0.56047 0.193283 1.29363
0.328486 0.192841 1.175
0.390758 0.192466 1.20213
0.353329 0.192116 1.17897
0.393908 0.191767 1.19482
0.356427 0.19142 1.17164
0.380739 0.191092 1.17898
0.33562 0.190749 1.152
0.277034 0.190423 1.11794
0.280374 0.190175 1.11324
0.304039 0.189852 1.12033
0.253337 0.18953 1.09026
0.198989 0.189289 1.05665
0.271691 0.18897 1.0883
0.165266 0.188651 1.03041
0.214065 0.188428 1.04809
0.247943 0.188111 1.06037
0.243296 0.187892 1.05131
0.254442 0.187675 1.05013
0.259192 0.187461 1.04574
0.190861 0.187149 1.00694
0.169926 0.186938 0.989677
0.133304 0.186729 0.964546
0.119453 0.186424 0.952953
0.203423 0.186217 0.98812
0.163499 0.186014 0.961305
0.165735 0.185811 0.955578
0.0861062 0.185609 0.908924
0.0728608 0.18541 0.895425
0.0394795 0.185209 0.871905
0.191795 0.18501 0.941243
0.0664013 0.184716 0.873863
0.141278 0.184618 0.90226
0.063994 0.184329 0.858887
0.122482 0.184231 0.879104
0.106575 0.183947 0.866367
0.0707231 0.183754 0.841634
0.0206646 0.183668 0.807359
0.0759244 0.18338 0.830382
-0.00789715 0.183285 0.779478
0.0529158 0.183107 0.802789
-0.000375131 0.182918 0.769344
0.0881535 0.182745 0.80646
0.0630366 0.182558 0.787098
0.0776948 0.182389 0.787221
0.0325726 0.182204 0.757851
0.00763339 0.18202 0.738574
0.0459892 0.181949 0.748332
0.0750161 0.181766 0.756034
0.00836271 0.181585 0.715898
-0.0227942 0.181427 0.692976
0.0366189 0.181248 0.715861
-0.0471612 0.18107 0.667149
0.0398441 0.181006 0.701122
-0.0913058 0.18083 0.628716
0.00979452 0.180655 0.672435
0.0428589 0.180508 0.681466
-0.0584868 0.180336 0.623944
-0.0649708 0.18025 0.611777
0.0408744 0.180108 0.657118
-0.0241782 0.179939 0.617727
-0.0329419 0.17977 0.606477
0.0262272 0.179718 0.626343
-0.0166845 0.179552 0.598003
-0.0882439 0.179386 0.555334
-0.0182822 0.179256 0.582547
-0.0113007 0.179175 0.577114
-0.0521654 0.179012 0.549769
-0.0479749 0.17885 0.544945
-0.110802 0.178728 0.505648
-0.155788 0.178649 0.474231
0.00849451 0.17849 0.549426
-0.0371394 0.178333 0.519654
-0.0564644 0.178296 0.500036
-0.131994 0.178141 0.455293
-0.164887 0.177987 0.431859
-0.109496 0.177834 0.452558
-0.0754699 0.177802 0.459523
-0.144389 0.177651 0.41804
-0.15135 0.177502 0.407526
-0.0571481 0.177427 0.445693
-0.0661924 0.177327 0.432916
-0.0783923 0.17718 0.419743
-0.0651644 0.177108 0.417411
-0.108402 0.176963 0.388704
-0.153123 0.17682 0.359243
-0.0624377 0.176749 0.395638
-0.152335 0.176658 0.342251
-0.0670591 0.176519 0.377742
-0.0364187 0.176449 0.3841
-0.126889 0.176311 0.3317
-0.0729415 0.176174 0.351493
-0.124282 0.176161 0.315435
-0.0705699 0.176026 0.335076
-0.0712597 0.175893 0.327498
-0.0939714 0.175827 0.307155
-0.169783 0.175696 0.261995
-0.0950438 0.175566 0.292093
-0.140747 0.175501 0.260244
-0.13974 0.175431 0.251905
-0.0786341 0.175368 0.273444
-0.101238 0.175242 0.254806
-0.128538 0.175118 0.233801
-0.17295 0.175056 0.202568
-0.0323314 0.174934 0.265495
-0.107444 0.174813 0.220536
-0.103496 0.174753 0.213469
-0.105334 0.174634 0.205118
-0.156062 0.174637 0.16901
-0.238677 0.174521 0.120226
-0.111263 0.174405 0.176434
-0.193939 0.174348 0.126018
-0.0970822 0.174235 0.166916
-0.173538 0.174179 0.119599
-0.161423 0.174068 0.118093
-0.11934 0.173958 0.131547
-0.174384 0.173904 0.0949156
-0.10929 0.173796 0.119841
-0.1761 0.17369 0.0787872
-0.20328 0.173637 0.0560655
-0.0446714 0.173533 0.127686
-0.174844 0.173481 0.0534537
-0.108028 0.173379 0.0791399
-0.117903 0.173279 0.0664525
-0.153093 0.173229 0.0396869
-0.163145 0.173131 0.0268714
-0.0641818 0.173082 0.0671669
-0.125606 0.172986 0.0286251
-0.118291 0.172938 0.0230801
-0.164251 0.172844 -0.00777117
0.847127 0.217614 1.39547
0.75073 0.215139 1.38082
0.763583 0.213849 1.39903
0.652777 0.212962 1.34802
0.644113 0.2121 1.34771
0.578556 0.211356 1.31683
0.643819 0.210703 1.34974
0.52448 0.210078 1.28989
0.57122 0.209546 1.31139
0.525029 0.209042 1.28594
0.508566 0.208539 1.27539
0.512163 0.208038 1.2749
0.419517 0.207633 1.22452
0.394893 0.207159 1.20949
0.410537 0.206758 1.21326
0.402087 0.206383 1.20452
0.397437 0.205913 1.19957
0.392629 0.205561 1.1923
0.373048 0.20519 1.17805
0.374072 0.204821 1.1741
0.303748 0.204553 1.13253
0.293459 0.204206 1.12259
0.433567 0.203844 1.18816
0.336315 0.203498 1.13477
0.269804 0.203255 1.09476
0.187658 0.202912 1.04896
0.275697 0.202661 1.08644
0.295981 0.20232 1.09187
0.23228 0.201981 1.05532
0.267328 0.201747 1.06605
0.065157 0.201515 0.958164
0.241023 0.20118 1.04142
0.212502 0.200952 1.02034
0.168315 0.200726 0.991399
0.191372 0.200503 0.996055
0.153256 0.200175 0.972311
0.196059 0.199954 0.986841
0.301437 0.199736 1.03265
0.105997 0.199519 0.928028
0.089819 0.199195 0.915308
0.0795972 0.198982 0.903263
0.0979192 0.198768 0.905563
0.0627498 0.19856 0.88101
0.0742579 0.198347 0.879912
0.148339 0.198143 0.909945
0.0768294 0.197932 0.867345
0.110274 0.197732 0.877019
0.155259 0.197524 0.892671
0.183967 0.197328 0.899932
0.204374 0.197121 0.903297
0.1254 0.19693 0.856669
0.0427893 0.196726 0.808526
0.131045 0.196522 0.845821
0.0433024 0.196336 0.79475
0.0578837 0.196135 0.795206
-0.0341721 0.196054 0.739762
0.109672 0.195755 0.807006
0.0415429 0.195656 0.763951
0.0210317 0.19548 0.746382
0.0715641 0.195284 0.764809
0.0337301 0.195113 0.738516
0.00554201 0.194919 0.717573
0.0482838 0.194726 0.732096
-0.0135248 0.194657 0.691624
0.0412199 0.194371 0.71425
0.0403415 0.194306 0.704191
0.0480108 0.194117 0.701157
-0.0167626 0.19393 0.661902
0.0250502 0.193836 0.673854
0.0372452 0.193683 0.672348
-0.0102307 0.193499 0.641729
0.0199464 0.19335 0.649138
0.0801582 0.193169 0.672343
-0.0441098 0.192988 0.603306
-0.0293456 0.192936 0.600878
-0.0186105 0.192757 0.599327
0.0123644 0.19258 0.607891
-0.0581114 0.192491 0.563708
-0.0393569 0.192357 0.565214
-0.0144249 0.192182 0.570734
-0.045728 0.192053 0.547125
-0.0908593 0.191881 0.517586
0.0283822 0.191796 0.568256
-0.130587 0.191626 0.481793
0.0205463 0.191504 0.549282
-0.0240856 0.191421 0.518011
-0.00971458 0.191254 0.518188
-0.0302144 0.191139 0.49976
-0.0435545 0.190975 0.486048
-0.129664 0.190894 0.434033
-0.0689368 0.190732 0.457345
-0.109722 0.190625 0.428643
-0.0570779 0.190545 0.445996
-0.0320108 0.190387 0.451441
-0.0422406 0.19023 0.439226
-0.0319271 0.190152 0.435414
-0.106616 0.190053 0.389611
-0.0382576 0.1899 0.416648
-0.0335837 0.189748 0.411831
-0.204738 0.189673 0.317271
-0.163708 0.189582 0.329182
-0.130796 0.189433 0.338438
-0.10758 0.18936 0.341049
-0.0303573 0.189213 0.372442
-0.069434 0.189068 0.345671
-0.214845 0.189059 0.262431
-0.113011 0.188916 0.30608
-0.123864 0.188775 0.293368
-0.0720087 0.188705 0.310274
-0.0652747 0.188566 0.306335
-0.161779 0.188494 0.249126
-0.0521103 0.188426 0.294918
-0.110718 0.18829 0.258252
-0.0176871 0.188156 0.297386
0.0273824 0.18809 0.310867
-0.0685401 0.187958 0.255501
-0.154636 0.187827 0.205028
-0.114806 0.187762 0.215876
-0.0962578 0.187698 0.216081
-0.150623 0.187641 0.179656
-0.0698703 0.187515 0.212537
-0.13699 0.18739 0.17146
-0.00479452 0.187329 0.228456
-0.106813 0.187206 0.1699
-0.0599888 0.187085 0.185743
-0.121901 0.187025 0.145668
-0.106612 0.186906 0.145712
-0.10494 0.186789 0.138923
-0.101743 0.186731 0.131383
-0.229571 0.186616 0.0598115
-0.123554 0.186559 0.103669
-0.0994272 0.186522 0.106062
-0.0506768 0.186411 0.122704
-0.0640986 0.186356 0.10681
-0.220709 0.186247 0.0207356
-0.0968275 0.18614 0.0748802
-0.139313 0.186087 0.0444301
-0.15579 0.185982 0.0283575
-0.155261 0.185878 0.0207601
-0.177078 0.185827 0.000618453
-0.127159 0.185726 0.0176761
-0.18035 0.185676 -0.0181686
-0.0980793 0.185577 0.015024
0.854637 0.231131 1.41642
0.850844 0.229239 1.43511
0.700454 0.228045 1.36853
0.716443 0.227097 1.38094
0.688542 0.226275 1.36931
0.690449 0.225482 1.37215
0.609945 0.224816 1.33163
0.588516 0.224219 1.3195
0.501549 0.223584 1.27533
0.50858 0.223048 1.27647
0.526186 0.222513 1.28292
0.431755 0.22198 1.23339
0.446594 0.221549 1.23671
0.42561 0.221046 1.22348
0.44553 0.220644 1.22891
0.448728 0.220222 1.22639
0.425418 0.219825 1.2102
0.389769 0.219451 1.18747
0.33323 0.219058 1.15468
0.339675 0.218667 1.15338
0.379739 0.218296 1.16858
0.371363 0.21791 1.15988
0.241567 0.217648 1.08818
0.234432 0.217267 1.08008
0.176804 0.216901 1.04649
0.272827 0.216646 1.08769
0.292485 0.216282 1.09277
0.325337 0.216021 1.10254
0.239589 0.215661 1.05493
0.264664 0.215414 1.06061
0.273337 0.215056 1.06023
0.194044 0.214814 1.0137
0.148081 0.214574 0.983822
0.153829 0.214337 0.97977
0.226059 0.213986 1.01117
0.193585 0.213752 0.988013
0.156624 0.213519 0.962613
0.158805 0.213288 0.956753
0.102847 0.213057 0.921869
0.164719 0.212716 0.948055
0.206991 0.212494 0.962171
0.151673 0.212266 0.927617
0.168309 0.212048 0.928879
0.102185 0.211822 0.88893
0.133878 0.211608 0.897682
0.138846 0.211384 0.893285
0.119052 0.211175 0.876249
0.151724 0.210953 0.885709
0.0530629 0.210733 0.829511
0.150447 0.210529 0.871012
0.0313591 0.210311 0.804602
0.116711 0.210112 0.840037
0.06071 0.209896 0.805169
0.139806 0.209702 0.837422
-0.00274812 0.209488 0.759275
0.066515 0.209299 0.786555
0.0524374 0.209088 0.772641
0.0521521 0.208983 0.763483
0.113725 0.208695 0.788992
0.0424684 0.208591 0.744355
0.0231357 0.208413 0.727215
0.012423 0.208207 0.714974
0.0360885 0.208034 0.719267
0.0465583 0.20783 0.717606
-0.0482408 0.207729 0.661213
0.0369347 0.207562 0.696189
-0.0573873 0.207362 0.642124
0.0353821 0.2072 0.680825
-0.0309285 0.207002 0.64075
-0.0103425 0.206806 0.644122
-0.0237399 0.206748 0.627598
0.0069929 0.206554 0.636031
0.0356426 0.206361 0.64342
-0.00768771 0.206212 0.613896
-0.0399602 0.206022 0.590803
-0.0519199 0.205927 0.575845
-0.0282413 0.205785 0.579739
-0.10943 0.205598 0.532167
-0.0467801 0.205461 0.555463
-0.0358981 0.205369 0.55192
-0.0286397 0.205186 0.548548
-0.0401455 0.205055 0.534672
-0.0633566 0.204875 0.516037
-0.00561779 0.204695 0.53787
-0.0520289 0.204661 0.504496
-0.0271002 0.204484 0.509902
-0.0588903 0.204308 0.48694
-0.0739856 0.204221 0.470404
0.043973 0.204105 0.521038
-0.06326 0.203933 0.460322
-0.0572177 0.203763 0.456234
-0.0160666 0.203738 0.466472
-0.0101506 0.20357 0.462294
-0.0967338 0.203403 0.411856
-0.0544333 0.20332 0.424001
-0.0650317 0.203219 0.410115
-0.0918052 0.203056 0.389542
-0.0183266 0.202894 0.419082
-0.113626 0.20288 0.360916
-0.0573284 0.202721 0.381834
-0.0450304 0.202563 0.38074
-0.0305295 0.202485 0.378958
-0.0688703 0.202399 0.350943
-0.159426 0.202245 0.298375
-0.0803075 0.202168 0.328885
-0.0787335 0.202017 0.322364
-0.0929725 0.201866 0.30792
-0.0696034 0.201864 0.308868
-0.0480459 0.201717 0.312286
-0.0554093 0.20157 0.301227
0.0211505 0.201425 0.332113
-0.00482789 0.201353 0.310044
-0.0909415 0.201287 0.257786
-0.02235 0.201146 0.284631
-0.00646434 0.201076 0.283473
-0.0954843 0.200937 0.231488
-0.0685893 0.2008 0.237441
-0.0761218 0.200731 0.224562
-0.129819 0.200676 0.188296
-0.132902 0.200543 0.179197
-0.0580117 0.200477 0.207504
-0.0619598 0.200346 0.197945
-0.0555969 0.200217 0.193521
-0.0635916 0.200152 0.180369
0.00168109 0.200025 0.20537
-0.0614633 0.199899 0.16614
-0.0982332 0.199837 0.138582
-0.0598181 0.199798 0.14805
-0.0618638 0.199677 0.139298
-0.169677 0.199617 0.0761892
-0.0586095 0.199497 0.123961
-0.0591808 0.19938 0.115889
-0.0669959 0.199321 0.102758
-0.0376289 0.199206 0.10962
-0.071695 0.199092 0.0847401
-0.142172 0.199036 0.0402544
-0.0605518 0.198924 0.0731813
-0.0372394 0.198815 0.0769271
-0.098861 0.19876 0.0368445
-0.0690263 0.198653 0.0438131
-0.113239 0.198547 0.0137299
-0.0797383 0.198494 0.021182
-0.0553575 0.198391 0.0253555
0.718607 0.245191 1.3547
0.751688 0.243501 1.38661
0.746035 0.242332 1.39076
0.633891 0.241325 1.3391
0.596031 0.240485 1.32193
0.678691 0.239644 1.36512
0.516592 0.239008 1.2826
0.563939 0.238336 1.30549
0.530498 0.237632 1.28858
0.495908 0.237063 1.26887
0.443158 0.236602 1.23835
0.522244 0.236038 1.27552
0.502013 0.23561 1.2608
0.473877 0.23505 1.2444
0.438828 0.234626 1.22229
0.385005 0.234204 1.19079
0.43616 0.233674 1.21368
0.416681 0.233256 1.19939
0.39776 0.232841 1.18537
0.4573 0.232559 1.2083
0.373491 0.232149 1.16183
0.422065 0.231757 1.18126
0.386272 0.231351 1.15879
0.226944 0.231078 1.07228
0.355371 0.230678 1.1319
0.391039 0.230292 1.14493
0.256501 0.230025 1.07079
0.207341 0.229761 1.03932
0.208051 0.229379 1.03491
0.225702 0.229119 1.03683
0.221306 0.228862 1.0277
0.210427 0.228485 1.01752
0.215201 0.228232 1.01295
0.175548 0.227982 0.986153
0.242534 0.22761 1.01491
0.184071 0.227364 0.978676
0.0863338 0.227118 0.922852
0.182826 0.226877 0.964065
0.221247 0.226511 0.978559
0.181008 0.226275 0.951368
0.129418 0.226033 0.918642
0.180164 0.225802 0.936907
0.070119 0.225562 0.874964
0.0325974 0.225335 0.849056
0.0947264 0.225098 0.873206
0.199547 0.224876 0.918427
0.16452 0.22464 0.894005
0.0534069 0.224423 0.831214
0.118757 0.22419 0.856983
0.15946 0.223978 0.870051
0.0498458 0.223747 0.808339
0.11391 0.22354 0.833037
0.136363 0.223312 0.837358
0.0181768 0.22311 0.770875
0.00456025 0.222884 0.757158
0.00796644 0.222688 0.751415
0.140226 0.222464 0.810631
0.11435 0.222273 0.790186
0.0509353 0.222052 0.751558
0.0484662 0.221976 0.740643
0.0906255 0.221757 0.754797
0.0935244 0.221575 0.748623
-0.010369 0.22136 0.689739
0.0146111 0.221184 0.694538
-0.0132595 0.22097 0.673654
-0.0285193 0.220758 0.659076
0.0252023 0.220695 0.676096
0.119603 0.220485 0.716338
0.0296055 0.220321 0.663501
0.0535728 0.220114 0.668509
0.0543208 0.220011 0.659867
0.0111751 0.219853 0.630376
0.0271179 0.21965 0.631357
0.0688566 0.219497 0.64423
-0.0331979 0.219297 0.586191
0.0269941 0.219197 0.607272
-0.0623343 0.219052 0.554525
-0.0329675 0.218855 0.562176
-0.0134147 0.218715 0.563786
-0.0210789 0.218521 0.552896
-0.0202628 0.218425 0.544285
-0.0339346 0.218292 0.52919
-0.0514668 0.218102 0.51334
0.00344567 0.218007 0.531775
-0.048434 0.217881 0.49748
-0.0483187 0.217694 0.490425
-0.0484942 0.217574 0.481893
-0.0723635 0.217391 0.462814
-0.0202083 0.2173 0.479856
-0.0396626 0.217185 0.461583
-0.0267598 0.217006 0.460856
-0.0461552 0.216917 0.442115
-0.0430091 0.21681 0.435038
-0.0266834 0.216635 0.435986
-0.0388823 0.216547 0.420834
-0.0310106 0.216447 0.416013
-0.074678 0.216276 0.386924
-0.0354999 0.216181 0.39766
-0.0610307 0.216096 0.375818
-0.0085298 0.215929 0.394771
-0.0477692 0.215763 0.367841
-0.03234 0.215677 0.366561
-0.0801256 0.215596 0.333575
-0.0658033 0.215434 0.33338
-0.0432443 0.215354 0.33555
0.0747257 0.215275 0.385427
0.00418098 0.215118 0.342749
-0.0439683 0.215039 0.309562
-0.180974 0.21489 0.233492
-0.0589375 0.214814 0.28538
0.0142786 0.214662 0.314514
-0.0423426 0.214598 0.276826
-0.079728 0.214523 0.248982
-0.116464 0.214376 0.223084
-0.094676 0.214229 0.226431
-0.024258 0.214174 0.252107
-0.0139422 0.214102 0.248086
-0.0216766 0.21396 0.236612
-0.0444335 0.21382 0.217608
-0.070121 0.21375 0.195573
-0.00222882 0.213704 0.219808
-0.00898259 0.213568 0.208742
-0.128975 0.213433 0.141036
0.00855985 0.213367 0.200579
-0.0457126 0.213234 0.165705
-0.0327392 0.213169 0.162958
-0.0105947 0.21307 0.165551
-0.0392101 0.213006 0.141984
-0.0711577 0.21288 0.118181
-0.126178 0.212755 0.082818
-0.104961 0.212632 0.0855503
0.0120731 0.212571 0.134779
0.00940949 0.212451 0.125538
-0.152261 0.212331 0.0367693
-0.0527445 0.212272 0.0772174
-0.0521907 0.212156 0.0695257
-0.0199136 0.212041 0.0776699
-0.0556581 0.211927 0.0517771
-0.052542 0.211871 0.0439912
-0.044284 0.21176 0.0400624
-0.0911876 0.21165 0.00852551
-0.0579708 0.211596 0.0157642
-0.0692968 0.211489 0.0019771
0.862232 0.25951 1.42812
0.759853 0.257858 1.39016
0.696798 0.256656 1.36506
0.609349 0.255627 1.32517
0.638279 0.254703 1.34194
0.56208 0.253922 1.30399
0.569175 0.253176 1.30719
0.574029 0.252431 1.30934
0.535766 0.25194 1.286
0.603578 0.251309 1.31794
0.40643 0.250713 1.21691
0.57244 0.250148 1.29703
0.392737 0.249555 1.20479
0.419308 0.249106 1.21345
0.30129 0.248658 1.14981
0.426047 0.248213 1.20757
0.433141 0.247771 1.20649
0.40865 0.247331 1.18963
0.392218 0.246894 1.17678
0.396289 0.24634 1.17615
0.392238 0.246046 1.16725
0.255487 0.245617 1.09424
0.425368 0.245328 1.17228
0.332605 0.244905 1.12124
0.312917 0.244497 1.10654
0.293065 0.244215 1.08969
0.345377 0.243928 1.10903
0.252603 0.243525 1.05781
0.219934 0.243122 1.03665
0.243956 0.242851 1.04169
0.207044 0.242452 1.01843
0.177786 0.242185 0.9968
0.145304 0.241921 0.973543
0.278719 0.241659 1.03323
0.191333 0.241399 0.982479
0.301522 0.241008 1.0328
0.155928 0.240754 0.952921
0.24899 0.240495 0.992471
0.177808 0.240246 0.949762
0.287024 0.24 0.997218
0.166858 0.239617 0.932371
0.142421 0.239377 0.912957
0.129902 0.239124 0.899737
0.167101 0.238889 0.9111
0.118377 0.238657 0.879463
0.15825 0.238408 0.892441
0.193138 0.238181 0.902565
0.104689 0.237935 0.851385
0.0854497 0.237713 0.834397
0.0948898 0.237469 0.832164
0.090831 0.237253 0.822714
0.11825 0.237011 0.82947
0.112387 0.2368 0.819065
0.0951535 0.236562 0.803492
0.124531 0.236356 0.810651
0.142913 0.23612 0.812881
0.0869829 0.236037 0.77521
0.103769 0.235687 0.778753
0.0211167 0.235608 0.727673
-0.0284495 0.235377 0.695919
0.132749 0.235187 0.768813
0.104547 0.234959 0.747731
0.0327247 0.234775 0.704048
0.0321072 0.234549 0.696747
0.00261009 0.234483 0.672097
0.0169982 0.23426 0.67229
0.089399 0.234086 0.700591
0.00604444 0.233866 0.651897
-0.049453 0.233807 0.614145
0.0515278 0.23359 0.657607
0.027838 0.233427 0.637729
0.0611428 0.233213 0.647334
-0.0428634 0.233055 0.587221
0.102112 0.232844 0.652641
-0.0114785 0.232739 0.586788
0.0243971 0.232589 0.596531
0.0332137 0.232381 0.593853
0.015916 0.232237 0.576929
-0.0322183 0.232134 0.543798
0.0454116 0.231995 0.574269
0.0408068 0.231793 0.564836
0.010127 0.231659 0.54107
0.0479234 0.23156 0.550894
0.00373606 0.231431 0.520304
-0.0761352 0.231235 0.473188
0.0734247 0.231138 0.53889
0.0155875 0.231016 0.501379
-0.0131009 0.230897 0.478381
-0.0207707 0.230708 0.46731
-0.0558915 0.230613 0.440656
0.0169483 0.230502 0.468323
-0.0610505 0.230394 0.420508
0.0761587 0.23021 0.481815
0.0194103 0.230119 0.444328
-0.0112108 0.230018 0.420101
-0.0875013 0.229921 0.372976
-0.0333358 0.229832 0.390924
0.0111513 0.229655 0.405803
-0.0242202 0.229565 0.379034
-0.0318849 0.229478 0.366055
-0.0539618 0.229392 0.345858
-0.0268221 0.229306 0.350269
-0.026429 0.229141 0.342936
-0.0138539 0.229147 0.338224
-0.00849758 0.228981 0.333401
-0.0252405 0.228909 0.315641
-0.114713 0.228827 0.261703
-0.00443243 0.228759 0.30738
0.0254887 0.228694 0.312818
-0.0279303 0.228711 0.274916
-0.00119956 0.228632 0.27904
-0.0536601 0.228574 0.243172
0.0167545 0.228692 0.265086
0.999035 0.277134 1.46212
0.75758 0.273889 1.37634
0.737524 0.272294 1.37739
0.736105 0.271025 1.38309
0.673469 0.270013 1.35452
0.626034 0.269077 1.3325
0.696557 0.268254 1.36788
0.575956 0.267469 1.3072
0.514851 0.266799 1.27461
0.60458 0.266133 1.31745
0.512205 0.265388 1.2705
0.551776 0.26476 1.28781
0.54674 0.264282 1.2806
0.517899 0.263779 1.26193
0.466079 0.263186 1.23316
0.456842 0.262716 1.22388
0.455294 0.262224 1.21881
0.402327 0.261784 1.18729
0.366928 0.261322 1.16492
0.435657 0.260863 1.19461
0.434843 0.260407 1.18953
0.334276 0.2601 1.1323
0.388412 0.25965 1.15466
0.409782 0.259218 1.16042
0.280534 0.258774 1.09109
0.252813 0.258477 1.07025
0.303193 0.258049 1.09056
0.23856 0.257615 1.0535
0.280466 0.257326 1.06744
0.292392 0.257039 1.06637
0.211119 0.256618 1.02088
0.22704 0.256337 1.02179
0.171844 0.256059 0.987117
0.183507 0.255643 0.988114
0.248665 0.25537 1.01359
0.187951 0.255101 0.976095
0.215263 0.254691 0.984926
0.23593 0.254563 0.985882
0.169098 0.254291 0.945443
0.179557 0.253897 0.945676
0.157428 0.253641 0.927373
0.142807 0.253374 0.913051
0.170211 0.253124 0.919476
0.127356 0.252858 0.891045
0.18104 0.252613 0.910569
0.137154 0.252372 0.88127
0.138077 0.251981 0.876898
0.143988 0.251875 0.870283
0.227685 0.251616 0.905134
0.115423 0.251386 0.841552
0.13226 0.25113 0.842975
0.1696 0.250905 0.854142
0.125407 0.250684 0.824498
0.127972 0.250433 0.818776
0.136082 0.250217 0.815227
0.089928 0.249968 0.785143
0.12001 0.249759 0.792522
0.0796922 0.249636 0.763244
0.0941938 0.249309 0.76488
0.165364 0.249231 0.790608
0.125688 0.248868 0.765823
0.0309808 0.248794 0.708563
0.121734 0.248555 0.746901
0.12746 0.248366 0.741874
0.124372 0.248248 0.731223
0.0676402 0.247947 0.696956
0.0886235 0.247831 0.698344
-0.0214459 0.247653 0.635293
0.0101689 0.247479 0.64303
0.0218273 0.24725 0.641769
0.0105197 0.247196 0.625969
0.148859 0.24697 0.688036
0.114823 0.246807 0.662814
0.106343 0.246648 0.650314
0.156504 0.246427 0.668253
0.0706209 0.246383 0.615018
0.0623094 0.246165 0.603705
-0.0531074 0.246017 0.537597
0.00886956 0.24591 0.559467
0.0343559 0.245767 0.563747
-0.0223442 0.245627 0.526876
0.0615854 0.245522 0.55971
0.0653111 0.245388 0.552987
0.0214388 0.245257 0.522408
0.0287045 0.245154 0.516897
0.0751428 0.245029 0.531407
0.0605485 0.244907 0.515344
0.0294716 0.244888 0.489143
0.132514 0.244772 0.531801
0.0296238 0.244659 0.471436
0.0254597 0.244562 0.460167
0.0402386 0.244541 0.456956
0.123603 0.244533 0.487795
0.0602201 0.244526 0.445232
0.126293 0.24461 0.465688
0.882981 0.291455 1.40776
0.84076 0.288378 1.41691
0.792676 0.286812 1.40236
0.705805 0.285635 1.36311
0.747412 0.284456 1.38824
0.651527 0.28359 1.34032
0.684305 0.282609 1.35842
0.639025 0.281903 1.33369
0.619807 0.281082 1.32369
0.541465 0.280418 1.28194
0.500454 0.279757 1.25889
0.472076 0.279221 1.24042
0.483988 0.278566 1.24386
0.4937 0.277914 1.2462
0.442368 0.277419 1.2158
0.499295 0.276928 1.23953
0.450981 0.276439 1.21064
0.44669 0.275953 1.20377
0.418754 0.275471 1.18506
0.398268 0.274992 1.17007
0.418336 0.274381 1.17732
0.344974 0.27406 1.13366
0.445765 0.27359 1.1793
0.361232 0.273274 1.13002
0.368433 0.272811 1.12883
0.356445 0.272362 1.11789
0.321053 0.272054 1.09316
0.359115 0.271601 1.10736
0.225915 0.271301 1.03368
0.286648 0.270858 1.05913
0.34062 0.270562 1.07901
0.251443 0.27027 1.0273
0.248866 0.269978 1.0189
0.240679 0.269546 1.00987
0.220335 0.269263 0.992517
0.203025 0.268975 0.976778
0.177467 0.268553 0.958986
0.172207 0.268279 0.949107
0.267174 0.268137 0.987328
0.178858 0.267727 0.938081
0.237728 0.267462 0.960198
0.158205 0.267182 0.913379
0.237109 0.266923 0.945473
0.206464 0.266667 0.922756
0.217034 0.266391 0.920988
0.190135 0.266004 0.902257
0.237108 0.265895 0.916109
0.261907 0.265488 0.923604
0.185985 0.265383 0.875969
0.138277 0.265114 0.845065
0.1411 0.264746 0.841029
0.210014 0.264648 0.865737
0.120573 0.264384 0.813959
0.0653594 0.264159 0.778678
0.139784 0.263939 0.808169
0.131181 0.263679 0.796798
0.146397 0.263464 0.796628
0.0852305 0.263336 0.756883
0.217724 0.263126 0.815301
0.136549 0.26292 0.766837
0.0575971 0.262719 0.719435
0.153284 0.262469 0.760174
0.150722 0.262273 0.750903
0.14192 0.262149 0.737346
0.186882 0.261959 0.751783
0.117075 0.261773 0.708784
0.190809 0.261591 0.737504
0.115253 0.26147 0.690564
0.0718754 0.261293 0.660673
0.0909811 0.26112 0.66197
0.0635425 0.261002 0.639085
0.0365229 0.260834 0.617262
0.00396226 0.26067 0.592617
0.0776439 0.260509 0.621039
0.0912824 0.260467 0.617452
0.072442 0.260313 0.599522
0.14683 0.260276 0.626239
0.102044 0.260129 0.595246
0.112453 0.260096 0.589905
0.0895949 0.260065 0.567902
0.144976 0.260008 0.585465
0.0669333 0.260065 0.534355
0.147657 0.260148 0.562168
0.883626 0.305986 1.40864
0.860378 0.303151 1.42205
0.812084 0.301552 1.40677
0.751365 0.300155 1.38272
0.63031 0.298919 1.32647
0.647179 0.298012 1.33489
0.677968 0.297149 1.34975
0.674381 0.296246 1.34803
0.522971 0.295387 1.27188
0.546914 0.294819 1.27952
0.545945 0.294128 1.27643
0.446479 0.293441 1.2241
0.533724 0.292755 1.26515
0.470136 0.292236 1.22857
0.459944 0.291557 1.22092
0.549993 0.291043 1.26117
0.492316 0.290533 1.22755
0.396725 0.290026 1.17498
0.432785 0.289522 1.18822
0.372512 0.289021 1.15328
0.409277 0.288684 1.16463
0.366101 0.288191 1.13822
0.344546 0.287716 1.12241
0.331256 0.287228 1.11094
0.37918 0.286902 1.12783
0.342509 0.286423 1.10462
0.355523 0.286104 1.10402
0.256052 0.285788 1.04716
0.266205 0.285324 1.04726
0.298542 0.284859 1.05849
0.296887 0.284553 1.05048
0.372783 0.284247 1.08127
0.243103 0.283794 1.01144
0.174591 0.283497 0.969948
0.20959 0.283203 0.980187
0.193333 0.282903 0.964927
0.291668 0.282466 1.00899
0.190164 0.282182 0.950909
0.226732 0.282034 0.959896
0.220969 0.281608 0.951832
0.220496 0.281334 0.944197
0.200983 0.281064 0.927006
0.186873 0.280773 0.912842
0.157351 0.280509 0.890606
0.200026 0.280249 0.904429
0.113136 0.279992 0.853431
0.250745 0.279708 0.915124
0.199039 0.279458 0.88167
0.188486 0.279211 0.868752
0.122328 0.279071 0.826438
0.235743 0.278691 0.877574
0.0704388 0.278455 0.787186
0.192864 0.278318 0.839175
0.195338 0.278087 0.832633
0.117739 0.27786 0.786008
0.221819 0.277637 0.830177
0.16469 0.277419 0.793695
0.212114 0.277285 0.808189
0.110657 0.27694 0.751548
0.149489 0.276863 0.760899
0.209446 0.276658 0.782817
0.172058 0.276528 0.754905
0.181967 0.276328 0.751749
0.210867 0.27626 0.756025
0.164448 0.276067 0.724619
0.17212 0.275879 0.720211
0.188303 0.275819 0.718024
0.11627 0.275637 0.673678
0.174176 0.275583 0.692287
0.180937 0.27548 0.686102
0.168022 0.275431 0.669214
0.218303 0.27546 0.682692
0.158915 0.275612 0.639347
0.246977 0.275843 0.668431
0.952122 0.320965 1.43774
0.776091 0.317997 1.37473
0.829558 0.316325 1.41028
0.758249 0.314866 1.38087
0.768436 0.313574 1.39018
0.721964 0.312626 1.36688
0.618214 0.311725 1.31441
0.678641 0.310782 1.34464
0.575702 0.310056 1.29047
0.582014 0.309292 1.29146
0.520572 0.308571 1.25808
0.437135 0.307854 1.21371
0.499559 0.307139 1.2423
0.562204 0.306597 1.26879
0.498487 0.306027 1.23249
0.503592 0.305493 1.2302
0.507572 0.304962 1.22733
0.561377 0.304435 1.24938
0.458441 0.303911 1.19305
0.392962 0.303244 1.15738
0.359804 0.302727 1.13594
0.345999 0.302379 1.12195
0.395652 0.301869 1.14188
0.369196 0.301527 1.12153
0.400756 0.301026 1.13238
0.341583 0.300691 1.09564
0.385981 0.300204 1.11279
0.367275 0.299713 1.09846
0.338231 0.299389 1.07674
0.425205 0.299067 1.113
0.263084 0.29875 1.02469
0.335837 0.298431 1.05386
0.215581 0.297961 0.988647
0.309851 0.297496 1.03066
0.266536 0.297193 1.00166
0.288687 0.297036 1.00338
0.274346 0.296738 0.988843
0.254415 0.296289 0.973648
0.251132 0.295999 0.964572
0.321695 0.295714 0.992384
0.285082 0.295432 0.966573
0.244078 0.295129 0.938897
0.317187 0.294854 0.967907
0.295747 0.294582 0.949606
0.199459 0.294315 0.893841
0.21833 0.294052 0.895618
0.264182 0.293757 0.911364
0.245956 0.2935 0.894545
0.233054 0.293247 0.880348
