ply
format ascii 1.0
comment Created by Open3D
element vertex 1670
property double x
property double y
property double z
end_header
0.138985 -0.144994 0.779036
0.173055 -0.144808 0.790342
0.0115087 -0.144548 0.706039
0.0625955 -0.144289 0.728078
0.173917 -0.144103 0.778093
0.196398 -0.143846 0.785875
-0.108701 -0.14366 0.627723
0.00874365 -0.143475 0.680862
0.0149138 -0.143219 0.680538
0.196647 -0.143077 0.764594
-0.112219 -0.142893 0.604619
0.0432189 -0.142752 0.675539
0.113869 -0.14257 0.705345
0.0558326 -0.142388 0.670816
0.0535612 -0.142249 0.662898
0.142709 -0.142068 0.701977
-0.0172851 -0.14193 0.615203
-0.0599242 -0.141751 0.5884
0.0388538 -0.141614 0.631015
-0.111802 -0.141436 0.55021
-0.177167 -0.141301 0.510754
-0.0477937 -0.141125 0.569966
-0.102389 -0.141058 0.533804
-0.18892 -0.140925 0.483765
-0.0510888 -0.140751 0.547212
-0.173182 -0.140619 0.479388
-0.064272 -0.140447 0.528367
-0.0387242 -0.140382 0.532298
-0.129511 -0.140252 0.480121
-0.0236846 -0.140123 0.52624
-0.051183 -0.139954 0.507009
0.123102 -0.13989 0.585319
0.0200705 -0.139764 0.526998
-0.141937 -0.139597 0.440499
-0.162367 -0.139535 0.421458
0.00500395 -0.13941 0.498323
-0.170025 -0.139246 0.405294
0.047319 -0.139185 0.505145
-0.162045 -0.139063 0.393623
-0.0348143 -0.138942 0.450385
-0.17828 -0.138882 0.369827
0.0410152 -0.138722 0.473932
-0.13646 -0.138662 0.376373
-0.160832 -0.138544 0.357305
-0.152927 -0.138427 0.354361
-0.0833451 -0.138369 0.380324
-0.168809 -0.138213 0.332008
-0.111205 -0.138156 0.351984
-0.168589 -0.138042 0.31636
-0.198584 -0.137985 0.292531
-0.0438365 -0.137873 0.36295
-0.213075 -0.137722 0.272692
-0.232474 -0.137667 0.254156
-0.340509 -0.137557 0.193147
-0.0870527 -0.137502 0.311032
-0.20099 -0.137394 0.247045
-0.113483 -0.137341 0.281948
-0.164474 -0.137234 0.249406
-0.15157 -0.137142 0.248342
-0.300483 -0.137037 0.166818
-0.143435 -0.136985 0.236479
-0.281817 -0.136882 0.16019
-0.198472 -0.136831 0.192991
-0.0688385 -0.136729 0.250677
-0.338777 -0.136679 0.106826
-0.0372368 -0.13658 0.250432
-0.24181 -0.13653 0.139253
-0.20382 -0.136393 0.152409
-0.247521 -0.136345 0.121658
-0.250699 -0.136296 0.111166
-0.110012 -0.136201 0.174274
-0.227713 -0.136153 0.106508
-0.0619767 -0.13606 0.182102
-0.379444 -0.136013 0.0144392
-0.234943 -0.135921 0.0793772
-0.118297 -0.135876 0.128757
-0.278295 -0.135785 0.0414056
-0.00529835 -0.135741 0.168945
-0.369009 -0.135652 -0.0203033
-0.289854 -0.135609 0.0102996
-0.242659 -0.135565 0.0249186
-0.245308 -0.13548 0.0161458
-0.302493 -0.135437 -0.0214416
-0.169583 -0.135353 0.0375207
-0.147142 -0.135312 0.0397285
-0.149355 -0.135229 0.0310841
-0.216594 -0.135189 -0.0115667
0.227103 -0.133504 0.859297
0.206112 -0.133133 0.849239
0.0563455 -0.132793 0.773876
0.316938 -0.132521 0.901584
0.257282 -0.132282 0.868132
0.191618 -0.132043 0.831707
0.126141 -0.13177 0.796541
0.0846703 -0.131531 0.772282
-0.0509235 -0.131396 0.697638
0.00382244 -0.131124 0.722685
0.109113 -0.13099 0.768512
0.0590601 -0.13082 0.737849
0.068671 -0.130585 0.739219
0.00935561 -0.130453 0.70277
0.0364064 -0.130285 0.710703
0.261606 -0.130117 0.817722
-0.109077 -0.129885 0.62898
0.0962602 -0.12982 0.722723
-0.031488 -0.12959 0.655458
-0.161123 -0.129525 0.581732
0.0636078 -0.129296 0.690711
-0.0150373 -0.129232 0.642496
0.00799776 -0.129006 0.650626
0.048053 -0.128942 0.661776
0.0301298 -0.128816 0.646075
0.0626062 -0.128655 0.656794
0.130927 -0.12853 0.684216
-0.133327 -0.12837 0.546569
0.0393348 -0.128247 0.626161
-0.0170281 -0.128185 0.589132
-0.0968554 -0.128028 0.543702
-0.0546874 -0.127906 0.558044
-0.0482876 -0.127785 0.554496
-0.104515 -0.12763 0.520855
-0.0559633 -0.12757 0.536305
-0.251248 -0.127451 0.431907
-0.00895166 -0.127298 0.547519
0.000666317 -0.127239 0.543511
0.0468294 -0.127122 0.559826
-0.0110912 -0.126972 0.525313
-0.0660672 -0.126856 0.491045
-0.156216 -0.126799 0.43716
0.092238 -0.126685 0.554594
-0.0364956 -0.126628 0.481417
-0.104062 -0.126481 0.442058
-0.0455508 -0.126369 0.464502
-0.234125 -0.126314 0.361407
-0.0401556 -0.126203 0.451564
-0.0419124 -0.12606 0.44507
-0.136498 -0.126005 0.388972
-0.246324 -0.125897 0.327205
-0.233943 -0.125843 0.324587
-0.0862257 -0.125703 0.392792
-0.134397 -0.12565 0.3599
-0.228781 -0.125544 0.305821
-0.116876 -0.12544 0.354869
-0.0976506 -0.125388 0.355666
-0.179076 -0.125285 0.308026
-0.34381 -0.125201 0.218059
-0.0868835 -0.125099 0.339577
-0.122711 -0.125049 0.312842
-0.119061 -0.124948 0.307697
-0.142948 -0.124899 0.286925
-0.296177 -0.1248 0.203314
-0.0716926 -0.124751 0.30672
-0.183015 -0.124621 0.245256
-0.0958836 -0.124573 0.279982
-0.137278 -0.124478 0.252236
-0.140894 -0.12443 0.241581
-0.206864 -0.124336 0.201517
-0.242342 -0.12429 0.17492
-0.238731 -0.124197 0.169615
-0.244334 -0.124151 0.157945
-0.245762 -0.12406 0.150088
-0.160955 -0.124015 0.183612
-0.233366 -0.123894 0.141461
-0.252641 -0.12385 0.122937
-0.148691 -0.123762 0.167703
-0.126264 -0.123718 0.170018
-0.239803 -0.123675 0.104346
-0.16568 -0.12359 0.134152
-0.186951 -0.123547 0.114601
-0.169428 -0.123464 0.116068
-0.243486 -0.123422 0.0701087
-0.271684 -0.12334 0.0486753
-0.12901 -0.123299 0.111067
-0.227948 -0.123219 0.0542226
-0.410897 -0.123179 -0.046213
-0.215745 -0.123139 0.0423978
-0.16899 -0.123061 0.0583443
-0.167844 -0.123022 0.0499355
-0.0609949 -0.122946 0.0958849
-0.296891 -0.122908 -0.031063
-0.299109 -0.122833 -0.0396922
-0.136013 -0.122796 0.0328376
0.161726 -0.12105 0.852323
0.183997 -0.120567 0.868883
0.0150663 -0.120169 0.786941
0.149 -0.119861 0.853364
0.161823 -0.119706 0.853854
0.352009 -0.119489 0.945278
0.123352 -0.11918 0.830588
0.272354 -0.118963 0.901499
0.0537109 -0.118839 0.785319
0.123155 -0.118592 0.817581
0.0638476 -0.118469 0.781103
0.116082 -0.118253 0.803717
0.150302 -0.1181 0.815132
-0.0392414 -0.117947 0.714682
0.00631138 -0.117825 0.730684
0.122247 -0.117612 0.785206
0.000279588 -0.117461 0.718586
0.0262709 -0.11734 0.724831
0.0295035 -0.117189 0.720833
0.131458 -0.11698 0.768391
-0.0167579 -0.116861 0.687552
0.0384238 -0.116712 0.709547
0.133187 -0.116594 0.750206
0.00439231 -0.116447 0.680223
-0.00816425 -0.11633 0.667229
-0.0690157 -0.116184 0.631224
-0.0693291 -0.116126 0.6222
0.093363 -0.116011 0.696837
0.0874515 -0.115866 0.688313
-0.101116 -0.115752 0.587323
-0.014955 -0.115639 0.623692
-0.0116818 -0.115496 0.61976
0.0730994 -0.11544 0.653316
0.0267394 -0.115329 0.623425
-0.183917 -0.115188 0.512527
-0.246201 -0.115077 0.474669
-0.159877 -0.114938 0.512246
-0.0964869 -0.114884 0.535128
0.0873074 -0.114775 0.620303
-0.169711 -0.114667 0.485063
-0.00457341 -0.114531 0.562032
-0.16402 -0.114477 0.473506
-0.0157203 -0.114372 0.540914
-0.0288954 -0.114237 0.528706
-0.0321319 -0.114185 0.518291
-0.0491552 -0.114081 0.503023
-0.0496646 -0.113977 0.496
-0.263811 -0.113926 0.38013
-0.199125 -0.113795 0.406823
-0.231905 -0.113745 0.381642
-0.181734 -0.113644 0.399937
-0.153902 -0.113543 0.407049
-0.129117 -0.113466 0.411768
-0.0379227 -0.113367 0.45055
-0.0938904 -0.113317 0.413775
-0.115124 -0.11322 0.396325
-0.212517 -0.113123 0.34078
-0.120662 -0.113047 0.379023
-0.31663 -0.112951 0.274176
-0.306947 -0.112904 0.27022
-0.248963 -0.11281 0.292327
-0.17724 -0.112763 0.319387
-0.143251 -0.11267 0.329473
-0.132858 -0.112624 0.325863
-0.320329 -0.112505 0.226307
-0.0795388 -0.112459 0.337894
-0.105622 -0.112369 0.3179
-0.123565 -0.112324 0.300113
-0.232535 -0.112235 0.238649
-0.0844551 -0.112191 0.303866
0.0597489 -0.112103 0.368961
-0.0113902 -0.112034 0.325665
-0.157236 -0.111947 0.24571
-0.143869 -0.111904 0.243558
-0.152615 -0.11182 0.232123
-0.219672 -0.111778 0.189749
-0.230677 -0.111694 0.177152
-0.177518 -0.111653 0.194875
-0.103264 -0.111571 0.224875
-0.135555 -0.11153 0.199863
-0.162654 -0.11145 0.179151
-0.106324 -0.11141 0.198437
-0.0141941 -0.111305 0.238413
-0.256165 -0.111266 0.10854
-0.288835 -0.111188 0.0849744
-0.201068 -0.111149 0.119957
-0.188705 -0.111111 0.117234
-0.320124 -0.111036 0.044245
-0.251944 -0.110998 0.0694159
-0.168186 -0.110924 0.103975
-0.170659 -0.110887 0.0938048
-0.16364 -0.110815 0.0899534
-0.260921 -0.110779 0.0323631
-0.281246 -0.110743 0.0132466
-0.161056 -0.110672 0.0659255
-0.198927 -0.110637 0.0380187
-0.224476 -0.110568 0.0177837
-0.0875646 -0.110534 0.077251
-0.417954 -0.110467 -0.0954498
-0.34824 -0.110433 -0.0695999
0.388291 -0.108139 0.990597
0.204686 -0.107575 0.909262
0.259714 -0.107301 0.936
0.232601 -0.107025 0.921771
0.1267 -0.106831 0.865042
0.330481 -0.106611 0.964173
0.171428 -0.106416 0.880961
0.171465 -0.106222 0.877328
0.0754652 -0.106027 0.825708
-0.0421084 -0.105833 0.763327
0.197449 -0.105696 0.877304
0.198933 -0.105502 0.8745
0.162058 -0.105309 0.852534
0.110832 -0.105199 0.820135
0.0662443 -0.105062 0.792117
0.0110461 -0.104871 0.761031
0.240625 -0.104762 0.869066
-0.0700082 -0.104626 0.708066
0.022613 -0.104492 0.748702
0.233172 -0.104383 0.847256
0.0337994 -0.104249 0.741915
0.0657626 -0.104142 0.751183
0.0740614 -0.103955 0.751893
0.0234595 -0.103849 0.719884
-0.0198732 -0.103717 0.692586
-0.0924182 -0.103612 0.649614
0.0442089 -0.103481 0.712302
0.0427643 -0.103429 0.702711
-0.0940741 -0.103248 0.630843
-0.0510843 -0.103196 0.643483
-0.0666404 -0.103093 0.62902
-0.102104 -0.102965 0.60567
-0.137967 -0.102863 0.581053
-0.0923068 -0.102737 0.598257
0.0801158 -0.102636 0.677783
-0.0749451 -0.102586 0.59143
-0.00770551 -0.102486 0.618361
-0.102708 -0.102362 0.565229
-0.00420954 -0.102263 0.607784
-0.0274662 -0.102214 0.587348
0.0320514 -0.102092 0.611464
-0.0955351 -0.101995 0.54097
-0.126026 -0.101946 0.516927
-0.0108622 -0.101826 0.568847
-0.137584 -0.101731 0.498774
-0.0602698 -0.101636 0.53071
-0.137135 -0.101589 0.483489
0.101988 -0.101471 0.597358
0.0809309 -0.101378 0.580094
-0.151722 -0.101332 0.454984
-0.0831239 -0.101239 0.482534
-0.0641352 -0.101125 0.486296
-0.0994296 -0.101079 0.459869
-0.131157 -0.100989 0.437235
-0.121102 -0.100944 0.433482
-0.198063 -0.100855 0.388216
-0.11392 -0.100811 0.421506
-0.025709 -0.1007 0.459831
-0.17448 -0.100612 0.378633
-0.0992772 -0.100569 0.407452
-0.0727163 -0.100482 0.4139
-0.416641 -0.10044 0.233152
-0.0388276 -0.100332 0.416215
-0.133943 -0.10029 0.359871
-0.033538 -0.100206 0.403205
-0.183373 -0.100164 0.319497
-0.144748 -0.100081 0.331917
0.0844485 -0.10004 0.43772
-0.173576 -0.0999587 0.301791
-0.0826569 -0.0998563 0.341312
-0.0592538 -0.0998161 0.34421
-0.0680085 -0.0997365 0.332874
-0.273916 -0.099697 0.221109
-0.0533167 -0.0996185 0.324422
-0.188413 -0.0995796 0.248056
0.0199554 -0.0995024 0.345225
-0.122059 -0.0994641 0.26539
-0.255085 -0.0994052 0.191033
0.0246373 -0.0993296 0.323845
-0.327451 -0.0992922 0.138965
-0.110572 -0.0992179 0.240323
-0.213216 -0.0991811 0.180156
-0.240699 -0.0991081 0.1593
-0.140876 -0.0990719 0.200354
-0.149988 -0.0990002 0.188649
-0.148354 -0.0989646 0.180598
-0.146122 -0.0988942 0.174528
-0.0507051 -0.0988594 0.213355
-0.37167 -0.0987903 0.0456508
-0.215758 -0.0987561 0.114712
-0.269847 -0.0987221 0.0787694
-0.247665 -0.0986345 0.0835743
-0.169761 -0.0986011 0.113616
-0.381296 -0.0985351 0.00054093
-0.166769 -0.0985024 0.0988797
-0.20514 -0.0984378 0.072345
-0.223736 -0.0984058 0.0541061
-0.221028 -0.098374 0.0465152
-0.413925 -0.0983112 -0.0573379
-0.111277 -0.0982801 0.0850243
-0.243626 -0.0982186 0.0114005
-0.251485 -0.0981882 -0.00150848
-0.257079 -0.0981281 -0.0118
-0.136595 -0.0980984 0.0394441
0.538 -0.0951706 1.08754
0.418394 -0.0946794 1.03777
0.202217 -0.09437 0.931792
0.331449 -0.0941285 0.995588
0.309441 -0.0939064 0.982963
0.226464 -0.0937143 0.938573
0.12964 -0.0935424 0.886401
0.138873 -0.0933706 0.887295
0.176816 -0.093199 0.902579
0.257629 -0.0929563 0.942539
0.221217 -0.0927853 0.920711
0.216352 -0.0926859 0.911456
0.0404043 -0.0925651 0.817653
0.210978 -0.0923952 0.899378
-0.0793966 -0.0922259 0.750644
0.0507847 -0.0921278 0.808968
0.095761 -0.0920083 0.825696
0.0200401 -0.0918405 0.784326
0.043834 -0.0917435 0.789487
0.00481338 -0.0916252 0.764253
-0.0377251 -0.091529 0.736265
0.00676411 -0.0914114 0.752804
-0.0068188 -0.0913159 0.739309
0.147022 -0.0911992 0.81054
0.074929 -0.0910359 0.771018
0.147864 -0.0909888 0.79859
0.0125012 -0.0908948 0.724228
-0.0315611 -0.0907335 0.698724
0.183689 -0.090687 0.797476
-0.112884 -0.0905733 0.643519
-0.00415239 -0.0904812 0.691218
-0.0605607 -0.0903895 0.656345
-0.000607623 -0.0902774 0.680654
0.0375135 -0.0901866 0.693049
0.0448303 -0.0900758 0.691031
-0.0386428 -0.089986 0.642629
-0.0295116 -0.0899413 0.638372
-0.102529 -0.089832 0.596183
-0.290358 -0.0897435 0.495603
-0.130487 -0.0896556 0.568868
-0.0399709 -0.0895481 0.608429
-0.149689 -0.0895046 0.54477
-0.0245141 -0.089418 0.600683
0.0917677 -0.0893123 0.653109
0.00529305 -0.0892695 0.601083
0.0474699 -0.0891843 0.615489
-0.168219 -0.0890997 0.500954
-0.0756911 -0.0889964 0.541474
-0.17661 -0.0889545 0.482236
-0.0201711 -0.0888713 0.553752
-0.0486602 -0.0887888 0.532793
-0.137181 -0.0887289 0.480698
-0.142098 -0.0886472 0.47152
-0.0186564 -0.0886066 0.524469
-0.149479 -0.0885258 0.452325
-0.168132 -0.0884457 0.436253
-0.217347 -0.0883875 0.403802
0.0455573 -0.0883083 0.528499
-0.074369 -0.0882689 0.459767
-0.186768 -0.0881907 0.396796
-0.064894 -0.0881131 0.450948
-0.113534 -0.0880568 0.418767
-0.166022 -0.0879801 0.385724
-0.337768 -0.0879421 0.291078
0.0136442 -0.0878664 0.459966
-0.208836 -0.0878289 0.33995
-0.20808 -0.0877542 0.333489
-0.259928 -0.0876631 0.301604
-0.122189 -0.0876264 0.361693
-0.212098 -0.0875534 0.309863
-0.30591 -0.0875172 0.254171
-0.225054 -0.0874453 0.2877
-0.16169 -0.0874097 0.310591
-0.14588 -0.0873388 0.311571
-0.116117 -0.0873037 0.317656
-0.212376 -0.0872174 0.263454
-0.278976 -0.0871827 0.221352
-0.159975 -0.087114 0.273877
-0.229053 -0.0870799 0.230528
-0.239101 -0.0870123 0.218499
-0.122321 -0.0869788 0.268071
-0.242761 -0.0869122 0.200816
-0.138318 -0.0868793 0.24421
-0.280918 -0.0868465 0.16408
-0.170528 -0.0867656 0.213059
-0.365162 -0.0867333 0.106904
-0.109243 -0.0866694 0.227759
-0.333277 -0.0866377 0.106893
-0.136689 -0.0865749 0.198047
0.0156618 -0.0865438 0.265362
-0.235603 -0.0864821 0.132554
-0.229584 -0.0864515 0.12669
-0.186338 -0.086391 0.1411
-0.276169 -0.0863611 0.087298
-0.0920039 -0.0863313 0.17049
-0.228013 -0.0862723 0.0952238
-0.315677 -0.0862431 0.0424873
-0.136066 -0.0861853 0.12499
-0.190108 -0.0861567 0.0890499
-0.0990288 -0.0861001 0.127246
-0.103282 -0.0860721 0.116183
-0.0324521 -0.0860443 0.142658
-0.11873 -0.0859893 0.0921209
-0.23595 -0.0859621 0.0245539
-0.186245 -0.0859082 0.0419628
-0.290431 -0.0858665 -0.0182449
0.00347335 -0.0858139 0.121221
-0.36622 -0.0857878 -0.0726168
0.524073 -0.0817346 1.1073
0.224381 -0.0813689 0.964461
0.406047 -0.0811181 1.05652
0.152874 -0.0809103 0.929039
0.269486 -0.0807018 0.986543
0.280322 -0.0805535 0.988117
0.189041 -0.0804051 0.938672
0.228449 -0.0802569 0.954611
0.243042 -0.0801088 0.958176
0.165259 -0.0799609 0.915586
0.186086 -0.0798133 0.92233
0.152236 -0.0796659 0.90176
0.0856728 -0.079519 0.864856
0.104789 -0.0794154 0.868551
0.159879 -0.0792692 0.892511
0.194413 -0.0791838 0.903012
0.192332 -0.0790385 0.898413
0.0705027 -0.0789361 0.831698
0.00291057 -0.0788517 0.79117
-0.0179293 -0.0787499 0.774974
0.148346 -0.078666 0.851399
0.105637 -0.0785232 0.82653
0.012624 -0.0784402 0.773324
0.0871414 -0.0783399 0.804839
-0.0144197 -0.0782575 0.747374
0.089655 -0.0781581 0.793679
0.0584416 -0.0780764 0.771399
0.132992 -0.0779777 0.802948
0.0944556 -0.0778968 0.777017
0.058838 -0.0777991 0.753484
-0.0456469 -0.0777188 0.694586
-0.180681 -0.077639 0.620413
0.0279826 -0.0775427 0.719025
0.0869257 -0.0774637 0.741844
0.050352 -0.0773684 0.717829
-0.196955 -0.0772902 0.587525
0.0178044 -0.0772513 0.686079
-0.134076 -0.0771574 0.604407
-0.111561 -0.0770802 0.609018
0.0519396 -0.0770035 0.684117
-0.127249 -0.0769113 0.588773
-0.0190261 -0.0768733 0.634085
-0.0441012 -0.0767978 0.614895
-0.155628 -0.076707 0.553365
-0.0760714 -0.0766324 0.586483
-0.156645 -0.0765952 0.537411
-0.111011 -0.0765213 0.553562
-0.0617568 -0.0764326 0.572396
-0.234974 -0.0763961 0.477011
-0.192753 -0.0763234 0.491446
-0.0749748 -0.0762512 0.54365
-0.152596 -0.0762005 0.496931
-0.305368 -0.076129 0.413855
-0.233986 -0.0760581 0.442846
-0.240293 -0.0760229 0.430926
-0.226246 -0.0759384 0.432082
-0.197668 -0.0758688 0.439652
-0.167906 -0.0758342 0.44577
-0.102315 -0.0757654 0.471833
-0.0218974 -0.0757312 0.503279
-0.0594941 -0.0756493 0.478557
-0.0403509 -0.0755819 0.481371
-0.15871 -0.0755484 0.413429
-0.0662979 -0.0754818 0.45286
-0.131476 -0.0754487 0.411507
-0.162607 -0.075383 0.389149
-0.243254 -0.075337 0.340862
-0.249946 -0.0752721 0.330708
-0.171695 -0.0752077 0.363008
-0.0724422 -0.0751758 0.403863
-0.170191 -0.0751124 0.348142
-0.181698 -0.0750809 0.333613
-0.103192 -0.0750056 0.366774
-0.198143 -0.0749745 0.31052
-0.157372 -0.0749128 0.324015
-0.162537 -0.0748822 0.312649
-0.212887 -0.0748215 0.280558
-0.173699 -0.0747913 0.291362
-0.0929472 -0.0747315 0.324795
-0.312001 -0.0747018 0.206471
-0.0164789 -0.0746308 0.348013
-0.233124 -0.0746015 0.230887
-0.193621 -0.0745435 0.243642
-0.0570141 -0.0745148 0.303133
-0.0779727 -0.0744577 0.285627
-0.056734 -0.0744294 0.287424
-0.250391 -0.0743733 0.183537
-0.130408 -0.0743455 0.234697
-0.158197 -0.0743179 0.211969
-0.0693706 -0.0742631 0.249281
-0.279514 -0.0742359 0.135365
-0.185038 -0.074182 0.175468
-0.162655 -0.0741554 0.177802
-0.127695 -0.0740911 0.18884
-0.188047 -0.0740649 0.149796
-0.192518 -0.074013 0.140354
-0.189143 -0.0739873 0.13316
-0.159857 -0.0739618 0.138918
-0.160335 -0.0739113 0.131424
-0.150963 -0.0738862 0.127211
-0.177954 -0.0738367 0.106419
-0.252123 -0.0738122 0.0604207
-0.0875466 -0.0737636 0.135371
-0.275115 -0.0737396 0.0326572
-0.206248 -0.0737158 0.0581565
-0.172828 -0.0736686 0.0674737
-0.349202 -0.0736452 -0.0296644
-0.173573 -0.0735991 0.0507128
-0.303093 -0.0735763 -0.023016
-0.175215 -0.0735312 0.0334398
-0.366886 -0.0735089 -0.0713828
0.414741 -0.0683461 1.0734
0.362726 -0.0680897 1.05127
0.295441 -0.0678307 1.02175
0.319178 -0.0676698 1.03184
0.291894 -0.0674956 1.01729
0.137269 -0.067321 0.939152
0.213705 -0.0671967 0.973517
0.288176 -0.0670724 1.00694
0.150096 -0.0669482 0.934119
0.234819 -0.0668241 0.972735
0.260546 -0.0667003 0.981881
0.153229 -0.0665768 0.924532
0.194091 -0.0664535 0.941296
0.117386 -0.066381 0.896138
0.124908 -0.0662583 0.896268
0.100388 -0.0661721 0.878124
0.135402 -0.0660502 0.892031
0.106344 -0.0659786 0.870754
0.018843 -0.0658931 0.821162
0.0783944 -0.0657725 0.847367
0.116396 -0.0657017 0.859653
0.202719 -0.0656172 0.897002
0.0784584 -0.0655469 0.828176
0.120451 -0.0654282 0.845624
0.0206449 -0.0653586 0.789037
0.13865 -0.0652755 0.842252
0.022097 -0.0652064 0.777305
-0.147341 -0.0651241 0.686805
-0.0413338 -0.0650556 0.73315
-0.0249512 -0.0649741 0.735562
-0.132417 -0.0649062 0.67518
-0.0475801 -0.0648387 0.710949
0.00837824 -0.0647583 0.733154
-0.116914 -0.0646914 0.663864
0.0826434 -0.0646119 0.757861
-0.0933478 -0.0645788 0.661028
0.0834211 -0.0645127 0.742778
-0.155628 -0.0644344 0.617467
-0.184071 -0.064369 0.596612
0.060414 -0.0643041 0.712217
-0.115868 -0.0642271 0.618274
-0.0412835 -0.0641949 0.646763
0.0628886 -0.0641309 0.692213
-0.167215 -0.0640551 0.571341
0.00239761 -0.0639919 0.649506
-0.154639 -0.0639604 0.562201
-0.28466 -0.0638977 0.490545
-0.0574375 -0.0638237 0.598311
-0.0775174 -0.0637618 0.581617
-0.131964 -0.063731 0.545619
-0.186388 -0.0636584 0.51253
-0.0981012 -0.0635975 0.550009
0.0314326 -0.0635672 0.606009
0.0103397 -0.063507 0.588789
-0.112462 -0.0634363 0.521468
-0.265449 -0.0634065 0.436214
-0.150905 -0.0633474 0.486796
-0.15614 -0.063318 0.47542
-0.0761243 -0.0632595 0.508726
-0.183679 -0.063191 0.448975
-0.0915087 -0.0631621 0.486305
-0.09059 -0.0631047 0.48004
-0.21625 -0.0630478 0.410473
-0.113687 -0.0630195 0.452997
-0.0689216 -0.0629533 0.469341
-0.166341 -0.0629254 0.411876
-0.108794 -0.0628699 0.433882
-0.00777988 -0.0628423 0.475631
-0.164833 -0.0627875 0.39032
-0.147743 -0.0627602 0.390105
-0.0929216 -0.0627061 0.410711
-0.242301 -0.0626431 0.329887
-0.142462 -0.0626164 0.371041
-0.116501 -0.0625636 0.377181
-0.213829 -0.0625373 0.319748
-0.0877805 -0.0624851 0.375909
-0.194401 -0.0624593 0.313824
-0.289569 -0.0624079 0.259353
-0.270583 -0.0623735 0.26072
-0.324646 -0.0623229 0.226777
-0.353845 -0.0622977 0.203393
-0.263813 -0.0622478 0.241471
-0.403314 -0.0622231 0.162929
-0.108423 -0.062174 0.303409
-0.260689 -0.0621496 0.218475
-0.195663 -0.0621013 0.243994
-0.152943 -0.0620773 0.256545
-0.206726 -0.0620298 0.22263
-0.280437 -0.061998 0.177576
-0.136807 -0.0619513 0.242336
-0.204558 -0.0619281 0.199633
-0.197885 -0.0619051 0.19414
-0.00692524 -0.0618594 0.282523
-0.384334 -0.0618367 0.0849786
-0.175154 -0.0617919 0.182437
-0.140314 -0.0617696 0.191005
-0.175699 -0.0617256 0.166145
-0.154467 -0.0617038 0.167896
-0.366307 -0.0616605 0.0547715
-0.10977 -0.0616391 0.174161
-0.113836 -0.0616179 0.163246
-0.230375 -0.0615757 0.0977232
-0.0693371 -0.0615549 0.169346
-0.278106 -0.0615136 0.057668
-0.368086 -0.0614932 0.00376603
-0.279818 -0.0614453 0.0411507
-0.226265 -0.0614253 0.0590005
-0.258965 -0.0614054 0.0337197
-0.423559 -0.0613661 -0.055967
-0.229111 -0.0613467 0.0323096
-0.37319 -0.0613082 -0.0471644
-0.160052 -0.0612892 0.0504393
-0.270001 -0.0612516 -0.0120151
-0.311786 -0.0612331 -0.0418914
0.412544 -0.0549056 1.09019
0.385259 -0.0547006 1.08023
0.300994 -0.0544933 1.04204
0.39751 -0.0543242 1.09145
0.386189 -0.0541845 1.08478
0.269201 -0.0540845 1.02232
0.184058 -0.0539546 0.978096
0.289648 -0.0538143 1.03009
0.0927557 -0.0537144 0.927815
0.434478 -0.0536146 1.09488
0.307365 -0.053515 1.02755
0.2855 -0.0534155 1.01288
0.169572 -0.0533566 0.948078
0.183978 -0.0532575 0.951583
-0.0754002 -0.0531588 0.818214
0.19165 -0.0530896 0.945796
0.194612 -0.0530313 0.940506
0.158436 -0.0529335 0.918785
-0.0310533 -0.052836 0.820416
-0.0322894 -0.0527784 0.813065
0.178114 -0.0527103 0.91239
0.132827 -0.0526531 0.883035
0.0753444 -0.052557 0.850702
0.141107 -0.0524898 0.877728
0.1845 -0.0524333 0.89274
0.0891944 -0.052377 0.838409
-0.0606098 -0.0523105 0.757673
0.106902 -0.0522546 0.834765
-0.0343721 -0.0521888 0.758301
-0.0505365 -0.0521334 0.743567
0.0328066 -0.0520681 0.779413
0.0342577 -0.0520132 0.773497
-0.155377 -0.0519487 0.672852
-0.00679018 -0.0518943 0.740512
-0.0318328 -0.0518401 0.721358
-0.204798 -0.0517766 0.629045
-0.151019 -0.051723 0.649306
0.0610684 -0.0516602 0.749507
-0.0238169 -0.0516071 0.700439
0.0553412 -0.0515543 0.733391
-0.152364 -0.0515281 0.620721
-0.00985775 -0.0514665 0.686123
-0.123522 -0.0514145 0.622666
-0.0980859 -0.0513538 0.62951
-0.0250533 -0.0513023 0.659398
-0.0588649 -0.0512767 0.633701
-0.0657229 -0.0512258 0.623642
-0.0855591 -0.0511665 0.607825
-0.233709 -0.0511161 0.527112
-0.0703499 -0.0510911 0.600015
-0.202606 -0.0510412 0.527246
0.0720219 -0.0509833 0.658625
-0.0529675 -0.0509587 0.587363
-0.0881492 -0.0509096 0.56312
-0.0628072 -0.0508609 0.569131
-0.150274 -0.0508288 0.517325
-0.168433 -0.0507806 0.501579
-0.238871 -0.0507327 0.459685
0.00186211 -0.0507089 0.571295
-0.131845 -0.050654 0.498417
-0.184893 -0.050607 0.465199
-0.204479 -0.0505837 0.446652
-0.181923 -0.0505372 0.451223
-0.238694 -0.0505142 0.414085
-0.0988935 -0.0504611 0.477897
-0.3587 -0.0504156 0.341262
-0.162128 -0.050393 0.430795
-0.157567 -0.050348 0.426329
-0.269131 -0.0503256 0.361794
-0.147284 -0.0502812 0.415953
-0.173045 -0.0502525 0.394917
-0.210051 -0.0502086 0.369633
-0.155374 -0.0501718 0.389574
-0.121992 -0.0501436 0.398106
-0.262552 -0.0501007 0.321009
-0.224061 -0.0500794 0.331492
-0.141424 -0.0500309 0.366534
-0.202207 -0.0500099 0.327376
-0.169303 -0.0499682 0.336968
-0.0356684 -0.0499475 0.395014
-0.168355 -0.0499064 0.321786
-0.0472386 -0.049886 0.373568
-0.216664 -0.0498456 0.281946
-0.187645 -0.0498255 0.287672
-0.320514 -0.0497856 0.214301
-0.255809 -0.0497602 0.238386
-0.15669 -0.0497209 0.280982
-0.265746 -0.0497014 0.217656
-0.37484 -0.0496628 0.156117
-0.221036 -0.0496436 0.224213
-0.31578 -0.0496056 0.169818
-0.123702 -0.0495868 0.257041
-0.143836 -0.0495494 0.23992
-0.353315 -0.0495309 0.126354
-0.168758 -0.0495125 0.209805
-0.299087 -0.0494759 0.137545
-0.126349 -0.0494578 0.215074
-0.217799 -0.049417 0.162696
-0.174566 -0.0493992 0.175462
-0.25808 -0.049364 0.126539
-0.104424 -0.0493466 0.194503
-0.206854 -0.049312 0.136085
-0.331339 -0.0492949 0.0649655
-0.242933 -0.0492779 0.100289
-0.213757 -0.0492442 0.107624
-0.122892 -0.0492276 0.144162
-0.347897 -0.0491946 0.0243664
-0.356367 -0.0491782 0.0112216
-0.183372 -0.0491459 0.0903848
-0.132968 -0.0491299 0.106662
-0.17667 -0.049114 0.0758808
-0.306402 -0.0490826 0.00362534
-0.204494 -0.0490671 0.0456324
-0.109657 -0.0490363 0.0856171
-0.338395 -0.0490211 -0.0377159
-0.275871 -0.0489911 -0.0139342
-0.245106 -0.0489763 -0.0075341
0.559195 -0.0414538 1.17148
0.459433 -0.0412218 1.13286
0.32761 -0.0410438 1.07295
0.303612 -0.0409463 1.059
0.374159 -0.0408416 1.09311
0.263349 -0.0407138 1.03892
0.189266 -0.0406385 0.997877
0.315367 -0.040533 1.06002
0.202461 -0.0404351 1.00195
0.269316 -0.0403599 1.03151
0.302632 -0.0402847 1.04434
0.276942 -0.0402097 1.02769
0.084699 -0.0401348 0.927791
0.188837 -0.0400902 0.973018
0.34275 -0.0400157 1.04624
0.178145 -0.0399414 0.960224
0.142343 -0.0398894 0.936337
0.0656544 -0.0398233 0.893504
0.123407 -0.0397716 0.916425
-0.0139257 -0.0396983 0.844098
-0.0425759 -0.0396547 0.823038
-0.112481 -0.0396036 0.782164
-0.0427694 -0.0395311 0.81338
0.151559 -0.039488 0.903843
0.0773141 -0.0394375 0.860818
0.222435 -0.0393947 0.926695
0.114813 -0.0393447 0.866993
0.124715 -0.0393022 0.865278
-0.0417204 -0.0392315 0.778434
0.00747201 -0.0391895 0.796375
0.119761 -0.0391405 0.846634
-0.0437342 -0.0390987 0.758242
-0.00873586 -0.0390572 0.769101
0.0324818 -0.0390089 0.783828
-0.0626218 -0.0389678 0.729644
0.125273 -0.03892 0.817702
-0.11025 -0.0388793 0.693314
0.0257157 -0.038859 0.752451
0.0125218 -0.0388119 0.739961
-0.0190101 -0.0387716 0.717579
-0.18464 -0.0387316 0.628146
-0.00626355 -0.0386854 0.711426
-0.124642 -0.0386458 0.645619
-0.224199 -0.0386064 0.589221
0.125991 -0.0385806 0.7562
-0.154241 -0.0385415 0.609469
-0.0191867 -0.0385027 0.670378
-0.0554981 -0.0384582 0.646266
-0.164246 -0.038439 0.583107
-0.108802 -0.0384007 0.604207
0.0778829 -0.0383627 0.690922
-0.0429481 -0.0383193 0.624517
-0.0601127 -0.0383005 0.607163
0.190578 -0.0382631 0.725874
-0.114548 -0.0382259 0.566669
-0.107902 -0.038202 0.561844
-0.0355011 -0.0381653 0.591397
0.00811941 -0.0381287 0.606553
0.0348381 -0.0381106 0.611155
-0.218277 -0.0380694 0.478519
-0.20936 -0.0380335 0.476307
-0.128614 -0.0380156 0.507927
-0.029097 -0.0379801 0.551004
-0.0133347 -0.0379449 0.552193
-0.209904 -0.0379227 0.44571
-0.00419859 -0.0378879 0.541858
-0.0894088 -0.0378706 0.490504
-0.112275 -0.0378361 0.472354
-0.336796 -0.037802 0.353363
-0.243371 -0.037785 0.391325
-0.225168 -0.037747 0.394196
-0.169307 -0.0377302 0.413376
-0.209248 -0.0376969 0.386643
-0.143216 -0.0376804 0.410907
-0.150967 -0.0376475 0.400251
-0.140462 -0.0376312 0.396749
-0.108696 -0.0375948 0.406308
-0.1544 -0.0375627 0.376639
-0.0367923 -0.0375467 0.426682
-0.0713853 -0.037515 0.402548
-0.124689 -0.0374993 0.367131
-0.201536 -0.037468 0.321846
-0.0754305 -0.0374525 0.376129
-0.0628315 -0.0374182 0.375975
-0.286177 -0.0374029 0.255526
-0.273699 -0.0373726 0.254855
-0.248906 -0.0373575 0.25847
-0.254182 -0.0373277 0.248894
0.0572184 -0.0373128 0.395806
-0.115939 -0.0372834 0.302263
-0.201308 -0.0372688 0.250781
-0.19057 -0.0372399 0.249156
-0.133649 -0.0372255 0.268811
-0.222862 -0.037194 0.21756
-0.293784 -0.0371799 0.173284
-0.20523 -0.0371583 0.209699
-0.273386 -0.037138 0.167602
-0.370099 -0.0371242 0.110417
-0.163327 -0.0370969 0.206706
-0.295461 -0.0370833 0.131801
-0.250085 -0.0370564 0.147356
-0.24654 -0.0370431 0.140278
-0.383378 -0.0370167 0.0646909
-0.15385 -0.0370037 0.170592
-0.129328 -0.0369778 0.175648
-0.348049 -0.036965 0.0574106
-0.245404 -0.0369522 0.0998533
-0.351816 -0.036927 0.0393929
-0.248929 -0.0369145 0.0819422
-0.184838 -0.0368898 0.106693
-0.206314 -0.0368775 0.0870463
-0.415758 -0.0368533 -0.0250118
-0.230965 -0.0368389 0.0587761
-0.21633 -0.036827 0.0571641
-0.194665 -0.0368035 0.0606044
-0.266632 -0.0367919 0.0156743
-0.220159 -0.0367689 0.0314744
-0.236688 -0.0367575 0.0142456
-0.40064 -0.036735 -0.0752127
0.0553592 -0.0367239 0.143804
0.674909 -0.0276325 1.25345
0.340439 -0.0275143 1.09193
0.434566 -0.0274297 1.13982
0.349185 -0.0273446 1.09809
0.261139 -0.0272593 1.05515
0.373979 -0.0272089 1.10748
0.255481 -0.0271432 1.04648
0.132755 -0.0270727 0.984147
0.222923 -0.0270223 1.02529
0.290161 -0.0269719 1.05501
0.249219 -0.0269065 1.03296
0.28768 -0.0268563 1.04835
0.397116 -0.0268213 1.09696
0.277262 -0.0267763 1.03248
0.165583 -0.0267264 0.972869
0.136913 -0.0266767 0.954781
0.186229 -0.026642 0.973407
0.1316 -0.0265927 0.942368
0.106457 -0.0265631 0.923031
0.224641 -0.0265141 0.978423
0.0928242 -0.0264847 0.905774
0.0875393 -0.0264507 0.897162
0.138389 -0.0264022 0.918908
0.200518 -0.0263732 0.943267
0.126958 -0.0263395 0.900535
0.199886 -0.0263107 0.930314
0.0947651 -0.0262631 0.874087
0.122249 -0.0262345 0.881158
0.0652057 -0.0262016 0.846699
-0.0097396 -0.0261732 0.80257
0.0410259 -0.0261406 0.822017
0.0515498 -0.0261125 0.820636
-0.0963898 -0.0260845 0.740027
0.0460568 -0.0260524 0.805318
-0.0104994 -0.0260246 0.77041
-0.0482182 -0.0259928 0.74561
-0.131319 -0.0259654 0.697437
-0.0484669 -0.0259381 0.732242
-0.0423045 -0.0259068 0.729373
0.0274859 -0.0258797 0.757651
-0.0132892 -0.0258489 0.731295
-0.147575 -0.0258355 0.655327
-0.0320237 -0.0258088 0.706493
-0.0640253 -0.0257822 0.683881
-0.0649233 -0.025752 0.677447
0.016798 -0.0257258 0.711694
-0.132908 -0.0257127 0.628042
-0.00958828 -0.0256831 0.683693
-0.183971 -0.0256572 0.589888
-0.0854533 -0.0256314 0.632529
-0.0931707 -0.0256186 0.619889
-0.11209 -0.0255897 0.604386
-0.183887 -0.0255644 0.561864
-0.284121 -0.0255392 0.505118
-0.0662582 -0.0255267 0.605281
-0.100997 -0.0254986 0.581824
-0.138956 -0.0254738 0.556206
-0.0860775 -0.0254615 0.573885
-0.0640393 -0.025437 0.578258
-0.0483011 -0.0254097 0.579986
-0.0991344 -0.0253975 0.545815
-0.0763153 -0.0253735 0.550563
-0.104911 -0.0253495 0.529594
-0.0999082 -0.0253349 0.523821
-0.190632 -0.0253113 0.471778
-0.039828 -0.0252878 0.540487
-0.00466605 -0.0252762 0.549319
-0.17957 -0.025253 0.455163
-0.0791534 -0.025239 0.49706
-0.140704 -0.025216 0.459566
-0.202449 -0.0251958 0.421527
-0.181109 -0.025182 0.423883
-0.0178908 -0.0251596 0.498745
-0.284905 -0.0251484 0.356488
-0.120526 -0.025124 0.432306
-0.0690769 -0.025113 0.44928
-0.0989739 -0.0250911 0.427548
-0.410586 -0.0250803 0.262988
-0.14839 -0.0250587 0.387284
-0.204267 -0.0250394 0.352138
-0.0806899 -0.0250266 0.405555
-0.165853 -0.0250036 0.356477
-0.167385 -0.0249932 0.346945
-0.286636 -0.0249724 0.280456
-0.39277 -0.024962 0.218619
-0.220388 -0.0249415 0.297922
-0.338806 -0.0249314 0.229936
-0.189555 -0.0249112 0.297649
-0.2011 -0.0249011 0.283094
-0.199913 -0.0248812 0.276748
-0.247713 -0.0248698 0.244347
-0.116506 -0.0248502 0.302982
-0.130211 -0.0248405 0.287331
-0.185935 -0.0248213 0.252471
-0.150764 -0.0248117 0.26125
-0.016347 -0.0247942 0.321149
-0.277103 -0.0247833 0.182236
-0.102562 -0.024774 0.260689
-0.126754 -0.0247555 0.241525
-0.263142 -0.0247463 0.164503
-0.0700769 -0.0247281 0.253935
-0.268754 -0.024719 0.145756
-0.195087 -0.0247 0.175678
-0.225304 -0.0246911 0.151717
-0.0522547 -0.0246736 0.231069
-0.255663 -0.0246649 0.1205
-0.212125 -0.0246477 0.135058
-0.238264 -0.0246391 0.113111
-0.117179 -0.0246307 0.164772
-0.0768203 -0.0246139 0.177692
-0.214994 -0.0246056 0.0997092
-0.243075 -0.0245891 0.0783692
-0.277364 -0.024581 0.052314
-0.214332 -0.0245649 0.0764892
-0.311044 -0.0245569 0.0192067
-0.424457 -0.024549 -0.0464307
-0.225852 -0.0245333 0.0454763
-0.391561 -0.0245256 -0.0463261
-0.205327 -0.0245103 0.0393507
-0.281159 -0.0245027 -0.0075309
-0.128905 -0.0244877 0.0611106
-0.248212 -0.0244803 -0.00752636
0.636175 -0.0139681 1.22498
0.506427 -0.0138506 1.18271
0.437703 -0.0137913 1.154
0.434803 -0.0137489 1.15331
0.288096 -0.0137062 1.08086
0.286791 -0.0136634 1.08123
0.362273 -0.0136304 1.11713
0.275179 -0.0135951 1.07249
0.293813 -0.0135698 1.07779
0.310607 -0.0135368 1.0845
0.300469 -0.0135115 1.07549
0.192483 -0.0134863 1.01759
0.269481 -0.0134611 1.05221
0.26772 -0.013436 1.04747
0.165505 -0.0134133 0.991801
0.0768781 -0.0133883 0.943675
0.149547 -0.0133709 0.973914
0.0946426 -0.013346 0.942683
0.189496 -0.0133213 0.986343
0.112938 -0.0133064 0.941289
0.17428 -0.0132818 0.968217
0.287056 -0.013267 1.01786
0.19977 -0.01325 0.968194
0.200156 -0.0132257 0.964664
0.0702806 -0.013211 0.893014
0.168574 -0.0131942 0.936158
0.0751695 -0.0131797 0.882764
0.114027 -0.0131558 0.898483
0.186912 -0.0131414 0.92825
0.092478 -0.0131249 0.875044
0.0337317 -0.0131106 0.839011
-0.0561939 -0.0130964 0.787394
0.110191 -0.0130802 0.864606
-0.0295188 -0.013066 0.78811
0.0545169 -0.01305 0.824143
0.134557 -0.013036 0.857533
0.119848 -0.0130201 0.844184
-0.213615 -0.0130062 0.67083
0.0753896 -0.0129924 0.808713
-0.0558299 -0.0129768 0.7371
-0.00603619 -0.0129631 0.755382
-0.197254 -0.0129495 0.653159
0.0310777 -0.0129342 0.761304
0.0112223 -0.0129208 0.744765
-0.0336517 -0.0129141 0.713506
-0.00610709 -0.012899 0.721239
-0.0271602 -0.0128857 0.704105
-0.0291769 -0.0128725 0.696488
-0.0675486 -0.0128578 0.671231
-0.176569 -0.0128512 0.607925
-0.0479557 -0.0128382 0.665623
-0.110917 -0.0128238 0.62804
-0.0108962 -0.0128109 0.671434
0.0121775 -0.0128045 0.674192
-0.182312 -0.0127918 0.570329
-0.0110733 -0.0127777 0.649804
-0.15897 -0.0127651 0.569227
-0.0441511 -0.0127588 0.617869
-0.0406988 -0.0127464 0.612963
-0.111848 -0.0127327 0.57119
-0.173049 -0.0127266 0.531831
-0.0913655 -0.0127143 0.566026
-0.079639 -0.0127022 0.565234
-0.0156168 -0.0126961 0.588492
-0.0612301 -0.0126829 0.559425
-0.158306 -0.012671 0.504214
-0.280141 -0.0126651 0.434546
-0.140528 -0.0126532 0.497668
-0.0545865 -0.0126474 0.531891
-0.135234 -0.0126347 0.485232
-0.258999 -0.0126231 0.416642
-0.188164 -0.0126173 0.443311
-0.0936684 -0.0126059 0.483837
-0.173435 -0.0126002 0.435206
0.0671883 -0.012588 0.549095
-0.0799773 -0.0125768 0.468761
-0.126098 -0.0125712 0.436949
-0.0846151 -0.0125602 0.450922
-0.392139 -0.0125547 0.288407
-0.0825875 -0.0125437 0.436397
-0.137402 -0.0125383 0.400235
-0.23805 -0.0125268 0.343366
-0.177066 -0.0125215 0.365099
-0.151779 -0.0125108 0.370914
-0.191356 -0.0125056 0.342363
-0.164053 -0.0124951 0.349164
-0.160097 -0.0124854 0.344022
-0.0905257 -0.0124795 0.370287
-0.201107 -0.0124693 0.308105
-0.264574 -0.0124637 0.267795
-0.254238 -0.0124536 0.266043
-0.386265 -0.0124486 0.191245
-0.292574 -0.0124387 0.231144
-0.190255 -0.0124337 0.273511
-0.134949 -0.0124245 0.293999
-0.147001 -0.0124191 0.279365
-0.158 -0.01241 0.266675
-0.191493 -0.0124047 0.241307
-0.10978 -0.0124 0.273353
-0.25685 -0.0123902 0.192911
-0.17157 -0.0123856 0.22673
-0.194997 -0.0123763 0.207941
-0.0301496 -0.0123717 0.281533
-0.133117 -0.0123627 0.222941
-0.109653 -0.0123582 0.22583
-0.21298 -0.0123492 0.167024
-0.170727 -0.0123448 0.179296
-0.24719 -0.012336 0.133886
-0.312312 -0.0123317 0.092458
-0.294361 -0.0123234 0.0941054
-0.271853 -0.0123189 0.0965914
-0.233423 -0.0123146 0.106923
-0.418991 -0.0123063 0.00687428
-0.267699 -0.0123021 0.073622
-0.152204 -0.0122939 0.124065
-0.200913 -0.0122898 0.0907978
-0.318678 -0.0122818 0.0245695
-0.299085 -0.0122778 0.0254371
-0.17532 -0.0122739 0.078386
-0.16798 -0.012266 0.0746559
-0.201025 -0.0122622 0.049183
-0.289183 -0.0122545 -0.00234052
-0.143115 -0.0122507 0.0617259
-0.27103 -0.0122433 -0.00972228
-0.369502 -0.0122396 -0.0679439
0.599179 0 1.22274
0.490687 0 1.18611
0.354504 0 1.12357
0.449126 0 1.17385
0.267051 0 1.08365
0.343959 0 1.12306
0.41192 0 1.15516
0.352947 0 1.12155
0.214756 0 1.05365
0.318 0 1.10125
0.331517 0 1.10402
0.242479 0 1.05485
0.168745 0 1.01705
0.220782 0 1.03917
0.297742 0 1.07077
0.270972 0 1.05353
0.124737 0 0.976576
0.283164 0 1.05197
0.177016 0 0.992086
0.342953 0 1.07126
0.230656 0 1.00833
0.0727058 0 0.925585
0.128748 0 0.947536
-0.0224725 0 0.865191
0.104738 0 0.925039
0.116828 0 0.92437
-0.0249112 0 0.847459
0.00895358 0 0.860634
0.154652 0 0.926799
0.0744199 0 0.880007
0.0586749 0 0.866102
0.064399 0 0.862303
0.0518736 0 0.850007
0.102308 0 0.868578
0.0273321 0 0.825051
-0.112226 0 0.748637
0.0401892 0 0.818214
0.155732 0 0.869941
0.0608362 0 0.815872
0.000217217 0 0.779503
0.0445477 0 0.795053
-0.0692626 0 0.731534
0.0190507 0 0.769614
-0.15344 0 0.676758
-0.0924226 0 0.701165
-0.0986076 0 0.691462
-0.115178 0 0.674357
0.0100776 0 0.730379
0.00163425 0 0.720031
0.02688 0 0.726045
-0.0731049 0 0.669442
-0.114039 0 0.640628
0.0531707 0 0.717623
-0.196478 0 0.586185
-0.102963 0 0.626325
-0.143316 0 0.597783
-0.135496 0 0.595073
-0.0301546 0 0.641118
-0.0393427 0 0.629484
-0.0354244 0 0.623461
0.0612831 0 0.665178
0.0210784 0 0.638432
-0.0171772 0 0.610545
-0.141936 0 0.541849
-0.0525302 0 0.579561
-0.0228878 0 0.585958
-0.0837218 0 0.548873
-0.245928 0 0.460767
-0.159698 0 0.495744
-0.105841 0 0.515983
-0.0757082 0 0.522299
-0.188841 0 0.459032
-0.270451 0 0.411514
-0.00821292 0 0.534122
-0.0918814 0 0.485558
-0.0992674 0 0.473115
-0.122716 0 0.454647
-0.160211 0 0.427149
-0.317667 0 0.341661
-0.211489 0 0.387977
-0.10379 0 0.433253
-0.0640957 0 0.446305
-0.129776 0 0.404707
-0.164612 0 0.380475
-0.206109 0 0.350965
-0.169575 0 0.362397
-0.174702 0 0.351192
-0.165814 0 0.348776
-0.296104 0 0.27486
-0.0852639 0 0.373397
-0.114845 0 0.34983
-0.229299 0 0.285697
-0.184482 0 0.299323
-0.134812 0 0.317226
-0.256218 0 0.247734
-0.137413 0 0.300228
0.00951676 0 0.364895
-0.292756 0 0.206768
-0.195504 0 0.246588
-0.306691 0 0.183975
-0.227035 0 0.214987
-0.299327 0 0.171791
-0.221724 0 0.201768
-0.258259 0 0.176418
-0.204192 0 0.194617
-0.26716 0 0.156017
-0.229133 0 0.166184
-0.237969 0 0.154616
-0.00158561 0 0.26395
-0.162447 0 0.176335
-0.161411 0 0.167982
-0.130839 0 0.174394
-0.248319 0 0.108422
-0.365025 0 0.0411823
-0.182598 0 0.125124
-0.192896 0 0.111076
-0.00125736 0 0.199588
-0.22667 0 0.0779669
-0.314649 0 0.0266283
-0.181696 0 0.0841743
-0.350491 0 -0.00915743
-0.22747 0 0.0449495
-0.0519149 0 0.123775
-0.206105 0 0.0392324
-0.477665 0 -0.105516
-0.136476 0 0.0575849
-0.185156 0 0.0242576
0.529365 0.0140538 1.1945
0.453484 0.0139453 1.17607
0.33034 0.0138782 1.12214
0.467706 0.0138356 1.19141
0.393455 0.0137752 1.16017
0.225987 0.013742 1.07442
0.316995 0.0136988 1.1209
0.41862 0.0136734 1.16754
0.442662 0.0136401 1.17773
0.336831 0.0136069 1.12304
0.423795 0.0135815 1.16248
0.271522 0.0135561 1.08233
0.178932 0.0135307 1.03206
0.214465 0.0134977 1.04819
0.18484 0.0134725 1.02945
0.147146 0.013455 1.00439
0.219817 0.0134321 1.03617
0.179468 0.0134071 1.01213
0.202483 0.0133822 1.01979
0.172765 0.0133649 0.998776
0.135155 0.0133423 0.975487
0.0347733 0.0133251 0.919169
0.181696 0.0133006 0.988813
-0.000996562 0.0132857 0.890716
-0.0537117 0.0132688 0.858252
0.262325 0.0132466 1.01184
0.139237 0.0132298 0.944205
0.125711 0.0132151 0.930737
0.209823 0.0131912 0.968996
-0.0352151 0.0131767 0.839789
0.268547 0.0131603 0.985583
0.015554 0.0131458 0.852416
0.156777 0.0131296 0.916938
-0.051407 0.0131152 0.806191
0.0744983 0.0130992 0.863049
-0.0244402 0.0130849 0.806937
0.0587119 0.0130708 0.841876
-0.00410292 0.013055 0.804369
0.150353 0.0130409 0.874969
-0.0735281 0.0130254 0.756913
0.104791 0.0130115 0.839452
-0.061151 0.0129976 0.749863
0.0313208 0.0129823 0.789966
0.15883 0.0129686 0.847107
0.0384138 0.012955 0.780286
-0.0634262 0.01294 0.723208
0.0425392 0.0129265 0.769579
-0.145351 0.0129198 0.666809
-0.0502562 0.0129051 0.708173
-0.156795 0.0128918 0.648295
-0.179444 0.0128785 0.630361
-0.0806855 0.0128642 0.673518
0.149472 0.0128535 0.781178
0.0612291 0.0128445 0.729065
-0.0525017 0.0128315 0.665587
-0.118378 0.0128176 0.626381
-0.121087 0.0128058 0.618057
0.150808 0.0127984 0.745572
-0.181321 0.0127848 0.573195
-0.0752261 0.0127721 0.619611
-0.114625 0.0127659 0.591141
-0.0637452 0.0127534 0.609946
-0.236842 0.0127402 0.517023
-0.0918933 0.012734 0.580733
-0.021517 0.0127217 0.609272
-0.134038 0.0127095 0.546355
-0.281236 0.0127034 0.463998
-0.210678 0.0126907 0.492831
-0.201574 0.0126788 0.490707
-0.0129691 0.0126728 0.576254
-0.169328 0.0126609 0.491389
-0.26834 0.0126498 0.43498
-0.0687719 0.0126429 0.526385
-0.299362 0.0126312 0.404379
-0.0365857 0.0126255 0.527015
-0.0865705 0.012614 0.495299
-0.155813 0.012603 0.453788
-0.204476 0.0125969 0.420857
-0.300934 0.0125854 0.365985
-0.161054 0.0125798 0.427169
-0.0696381 0.0125687 0.466107
-0.0979497 0.0125631 0.443194
-0.107007 0.0125522 0.431878
-0.170675 0.0125415 0.39315
-0.177325 0.0125358 0.381201
-0.178793 0.012525 0.373641
-0.0849956 0.0125197 0.411773
-0.127594 0.0125091 0.383627
-0.0879465 0.0125039 0.39468
-0.196913 0.0124934 0.333329
-0.288752 0.0124883 0.278635
-0.260444 0.012478 0.285898
-0.294683 0.0124729 0.259998
-0.10662 0.0124627 0.347115
-0.185163 0.0124577 0.299057
-0.273328 0.0124477 0.248034
-0.18157 0.0124428 0.28512
-0.299125 0.0124329 0.219376
-0.272391 0.0124281 0.223943
-0.0937393 0.0124184 0.306274
-0.171368 0.0124136 0.258651
-0.359523 0.012404 0.157549
-0.27502 0.0123993 0.190984
-0.244574 0.01239 0.199152
-0.140013 0.0123853 0.242606
-0.150603 0.0123761 0.230224
-0.243958 0.0123715 0.17471
-0.274772 0.0123625 0.152184
-0.156524 0.012358 0.202459
-0.260943 0.0123491 0.143096
-0.259854 0.0123447 0.134781
-0.260104 0.0123405 0.125704
-0.364893 0.0123319 0.0661054
-0.166242 0.0123276 0.156553
-0.228959 0.0123191 0.117954
-0.156258 0.0123149 0.145414
-0.289561 0.0123065 0.0714828
-0.280819 0.0123024 0.0669483
-0.212281 0.0122942 0.0938986
-0.166111 0.0122902 0.108063
-0.0723657 0.0122822 0.147575
-0.0916187 0.0122782 0.129013
-0.0864094 0.0122743 0.122677
-0.0850279 0.0122665 0.115953
-0.182819 0.0122626 0.0581003
-0.188703 0.012255 0.0476997
-0.244577 0.0122513 0.0107878
-0.157828 0.0122438 0.0466586
-0.150345 0.0122402 0.0414072
0.570194 0.0280296 1.23818
0.657684 0.0278615 1.2943
0.466327 0.0277415 1.20415
0.560827 0.0276556 1.25205
0.315806 0.0275734 1.12974
0.278334 0.0275027 1.10958
0.480388 0.027436 1.20866
0.285542 0.0273495 1.11228
0.432739 0.0272984 1.18174
0.454043 0.0272318 1.1906
0.270813 0.0271808 1.09493
0.266246 0.02713 1.08862
0.270457 0.0270638 1.08903
0.361768 0.0270132 1.13071
0.204596 0.0269824 1.04522
0.399849 0.026932 1.13892
0.38732 0.0268818 1.12874
0.173442 0.0268318 1.01789
0.324881 0.0268014 1.08678
0.18356 0.0267517 1.01225
0.0601921 0.0267023 0.946691
0.0800038 0.0266722 0.949815
0.201588 0.0266231 1.00675
0.129795 0.0265932 0.964099
0.23076 0.0265595 1.00843
0.179385 0.0265112 0.978898
0.135802 0.0264815 0.950386
0.0511857 0.0264484 0.901934
0.189142 0.026419 0.964213
0.0654892 0.0263716 0.898535
-0.0826334 0.0263424 0.817791
-0.0501444 0.02631 0.82789
0.0485898 0.0262811 0.870589
0.00156278 0.0262523 0.840415
0.0252941 0.0262204 0.846135
0.0430099 0.0261918 0.848345
0.10246 0.0261603 0.871914
0.0440664 0.026132 0.836079
-0.0217241 0.0261038 0.796551
0.085275 0.0260729 0.843882
0.0477389 0.0260449 0.818488
0.0794974 0.0260144 0.828177
-0.0791213 0.0259868 0.742247
0.0371902 0.0259592 0.793785
-0.0772812 0.0259294 0.730333
-0.0871843 0.0259021 0.718765
-0.0817703 0.025875 0.714857
-0.210164 0.0258504 0.643651
-0.111023 0.0258323 0.685156
-0.0340381 0.0258056 0.717037
-0.203035 0.025777 0.626257
-0.0291224 0.0257505 0.706598
0.0091553 0.0257262 0.718795
-0.177743 0.0257111 0.61687
-0.179713 0.0256833 0.60956
-0.0269165 0.0256574 0.679337
-0.169775 0.0256333 0.601
0.00167338 0.0256173 0.678472
-0.11252 0.0255918 0.614748
-0.0451645 0.0255665 0.641793
-0.161806 0.0255539 0.574696
-0.212002 0.0255275 0.543166
0.105025 0.0255026 0.695035
0.0560876 0.025479 0.663719
-0.0145139 0.0254655 0.619847
-0.203269 0.025441 0.518814
-0.16585 0.0254177 0.530672
-0.295775 0.0254037 0.457283
-0.0358599 0.0253796 0.580565
-0.0337949 0.0253676 0.572839
-0.239811 0.0253432 0.463246
-0.174523 0.0253196 0.489192
-0.00611548 0.0253079 0.564638
-0.157034 0.0252845 0.48247
-0.278178 0.0252618 0.415094
-0.144774 0.0252498 0.473123
-0.145981 0.0252266 0.465824
-0.183396 0.0252153 0.438358
-0.137018 0.0251926 0.454796
-0.206816 0.0251703 0.413109
-0.265255 0.025159 0.375154
-0.262058 0.0251369 0.369973
-0.248717 0.0251259 0.367882
-0.281183 0.025104 0.344852
-0.187451 0.0250931 0.382955
-0.1218 0.0250715 0.408966
-0.274071 0.0250608 0.324065
-0.101846 0.0250394 0.403343
-0.30019 0.0250183 0.29732
-0.238187 0.0250078 0.319549
-0.105986 0.024987 0.378777
-0.136422 0.0249766 0.354781
-0.381165 0.0249561 0.225514
-0.177161 0.0249459 0.318733
-0.16026 0.0249261 0.320187
-0.194567 0.024916 0.294243
-0.221961 0.0248961 0.273596
-0.0907564 0.0248862 0.3304
-0.204058 0.0248666 0.266773
-0.0802528 0.0248569 0.319871
-0.17365 0.0248376 0.266167
-0.158922 0.024828 0.264718
-0.13426 0.024809 0.270016
-0.320925 0.0247995 0.167861
-0.201864 0.0247817 0.220164
-0.194679 0.0247725 0.214922
-0.215092 0.0247541 0.197614
-0.237974 0.024745 0.177329
-0.252012 0.024727 0.163176
-0.195536 0.024718 0.182558
-0.26071 0.0247092 0.141113
-0.388506 0.0246915 0.0700381
-0.270672 0.0246828 0.120085
-0.0931135 0.0246655 0.201651
-0.182237 0.024657 0.148206
-0.170242 0.02464 0.146954
-0.222466 0.0246316 0.111945
-0.234501 0.024615 0.098639
-0.142672 0.0246067 0.135643
-0.347056 0.0245904 0.0261223
-0.261557 0.0245824 0.0599464
-0.252107 0.0245744 0.0557421
-0.258351 0.0245585 0.0452387
-0.070624 0.0245506 0.130157
-0.216891 0.0245351 0.0495994
-0.202739 0.0245274 0.0477133
0.00902807 0.0245123 0.146129
-0.315391 0.0245048 -0.02506
-0.15011 0.0244899 0.0500677
-0.0134911 0.0244826 0.109379
0.597673 0.0422258 1.25851
0.506249 0.0419743 1.22491
0.58865 0.0418233 1.26869
0.430408 0.0416423 1.19514
0.47773 0.0414893 1.22175
0.361849 0.0413891 1.16172
0.4323 0.0412592 1.19782
0.343625 0.0411588 1.15154
0.334892 0.041082 1.14297
0.248112 0.0409818 1.09773
0.336704 0.0408817 1.14021
0.305999 0.0408052 1.12078
0.431998 0.0407289 1.17972
0.249744 0.0406527 1.08457
0.144999 0.0405768 1.02819
0.131217 0.040501 1.01731
0.310866 0.0404316 1.10256
0.261989 0.0403564 1.07417
0.362802 0.0402815 1.12064
0.263157 0.0402356 1.06398
0.0813853 0.0401612 0.969179
0.289523 0.0401099 1.06703
0.186781 0.0400418 1.01118
0.249555 0.0399909 1.03636
0.0117022 0.0399178 0.913538
0.194656 0.0398729 0.998264
0.126368 0.0398229 0.957927
0.0251082 0.039756 0.90287
-0.0501556 0.0397065 0.859048
0.041481 0.0396622 0.898158
0.0153194 0.0396133 0.878888
0.042616 0.0395474 0.888137
-0.0419667 0.0394991 0.83965
0.0529073 0.0394556 0.880411
-0.121016 0.0394078 0.787247
-0.0531012 0.0393646 0.814542
0.0026056 0.0393216 0.83574
0.181672 0.0392747 0.919063
0.171098 0.0392321 0.907131
-0.130461 0.0391858 0.750124
-0.0366471 0.0391435 0.790394
-0.0256825 0.0391015 0.789245
-0.140933 0.0390561 0.725371
-0.110782 0.0390144 0.73382
0.022805 0.0389697 0.794338
-0.019663 0.0389285 0.76648
-0.0438834 0.0388875 0.747747
0.0485983 0.0388498 0.787026
-0.0144672 0.0388235 0.747308
-0.0646191 0.038783 0.715615
0.0324925 0.0387402 0.75783
0.0333292 0.0387001 0.751629
-0.106145 0.0386603 0.675271
-0.0869741 0.0386231 0.677969
-0.0912945 0.0385989 0.6675
0.109144 0.0385596 0.761096
0.0686838 0.0385206 0.734241
-0.16897 0.0384838 0.608565
-0.091259 0.0384609 0.639037
-0.00436123 0.0384224 0.675854
0.0757152 0.0383843 0.709256
-0.157346 0.0383479 0.585911
-0.233439 0.0383262 0.539397
-0.13105 0.0382887 0.583943
-0.200378 0.0382525 0.542498
-0.181217 0.038232 0.543524
-0.0892932 0.0381951 0.582823
-0.0351362 0.0381591 0.603151
-0.140649 0.0381402 0.541706
-0.226008 0.0381039 0.49235
-0.307596 0.0380685 0.444803
0.0199435 0.0380497 0.599905
-0.0993513 0.0380141 0.533559
-0.111453 0.0379964 0.518745
-0.209072 0.0379612 0.463227
-0.106938 0.0379262 0.507575
-0.139497 0.0379089 0.482535
-0.258682 0.0378743 0.416212
-0.243106 0.0378571 0.41524
-0.183867 0.037823 0.438116
-0.24529 0.0377891 0.400649
