ply
format ascii 1.0
comment Created by Open3D
element vertex 1786
property double x
property double y
property double z
end_header
-0.645889 0.109454 1.07179
-0.753657 0.109538 1.00473
-0.796104 0.109648 0.969475
-0.700781 0.109728 1.00405
-0.709629 0.109807 0.986571
-0.947328 0.109886 0.854673
-0.735708 0.109962 0.947501
-0.759938 0.110039 0.922372
-0.792392 0.110115 0.893129
-0.560595 0.110187 0.99616
-0.498869 0.110256 1.01419
-0.574704 0.110329 0.963335
-0.69582 0.110396 0.890027
-0.70058 0.110461 0.874937
-0.32399 0.110525 1.05056
-0.586139 0.110593 0.90667
-0.344341 0.110653 1.01499
-0.503844 0.110712 0.922692
-0.705882 0.110776 0.808941
-0.717756 0.110822 0.790908
-0.60536 0.110877 0.834682
-0.59695 0.11093 0.826508
-0.531337 0.110981 0.846983
-0.554605 0.11104 0.822733
-0.602998 0.111073 0.786858
-0.57732 0.111131 0.78711
-0.670659 0.111176 0.728281
-0.394932 0.111205 0.854547
-0.807288 0.11126 0.635861
-0.492143 0.111301 0.781405
-0.613406 0.111328 0.70926
-0.63964 0.11138 0.683717
-0.509313 0.111404 0.737421
-0.460523 0.11144 0.749958
-0.585171 0.111489 0.675293
-0.480521 0.11151 0.716249
-0.366876 0.111541 0.761354
-0.661711 0.111561 0.602626
-0.801716 0.111606 0.520405
-0.542195 0.111624 0.638914
-0.633979 0.111649 0.581488
-0.426275 0.111683 0.673501
-0.255262 0.111706 0.747567
-0.397332 0.11172 0.665402
-0.22112 0.111733 0.742404
-0.3234 0.111771 0.679253
-0.738594 0.111783 0.460614
-0.392267 0.111799 0.622571
-0.389121 0.111808 0.613169
-0.347418 0.111842 0.622148
-0.552724 0.11185 0.508586
-0.520426 0.111857 0.513852
-0.376096 0.111866 0.575054
-0.332077 0.111893 0.585424
-0.431448 0.111897 0.524951
-0.291334 0.111902 0.58419
-0.442242 0.111905 0.49802
-0.429434 0.111906 0.493736
-0.377474 0.11193 0.508169
-0.189679 0.11193 0.591457
-0.143772 0.111929 0.603838
-0.250826 0.111926 0.539768
-0.28665 0.111925 0.511283
-0.423888 0.111942 0.431372
-0.446775 0.111938 0.409489
-0.233328 0.111932 0.505804
-0.443136 0.111922 0.390657
-0.334871 0.111919 0.434308
-0.486742 0.111932 0.34721
-0.153522 0.111923 0.50355
-0.248045 0.111914 0.446049
-0.311615 0.111898 0.404277
-0.302715 0.111886 0.398568
-0.534981 0.111873 0.272309
-0.13272 0.111887 0.462269
-0.168602 0.111873 0.434266
-0.335389 0.111859 0.340843
-0.419768 0.111835 0.288979
-0.201004 0.111819 0.388414
-0.218888 0.111801 0.369558
-0.0732768 0.111783 0.432484
-0.283842 0.111774 0.316969
-0.320717 0.111773 0.287965
-0.34763 0.111752 0.26473
-0.335903 0.111731 0.260849
-0.278172 0.111709 0.280005
-0.048759 0.111687 0.385037
-0.317161 0.111652 0.241689
-0.0897625 0.111627 0.345801
-0.109584 0.111602 0.326338
-0.32412 0.111576 0.209554
-0.0875282 0.111578 0.317162
-0.154395 0.111551 0.274282
-0.397115 0.111522 0.143512
-0.217951 0.111494 0.22372
-0.0470853 0.111464 0.299816
-0.328943 0.111433 0.149585
-0.566602 0.111402 0.0214915
-0.318795 0.11137 0.136168
-0.223032 0.111338 0.174859
-0.096204 0.111304 0.229119
-0.20369 0.11127 0.166259
-0.403036 0.111235 0.057507
-0.049181 0.1112 0.225393
-0.0676304 0.111164 0.207164
-0.127033 0.111127 0.168496
-0.402053 0.111089 0.0220582
-0.417507 0.111051 0.00544051
-0.34712 0.111031 0.0309332
-0.238346 0.111001 0.0760816
-0.299235 0.110961 0.0368602
-0.086938 0.110919 0.134271
-0.11557 0.110877 0.111255
-0.0886526 0.110835 0.116053
-0.0763969 0.110791 0.113559
-0.431722 0.110747 -0.0726866
-0.538229 0.110702 -0.134485
-0.41002 0.110657 -0.0788851
0.0972805 0.110611 0.166299
0.18736 0.110564 0.202912
-0.222675 0.110516 -0.0104933
-2.75836 0.105002 1.67422
-2.24989 0.104682 1.92543
-2.29083 0.104464 1.9001
-2.53264 0.104248 1.77434
-2.69491 0.104035 1.68832
-2.28672 0.103922 1.88567
-2.66021 0.103811 1.69216
-2.57311 0.103661 1.7297
-2.81128 0.103555 1.60381
-2.50269 0.103451 1.75125
-2.53476 0.103351 1.72833
-2.7669 0.103342 1.6036
-2.60461 0.103246 1.67779
-2.53354 0.103154 1.70632
-2.71157 0.103109 1.60938
-2.60743 0.103064 1.65354
-2.77856 0.103022 1.56001
-2.66011 0.102981 1.61125
-2.73588 0.102943 1.56533
-2.80989 0.102905 1.52029
-2.52506 0.102874 1.65454
-2.37354 0.102881 1.72137
-2.69888 0.102847 1.55059
-2.55252 0.102826 1.61544
-2.65136 0.102837 1.55699
-2.4161 0.102809 1.66643
-2.74028 0.102796 1.49581
-2.7289 0.102813 1.49237
-2.65889 0.102831 1.51821
-2.57239 0.102808 1.55316
-2.59523 0.102829 1.53252
-2.5549 0.102832 1.54384
-2.66312 0.102856 1.48042
-2.64641 0.102882 1.47944
-2.45001 0.10291 1.56826
-2.56757 0.102925 1.50035
-2.56782 0.102956 1.49076
-2.37872 0.102989 1.57581
-2.41363 0.103058 1.54805
-2.80405 0.103095 1.34323
-2.40256 0.103133 1.53434
-2.4021 0.103172 1.52489
-2.69714 0.103254 1.36674
-2.68032 0.103297 1.36537
-2.25832 0.103342 1.56655
-2.57286 0.103431 1.39845
-2.51649 0.103522 1.41575
-2.52634 0.103576 1.40077
-2.72086 0.103627 1.29352
-2.38503 0.103723 1.45039
-2.3924 0.103831 1.43539
-2.18624 0.103931 1.5273
-2.32375 0.104033 1.44733
-2.20097 0.104135 1.49746
-2.09942 0.104255 1.53657
-2.537 0.104362 1.3064
-2.53317 0.104488 1.29646
-2.58009 0.104643 1.26043
-2.40126 0.104776 1.3378
-2.20688 0.104913 1.4228
-2.15142 0.105073 1.43777
-2.04155 0.105235 1.47988
-2.21023 0.105425 1.38202
-2.27801 0.105619 1.33449
-2.25519 0.105805 1.33242
-2.00954 0.106002 1.44145
-2.06768 0.106249 1.39734
-2.22868 0.1065 1.30168
-2.31114 0.106754 1.24518
-1.94873 0.106976 1.41183
-1.8982 0.107364 1.41845
-2.17087 0.107673 1.26533
-2.16946 0.107901 1.25122
-1.9382 0.108347 1.34658
-1.91466 0.108711 1.34003
-1.97645 0.109213 1.28734
-1.99815 0.10963 1.25671
-1.89668 0.110098 1.28632
-1.57938 0.110569 1.42371
-1.63515 0.11104 1.37445
-1.56159 0.111563 1.38848
-1.37216 0.11195 1.46382
-1.6314 0.112338 1.31473
-1.62581 0.112777 1.29667
-1.8836 0.113217 1.14683
-1.54467 0.113521 1.29876
-1.81761 0.113776 1.146
-1.6182 0.114083 1.22801
-1.77056 0.114391 1.13406
-1.64474 0.114669 1.17992
-1.52211 0.114825 1.22737
-1.23475 0.115107 1.35381
-1.56191 0.115315 1.17489
-1.57416 0.115498 1.15409
-1.44663 0.115787 1.2003
-1.43276 0.115997 1.19175
-1.54916 0.116185 1.11862
-1.22152 0.116374 1.26743
-1.32579 0.116566 1.20019
-1.29909 0.11676 1.19834
-1.08517 0.116956 1.29001
-1.43975 0.117205 1.09597
-1.33752 0.11739 1.13203
-1.11598 0.117608 1.22682
-1.3069 0.117788 1.11636
-0.833764 0.117967 1.33796
-1.22353 0.118143 1.12813
-1.40176 0.118317 1.0241
-1.14475 0.118535 1.13645
-1.27778 0.118705 1.05509
-1.00137 0.118882 1.17818
-1.18709 0.119047 1.07054
-1.2559 0.119211 1.02139
-1.10301 0.119329 1.08429
-1.03607 0.119531 1.10188
-1.08176 0.119695 1.06415
-0.939185 0.11981 1.12196
-1.11838 0.119963 1.01775
-0.906558 0.120115 1.10907
-1.00584 0.120269 1.04473
-1.04727 0.120378 1.0106
-0.856175 0.120524 1.09165
-0.866495 0.120671 1.07194
-0.913789 0.120777 1.03492
-1.10642 0.120882 0.925227
-0.974021 0.121021 0.977015
-0.635763 0.121158 1.13181
-0.798322 0.121259 1.03722
-0.795757 0.121358 1.0252
-0.787404 0.121488 1.01518
-0.619638 0.121585 1.0858
-0.768872 0.121682 0.997927
-0.726675 0.121802 1.00505
-0.649684 0.121894 1.03037
-0.757789 0.121986 0.963143
-0.699953 0.122078 0.978877
-0.822832 0.122186 0.903757
-0.645301 0.122269 0.97958
-0.860948 0.122355 0.858699
-0.729922 0.122434 0.911345
-0.807006 0.122518 0.85978
-0.777755 0.122594 0.861616
-0.801802 0.122676 0.836606
-0.612247 0.122749 0.918675
-0.496901 0.122829 0.963398
-0.722802 0.122898 0.837821
-0.4326 0.122975 0.970011
-0.492571 0.123041 0.927484
-0.67425 0.123095 0.824429
-0.6873 0.123158 0.805433
-0.389985 0.123219 0.941666
-0.374178 0.123291 0.936766
-0.231656 0.123348 0.995692
-0.708877 0.123385 0.745371
-0.534741 0.123454 0.819708
-0.498704 0.123507 0.825516
-0.525521 0.123557 0.799946
-0.402694 0.123606 0.849234
-0.760483 0.123654 0.658258
-0.467975 0.123718 0.791904
-0.47547 0.123747 0.776639
-0.550817 0.12379 0.727017
-0.672146 0.123817 0.65489
-0.430892 0.123876 0.763023
-0.375017 0.123914 0.779149
-0.43148 0.123938 0.739545
-0.582122 0.123994 0.651816
0.025128 0.124016 0.944124
-0.677775 0.124047 0.581041
-0.532997 0.12409 0.641431
-0.633696 0.124118 0.579541
-0.283351 0.124136 0.743517
-0.255722 0.124185 0.745086
-0.407509 0.124201 0.658056
-0.546542 0.124223 0.577189
-0.266807 0.124237 0.705985
-0.469553 0.124282 0.592501
-0.573347 0.124293 0.529595
-0.374942 0.124304 0.617815
-0.339324 0.124318 0.624512
-0.275272 0.124354 0.644704
-0.171141 0.124362 0.685879
-0.36117 0.124372 0.579894
-0.685203 0.124378 0.407057
-0.261983 0.124414 0.606822
-0.385946 0.124417 0.534089
-0.308046 0.12442 0.562315
-0.294861 0.124422 0.558212
-0.272638 0.124423 0.558651
-0.27553 0.124452 0.545555
-0.493128 0.12445 0.426213
-0.307166 0.124447 0.508659
-0.333886 0.124443 0.484794
-0.303508 0.124441 0.489427
-0.587117 0.124462 0.336259
-0.312254 0.124456 0.463291
-0.197147 0.124448 0.510475
-0.103587 0.12444 0.546916
-0.35934 0.124431 0.408733
-0.470648 0.124448 0.341827
-0.527045 0.124437 0.303398
-0.246518 0.124425 0.433464
-0.164956 0.124412 0.464079
-0.19255 0.124398 0.44015
-0.0226678 0.124383 0.514991
-0.376169 0.124376 0.32789
-0.248001 0.124377 0.381299
-0.246065 0.124359 0.372281
-0.310193 0.124341 0.330264
-0.0675592 0.124321 0.441661
-0.216237 0.124301 0.357437
-0.297187 0.12428 0.307111
-0.105236 0.124269 0.392866
-0.234306 0.124271 0.317658
-0.226809 0.124235 0.312102
-0.423109 0.124211 0.204255
-0.235959 0.124185 0.288167
-0.330297 0.124158 0.23137
-0.358548 0.124131 0.207652
-0.413899 0.124103 0.17042
-0.108817 0.124074 0.31344
-0.470595 0.124044 0.123066
-0.127114 0.12405 0.284
-0.139126 0.124018 0.26858
-0.216551 0.123986 0.22049
0.110379 0.123953 0.374614
0.0260249 0.123919 0.323133
-0.0562829 0.123884 0.272711
-0.188953 0.123849 0.197145
-0.179749 0.123812 0.192553
-0.224578 0.123775 0.160983
-0.0114315 0.123737 0.258437
-0.00353952 0.123698 0.253301
-0.453573 0.123658 0.0192406
-0.0670087 0.123618 0.203517
-0.209185 0.123577 0.12346
-0.109502 0.123535 0.164371
-0.300835 0.123492 0.0598129
-0.212527 0.123448 0.0951129
0.0209613 0.123404 0.203041
-0.300187 0.123359 0.0336903
-0.0660804 0.123336 0.141101
-0.321361 0.123302 0.00424454
-0.25626 0.123254 0.0281341
-0.0855593 0.123206 0.104862
-0.129947 0.123157 0.0740849
-0.0534762 0.123107 0.103776
-0.48523 0.123056 -0.120606
-0.185156 0.123004 0.0209656
-0.233683 0.122952 -0.0117243
-0.17787 0.122899 0.00779518
-2.4779 0.11649 1.7978
-2.76455 0.115636 1.65988
-2.55205 0.115284 1.76313
-2.59294 0.115044 1.73783
-2.44656 0.114807 1.80617
-2.52022 0.114572 1.76446
-2.38507 0.114448 1.82529
-2.64472 0.114221 1.69052
-2.60029 0.114162 1.70491
-2.5302 0.114045 1.73313
-2.45511 0.113932 1.76382
-2.87456 0.113821 1.54721
-2.59885 0.113714 1.67813
-2.52317 0.113707 1.70726
-2.58901 0.113606 1.66732
-2.55627 0.113557 1.67576
-2.50275 0.113507 1.6946
-2.58096 0.113461 1.64752
-2.44118 0.113416 1.70942
-2.71765 0.113375 1.56312
-2.56193 0.113333 1.63295
-2.48429 0.113299 1.66359
-2.65223 0.113261 1.57152
-2.44594 0.113235 1.66636
-2.41149 0.113247 1.67457
-2.67718 0.113214 1.53355
-2.49371 0.113229 1.61621
-2.43076 0.113216 1.63914
-2.58974 0.113235 1.5505
-2.48675 0.113208 1.59371
-2.41079 0.11323 1.62248
-2.52164 0.113253 1.55781
-2.61449 0.113256 1.50253
-2.52095 0.113283 1.53997
-2.58546 0.113312 1.49836
-2.69562 0.113343 1.43388
-2.5388 0.11336 1.50315
-2.53388 0.113395 1.49612
-2.8204 0.113431 1.34334
-2.6866 0.113507 1.39991
-2.6467 0.113548 1.41023
-2.46476 0.11359 1.49154
-2.28898 0.113633 1.56974
-2.41167 0.113724 1.49773
-2.50674 0.113821 1.43941
-2.53795 0.113869 1.41397
-2.82169 0.11392 1.26222
-2.5439 0.114021 1.39019
-2.57508 0.114124 1.36364
-2.48439 0.114185 1.39885
-2.46794 0.114292 1.39599
-2.4392 0.1144 1.39923
-2.49909 0.114472 1.3589
-2.15756 0.114584 1.51842
-2.66432 0.114748 1.2527
-2.51328 0.11483 1.31758
-2.484 0.114998 1.31974
-2.16124 0.115117 1.46965
-2.30573 0.115258 1.38545
-2.26706 0.115432 1.39211
-2.34314 0.11558 1.34193
-2.0631 0.115757 1.46914
-2.49542 0.115962 1.23954
-2.15616 0.116143 1.39622
-2.07392 0.116355 1.42371
-2.05481 0.116591 1.41905
-2.22538 0.116809 1.31993
-2.04865 0.117049 1.39393
-2.23604 0.117324 1.28506
-2.04368 0.117602 1.36595
-2.04291 0.117883 1.35093
-1.8187 0.11822 1.44634
-1.88502 0.11856 1.39637
-1.84516 0.118864 1.40024
-1.96245 0.119301 1.32249
-1.8759 0.119756 1.3462
-1.81931 0.120159 1.35601
-1.91587 0.120618 1.28791
-1.87868 0.120985 1.28874
-1.74362 0.121503 1.33497
-1.83746 0.122022 1.26664
-1.59719 0.122393 1.36871
-1.89193 0.12297 1.19844
-1.58096 0.123398 1.33439
-1.56599 0.123677 1.32577
-1.6998 0.124163 1.23785
-1.58497 0.124445 1.279
-1.71099 0.124933 1.19481
-1.57182 0.125273 1.24663
-1.60332 0.125582 1.21381
-1.2679 0.125753 1.36767
-1.51483 0.126098 1.22621
-1.61433 0.126355 1.16048
-1.34007 0.126644 1.28084
-1.47914 0.126848 1.19654
-1.25023 0.127172 1.29331
-1.38961 0.127405 1.20807
-1.39385 0.127616 1.19091
-1.23972 0.127829 1.25285
-1.65049 0.128045 1.03225
-1.33732 0.128322 1.17206
-1.13227 0.128543 1.25917
-1.41893 0.128825 1.09885
-1.14298 0.129085 1.22037
-1.47441 0.129329 1.03855
-1.07932 0.129529 1.22105
-1.14751 0.129778 1.17063
-1.13712 0.129974 1.16084
-1.02534 0.130217 1.20049
-1.3631 0.130407 1.01668
-0.96378 0.130604 1.20122
-0.861193 0.130789 1.23765
-0.926828 0.130972 1.19
-1.13704 0.131153 1.07008
-0.960084 0.131332 1.14376
-0.912906 0.131555 1.15142
-1.06406 0.131734 1.06099
-0.922356 0.131862 1.1183
-1.03598 0.132032 1.04681
-1.0526 0.1322 1.02386
-0.89019 0.132368 1.0904
-0.754941 0.132491 1.14453
-0.659643 0.132653 1.17761
-0.816063 0.132813 1.08488
-0.815045 0.132931 1.07194
-0.896935 0.133086 1.01657
-0.753172 0.133237 1.07409
-0.981489 0.13335 0.946552
-0.888334 0.133496 0.978866
-0.690342 0.133606 1.06452
-0.646967 0.133747 1.07205
-0.705409 0.133854 1.02954
-1.0399 0.133962 0.848991
-0.42282 0.134068 1.14422
-0.91127 0.134191 0.886245
-0.909394 0.134293 0.873959
-0.638278 0.134387 0.996526
-0.720629 0.134487 0.942157
-0.829468 0.134599 0.874215
-0.66564 0.134704 0.942773
-0.62516 0.134789 0.950185
-0.731502 0.134884 0.8839
-0.736487 0.134966 0.868658
-0.651567 0.135059 0.898038
-0.79532 0.135136 0.813493
-0.498827 0.135227 0.948695
-0.645735 0.135301 0.862655
-0.663973 0.135373 0.840992
-0.718325 0.135436 0.801508
-0.522888 0.135505 0.886753
-0.590668 0.13559 0.839922
-0.480611 0.135655 0.882566
-0.206207 0.135718 1.00743
-0.459761 0.135798 0.867797
-0.637851 0.135838 0.767067
-0.639984 0.135917 0.753171
-0.246478 0.135972 0.937756
-0.338259 0.136008 0.88026
-0.503893 0.136083 0.784688
-0.785451 0.136134 0.631871
-0.333408 0.136166 0.84637
-0.574115 0.136238 0.71334
-0.608159 0.136283 0.684415
-0.600516 0.136311 0.676801
-0.405642 0.136379 0.761644
-0.263894 0.136406 0.821138
-0.212572 0.136444 0.83507
-0.144557 0.136508 0.856569
-0.60026 0.136531 0.61743
-0.431108 0.136564 0.690423
-0.581659 0.136614 0.603029
-0.400766 0.136643 0.681984
-0.41888 0.136662 0.66176
-0.353189 0.136679 0.683464
-0.530192 0.136735 0.582655
-0.434842 0.13675 0.61925
-0.429862 0.136771 0.61048
-0.566069 0.136817 0.530353
-0.31448 0.136834 0.644985
-0.537066 0.136845 0.522742
-0.373373 0.136854 0.593666
-0.223409 0.136901 0.65656
-0.441032 0.136909 0.536892
-0.0477246 0.136915 0.722717
-0.280472 0.136923 0.59547
-0.347597 0.136963 0.55002
-0.286461 0.136967 0.569819
-0.417672 0.136969 0.493525
-0.236413 0.136969 0.573496
-0.228537 0.136969 0.566803
-0.0583315 0.137003 0.64018
-0.312037 0.137 0.502784
-0.38874 0.136996 0.45392
-0.171209 0.136989 0.552292
-0.220754 0.137021 0.515831
-0.0637649 0.137014 0.583917
-0.274255 0.137006 0.468295
-0.294122 0.136997 0.448016
-0.307787 0.136981 0.431043
-0.219396 0.13701 0.463659
-0.229012 0.136998 0.448613
-0.194535 0.136985 0.455647
-0.120993 0.13697 0.482246
-0.0395679 0.136947 0.513079
-0.279755 0.13693 0.382895
-0.524861 0.136955 0.248908
-0.018839 0.136936 0.491893
-0.237314 0.136917 0.372662
-0.169111 0.136896 0.396804
-0.234733 0.136875 0.354068
-0.352721 0.136852 0.285183
-0.201234 0.136817 0.351467
-0.0528957 0.136805 0.415416
-0.400725 0.13681 0.230705
-0.518668 0.136784 0.161995
-0.441974 0.136756 0.190639
-0.149048 0.136728 0.327434
-0.220836 0.136699 0.281907
-0.335014 0.136668 0.215221
-0.207614 0.136637 0.26936
-0.221891 0.136605 0.252696
-0.0276189 0.136572 0.340343
-0.0243199 0.136583 0.331039
-0.205509 0.136548 0.231027
-0.201091 0.136512 0.223854
-0.0785098 0.136475 0.2758
-0.19328 0.136438 0.209107
-0.158318 0.13638 0.217992
-0.407873 0.13634 0.0839976
-0.230391 0.136299 0.163559
-0.351166 0.136258 0.09403
-0.174473 0.136215 0.173273
-0.0844205 0.136172 0.209232
-0.0401858 0.136128 0.222321
-0.34612 0.136083 0.0603632
-0.093725 0.136036 0.177608
-0.148546 0.13599 0.141283
-0.240682 0.135942 0.0863391
-0.158969 0.135937 0.116801
-0.241058 0.135887 0.0669574
-0.0278154 0.135837 0.164818
-0.248147 0.135811 0.0450125
-0.403965 0.13576 -0.0415963
-0.13857 0.135707 0.08244
-0.596593 0.135653 -0.155193
-0.2452 0.135599 0.0119202
-0.181902 0.135544 0.0350259
-0.43165 0.135487 -0.0983524
-0.158057 0.13543 0.0299797
-0.0998527 0.135373 0.0506571
0.0905284 0.135314 0.137463
-2.29348 0.127464 1.87499
-2.55481 0.126296 1.75347
-2.34816 0.125913 1.85381
-2.51236 0.125651 1.76686
-2.62683 0.125392 1.70478
-2.69383 0.125136 1.66641
-2.51161 0.125001 1.75076
-2.20529 0.124754 1.89899
-2.51894 0.124625 1.73535
-2.57914 0.124562 1.69739
-2.54176 0.124438 1.70923
-2.49649 0.124318 1.72497
-2.6095 0.124201 1.66152
-2.73094 0.124144 1.59289
-2.71703 0.124084 1.592
-2.48273 0.12403 1.70121
-2.62778 0.123926 1.62159
-2.32592 0.123927 1.76369
-2.77538 0.123829 1.53178
-2.49864 0.123834 1.66126
-2.45953 0.123744 1.67352
-2.53428 0.123752 1.6272
-2.64682 0.12371 1.56283
-2.75456 0.123682 1.50063
-2.31081 0.123696 1.71347
-2.41537 0.12366 1.65301
-2.50296 0.123676 1.60012
-2.49026 0.123662 1.59791
-2.52085 0.123683 1.57344
-2.69745 0.123654 1.47685
-2.6513 0.123678 1.49069
-2.3909 0.123731 1.61115
-2.67314 0.123708 1.46164
-2.39887 0.123738 1.58942
-2.54716 0.12377 1.5059
-2.37473 0.123839 1.58206
-2.58809 0.123875 1.4659
-2.2212 0.123861 1.6408
-2.38745 0.1239 1.54813
-2.45707 0.123985 1.50296
-2.68486 0.124029 1.37942
-2.51239 0.124075 1.45597
-2.51732 0.124123 1.4438
-2.36168 0.124225 1.51087
-2.44922 0.124328 1.45634
-2.33941 0.124382 1.50138
-2.26933 0.124437 1.52653
-2.66229 0.124548 1.3191
-2.15241 0.124661 1.56304
-2.45544 0.124728 1.40138
-2.73491 0.124845 1.25053
-2.54776 0.124964 1.33294
-2.54623 0.125096 1.32226
-2.39251 0.12522 1.38783
-2.51216 0.125345 1.31667
-2.47481 0.125488 1.32363
-2.52547 0.125618 1.28685
-2.26072 0.125804 1.40663
-2.3518 0.125958 1.34911
-2.30871 0.126126 1.35838
-2.1797 0.12631 1.41026
-2.21899 0.126504 1.37776
-2.58902 0.126701 1.17982
-2.27289 0.126899 1.32491
-2.2745 0.127128 1.31047
-2.31056 0.127394 1.27803
-2.27451 0.127622 1.28237
-1.89353 0.127919 1.45775
-2.07938 0.128219 1.3496
-1.97352 0.128487 1.38794
-2.14157 0.128793 1.28849
-2.10998 0.12916 1.28756
-2.01108 0.129433 1.32218
-1.95815 0.129864 1.3305
-1.84513 0.130239 1.36997
-1.95924 0.130676 1.29453
-1.79298 0.131115 1.35916
-2.16584 0.131515 1.155
-1.93298 0.132018 1.25147
-1.721 0.132523 1.33739
-1.83816 0.132988 1.25951
-1.71641 0.133556 1.29881
-1.63734 0.133963 1.32015
-1.54528 0.134269 1.35009
-1.54517 0.134801 1.32915
-1.70936 0.135272 1.2273
-1.58086 0.135582 1.27521
-1.68331 0.135955 1.20622
-1.51104 0.136268 1.27587
-1.44165 0.136644 1.29264
-1.44657 0.137022 1.27217
-1.40989 0.1374 1.27242
-1.54634 0.137624 1.18949
-1.49798 0.138005 1.19542
-1.38523 0.138169 1.23833
-1.32043 0.138592 1.25147
-1.56452 0.138849 1.11381
-1.40147 0.139084 1.18018
-1.5079 0.139322 1.11172
-1.03866 0.139627 1.32952
-1.02132 0.139871 1.32274
-1.3138 0.140183 1.15946
-1.30942 0.140497 1.1445
-0.997931 0.140782 1.28374
-0.963328 0.141062 1.28459
-1.24029 0.141339 1.12971
-1.11185 0.141603 1.17778
-1.16554 0.141825 1.13571
-1.13576 0.142083 1.1345
-1.20498 0.142299 1.08475
-1.06132 0.142505 1.14164
-1.21082 0.142762 1.05074
-1.13083 0.142963 1.07585
-1.0281 0.143162 1.11234
-1.18639 0.143359 1.01835
-0.863355 0.143603 1.16388
-0.80512 0.143796 1.17819
-0.730547 0.143937 1.20185
-1.03317 0.144125 1.0358
-0.70228 0.144355 1.18548
-0.936587 0.144492 1.05475
-1.01151 0.14467 1.00271
-0.661193 0.144845 1.16334
-1.09768 0.145018 0.930559
-0.767351 0.145149 1.08223
-0.726184 0.145314 1.08843
-0.950101 0.145448 0.962844
-0.86368 0.145601 0.991947
-0.937689 0.145734 0.941313
-0.834747 0.145879 0.978816
-0.7904 0.14601 0.98736
-0.66608 0.146158 1.03546
-0.737392 0.146266 0.986696
-0.504982 0.146384 1.08955
-0.819533 0.146523 0.918369
-0.813997 0.146637 0.907824
-0.698244 0.146737 0.952745
-0.548753 0.146849 1.01421
-0.710272 0.146961 0.920155
-0.527521 0.147086 0.997903
-0.859912 0.147177 0.818916
-0.656998 0.147284 0.907165
-0.719393 0.147371 0.863255
-0.840389 0.147475 0.789582
-0.547968 0.147558 0.92316
-0.489837 0.14766 0.939085
-0.445236 0.147738 0.948837
-0.647221 0.147815 0.835339
-0.722713 0.147888 0.785171
-0.427238 0.147961 0.920474
-0.714518 0.148056 0.763795
-0.852612 0.148125 0.682402
-0.589857 0.148218 0.80078
-0.548848 0.148283 0.809032
-0.47971 0.148324 0.831939
-0.528857 0.148413 0.794436
-0.522914 0.148472 0.785281
-0.487427 0.14851 0.791443
-0.437604 0.148595 0.8035
-0.519203 0.148648 0.750705
-0.52439 0.148682 0.736615
-0.577161 0.148763 0.697453
-0.261219 0.14881 0.843564
-0.214271 0.14884 0.85563
-0.337877 0.148917 0.781133
-0.381077 0.148945 0.748179
-0.478438 0.148984 0.687816
-0.370941 0.149057 0.728958
-0.417093 0.149081 0.694621
-0.293618 0.149103 0.745123
-0.197035 0.149173 0.780879
-0.464419 0.149203 0.635744
-0.386145 0.149221 0.663743
-0.222736 0.149286 0.733007
-0.565181 0.149302 0.550709
-0.398158 0.149318 0.62317
-0.157871 0.149379 0.730952
-0.353216 0.149392 0.622294
-0.320502 0.149409 0.62754
-0.559197 0.149419 0.497274
-0.494673 0.14947 0.517433
-0.338608 0.149482 0.584498
-0.199261 0.149488 0.643347
-0.398347 0.149493 0.533008
-0.234967 0.149544 0.602608
-0.359146 0.149547 0.529791
-0.187447 0.149549 0.604943
-0.312303 0.149549 0.531854
-0.0247496 0.149594 0.66369
-0.225647 0.149592 0.552658
-0.284402 0.149586 0.512789
-0.28356 0.149581 0.502703
-0.164244 0.149575 0.551884
-0.241892 0.149616 0.501222
-0.084497 0.149604 0.569631
-0.242538 0.149594 0.48024
-0.321941 0.149584 0.4302
-0.51624 0.149572 0.322743
-0.347746 0.149608 0.395262
-0.602735 0.149588 0.257736
-0.01065 0.149572 0.543582
-0.239751 0.149556 0.418867
-0.235654 0.149539 0.410784
-0.0163319 0.14953 0.510069
-0.0189717 0.149552 0.497447
-0.0559642 0.149531 0.468917
-0.123259 0.149499 0.425604
-0.408929 0.149476 0.272819
-0.612613 0.149452 0.161061
-0.281987 0.149427 0.316493
-0.418001 0.149453 0.237066
0.0782015 0.149426 0.475354
-0.31986 0.149398 0.266544
-0.493606 0.149368 0.169927
-0.193645 0.149338 0.310198
-0.194676 0.149307 0.300009
-0.178321 0.149275 0.298549
0.107769 0.149242 0.431992
-0.211131 0.149225 0.262443
-0.13828 0.149207 0.288798
-0.117072 0.149171 0.289924
-0.195707 0.149133 0.241164
-0.122497 0.149094 0.268365
-0.125656 0.149055 0.257417
0.107547 0.149014 0.364688
-0.114483 0.148972 0.244379
-0.439716 0.14893 0.0725055
-0.0528272 0.148886 0.25673
-0.0765615 0.148841 0.235682
-0.046291 0.148796 0.241673
-0.317751 0.148749 0.0968366
-0.186193 0.148754 0.151859
-0.231247 0.148705 0.120302
-0.300463 0.148656 0.0767015
-0.119234 0.148605 0.158362
-0.0698884 0.148554 0.174119
-0.356157 0.148501 0.0221078
-0.279665 0.148447 0.0515155
-0.114413 0.148393 0.125342
-0.159469 0.148337 0.0940538
0.00266518 0.148281 0.1664
-0.138434 0.148224 0.087168
-0.374209 0.148195 -0.040321
-0.194346 0.148136 0.0409893
-0.109491 0.148076 0.0748355
-0.21845 0.148015 0.0118139
-0.075589 0.147954 0.0747423
-0.125707 0.147891 0.0412209
-0.335447 0.147828 -0.0720719
-0.259369 0.147763 -0.0424157
-2.31674 0.137114 1.85928
-2.30124 0.136567 1.86595
-2.57981 0.136284 1.72182
-2.30781 0.136004 1.85298
-2.5173 0.135727 1.74337
-2.35143 0.135581 1.81954
-2.6109 0.135313 1.68488
-2.62998 0.135174 1.66852
-2.59753 0.135106 1.67688
-2.74985 0.134972 1.59386
-2.68189 0.134842 1.62093
-2.26555 0.134716 1.82216
-2.52842 0.134654 1.68281
-2.32578 0.13459 1.77627
-2.44903 0.134475 1.70757
-2.71 0.134419 1.56911
-2.48355 0.13442 1.67348
-2.40066 0.134315 1.70773
-2.41304 0.13432 1.69264
-2.63612 0.134222 1.5738
-2.34047 0.134232 1.71265
-2.56676 0.134187 1.5914
-2.52359 0.134157 1.60465
-2.51953 0.134172 1.59761
-2.59095 0.134133 1.55372
-2.66065 0.134151 1.50975
-2.587 0.134137 1.538
-2.45499 0.13416 1.59481
-2.74542 0.134128 1.4413
-2.67145 0.134155 1.46903
-2.55168 0.134213 1.51914
-2.50996 0.134187 1.5316
-2.48603 0.134221 1.5342
-2.51084 0.134256 1.51239
-2.43766 0.134331 1.53891
-2.6297 0.134371 1.43339
-2.25547 0.134413 1.61097
-2.34147 0.134456 1.5584
-2.38743 0.134501 1.52582
-2.66432 0.134597 1.37691
-2.51666 0.134647 1.44104
-2.36073 0.134699 1.50926
-2.43446 0.134753 1.46262
-2.33106 0.134865 1.50353
-2.42511 0.134923 1.44663
-2.45342 0.135042 1.42153
-2.40243 0.135164 1.43603
-2.36153 0.135287 1.44544
-2.4438 0.135359 1.39415
-2.43976 0.135486 1.38501
-2.16443 0.135616 1.51147
-2.35887 0.135748 1.403
-2.17726 0.135834 1.48333
-2.45057 0.136031 1.33423
-2.36083 0.136169 1.36767
-2.13457 0.136327 1.46899
-2.26438 0.13651 1.39181
-2.03239 0.136674 1.49584
-2.03984 0.136844 1.48004
-2.32915 0.137053 1.32256
-2.1203 0.137264 1.41409
-2.22166 0.137477 1.35045
-2.17043 0.137721 1.36251
-2.08324 0.13797 1.39244
-2.28855 0.138223 1.27599
-2.05618 0.138507 1.37777
-1.96727 0.138794 1.40774
-2.21696 0.139118 1.26765
-2.25579 0.139446 1.23287
-2.00703 0.139739 1.34253
-2.11663 0.140137 1.27097
-2.01318 0.140433 1.30782
-2.04592 0.140836 1.27449
-1.87641 0.141307 1.34093
-1.92881 0.141673 1.29836
-1.71558 0.142148 1.38646
-1.9501 0.142517 1.25267
-1.84242 0.143062 1.28651
-1.92007 0.1435 1.2297
-1.7771 0.144049 1.28099
-1.77394 0.144556 1.2631
-1.68626 0.144998 1.2887
-1.72997 0.145508 1.24719
-1.86022 0.145844 1.16581
-1.64823 0.146356 1.25199
-1.6664 0.146763 1.22514
-1.33094 0.147103 1.37637
-1.58915 0.147514 1.22932
-1.65695 0.147857 1.17879
-1.53052 0.14827 1.2239
-1.55756 0.148684 1.1922
-1.67423 0.149 1.11762
-1.32794 0.149348 1.27385
-1.25991 0.14967 1.29142
-1.23096 0.15002 1.28884
-1.26152 0.150277 1.25837
-1.11101 0.150538 1.31835
-1.20944 0.150943 1.2508
-1.19663 0.151281 1.24021
-1.20976 0.151552 1.21804
-1.35527 0.151825 1.12957
-1.18419 0.152173 1.19779
-1.16773 0.152546 1.18813
-1.04229 0.152851 1.23436
-1.42434 0.153151 1.02689
-1.08372 0.153448 1.1808
-1.29901 0.15374 1.05681
-1.2668 0.15397 1.05787
-1.09315 0.154256 1.12842
-1.19916 0.154481 1.06042
-1.10602 0.154759 1.0908
-1.22389 0.154979 1.01692
-0.961804 0.155196 1.13303
-0.984229 0.155463 1.10576
-0.896525 0.155675 1.13476
-0.816058 0.155884 1.16016
-0.983036 0.156091 1.06186
-0.820634 0.156296 1.12826
-0.759063 0.156492 1.14441
-1.09155 0.156692 0.963437
-0.712954 0.156882 1.1382
-0.750279 0.157068 1.10506
-0.845623 0.157258 1.04278
-0.845247 0.157402 1.0294
-1.07904 0.157578 0.898167
-0.894042 0.157731 0.976841
-0.918163 0.157889 0.950833
-1.07275 0.158068 0.859091
-0.609812 0.15819 1.07737
-0.849737 0.15834 0.943574
-0.83297 0.158497 0.937941
-0.859006 0.158612 0.911849
-0.715745 0.15878 0.969173
-0.580176 0.15889 1.02396
-0.971602 0.159018 0.814846
-0.927101 0.159124 0.824174
-0.730559 0.159248 0.909067
-0.530128 0.159383 0.995651
-0.777252 0.159505 0.858754
-0.40228 0.159601 1.03348
-0.490216 0.15972 0.976211
-0.533827 0.159812 0.941727
-0.802227 0.159929 0.794255
-0.644966 0.160016 0.860288
-0.663846 0.16013 0.83761
-0.47237 0.160213 0.920835
-0.420187 0.160324 0.933723
-0.264678 0.160403 0.999051
-0.559847 0.160454 0.839693
-0.562402 0.160561 0.825276
-0.4775 0.160633 0.85542
-0.67575 0.160737 0.743196
-0.176709 0.160805 0.980501
-0.569717 0.160848 0.772358
-0.840086 0.160949 0.624144
-0.525363 0.16101 0.769419
-0.419253 0.161049 0.810916
-0.698026 0.161145 0.658576
-0.336968 0.1612 0.82715
-0.510007 0.161293 0.727725
-0.374121 0.161326 0.784226
-0.47337 0.161375 0.722785
-0.321079 0.161448 0.786486
-0.399886 0.161493 0.735352
-0.412564 0.161521 0.717685
-0.0787764 0.161606 0.871823
-0.493204 0.161644 0.653023
-0.696037 0.161668 0.540374
-0.486962 0.161748 0.632246
-0.383738 0.161769 0.672684
-0.370203 0.161799 0.668055
-0.211584 0.161866 0.735024
-0.732667 0.161891 0.463181
-0.291342 0.161907 0.672796
-0.208542 0.161922 0.703175
-0.377958 0.161992 0.606015
-0.35585 0.162004 0.606113
-0.380661 0.162014 0.582778
-0.407027 0.16208 0.557229
-0.232265 0.162088 0.633746
-0.290895 0.162098 0.593516
-0.390908 0.162103 0.532718
-0.171808 0.162161 0.630096
-0.184118 0.162165 0.613174
-0.00542239 0.162166 0.691828
-0.173982 0.162166 0.596892
-0.367309 0.162219 0.488172
-0.333222 0.162216 0.494638
-0.175577 0.162212 0.562913
-0.037191 0.162206 0.62159
-0.249876 0.162253 0.503335
-0.348673 0.162245 0.443494
-0.222267 0.162235 0.496286
-0.392301 0.162225 0.400889
-0.408214 0.162213 0.382585
-0.208906 0.162252 0.470523
-0.165548 0.162238 0.48193
-0.19503 0.162222 0.456951
-0.229806 0.162206 0.429358
-0.0319627 0.162188 0.518107
-0.466197 0.162219 0.28948
-0.248778 0.162198 0.388097
-0.155492 0.162177 0.424681
0.0446457 0.162154 0.514724
-0.25967 0.16213 0.352575
-0.390551 0.162105 0.277178
-0.323303 0.16214 0.29918
-0.248523 0.162113 0.32668
-0.195589 0.162084 0.343292
-0.372099 0.162055 0.245216
-0.18232 0.162008 0.330764
-0.218029 0.161976 0.303176
-0.214261 0.16196 0.294885
-0.170248 0.16197 0.305953
0.0877098 0.161934 0.425304
-0.207399 0.161898 0.268157
0.0223282 0.16186 0.373466
-0.130611 0.161821 0.287477
-0.407508 0.161781 0.139546
-0.309208 0.16174 0.17925
-0.132886 0.161697 0.258003
-0.110386 0.161654 0.259881
-0.296095 0.161672 0.155884
-0.285716 0.161627 0.151776
-0.244996 0.16158 0.162876
0.166246 0.161532 0.359274
-0.194318 0.161483 0.169807
-0.0288691 0.161433 0.243385
-0.148242 0.161382 0.17459
-0.0994466 0.16133 0.189917
-0.0846053 0.161277 0.188306
-0.0759883 0.161223 0.183621
-0.122885 0.161168 0.151218
-0.152774 0.161112 0.127358
-0.0490827 0.161054 0.170326
-0.130419 0.160996 0.12082
-0.128291 0.160937 0.113085
-0.0823142 0.160876 0.127314
-0.0687297 0.160814 0.125386
-0.0302378 0.160752 0.135951
0.0112937 0.160688 0.148075
-0.221401 0.160624 0.0231259
-0.0553639 0.160591 0.096582
-0.145268 0.160525 0.0430903
-0.0509997 0.160458 0.0817245
0.0634974 0.160389 0.130513
-0.0483803 0.16032 0.0661546
-0.14622 0.16025 0.00885544
-2.49011 0.147838 1.7612
-2.62243 0.147249 1.69399
-2.1609 0.146945 1.91991
-2.56003 0.146643 1.7155
-2.50567 0.146345 1.73783
-2.71613 0.146052 1.62771
-2.48186 0.145899 1.73804
-2.54217 0.14575 1.70106
-2.56767 0.145605 1.68145
-2.64401 0.145533 1.6354
-2.83935 0.145393 1.53082
-2.58558 0.145258 1.65076
-2.68225 0.145126 1.59542
-2.72338 0.145123 1.56605
-2.30269 0.144999 1.76932
-2.73556 0.144939 1.5449
-2.59607 0.144941 1.60577
-2.50834 0.144828 1.64244
-2.56889 0.144834 1.60323
-2.73995 0.144729 1.5104
-2.43919 0.14474 1.65179
-2.59057 0.144691 1.56799
-2.42654 0.144659 1.64164
-2.62801 0.144676 1.53182
-2.495 0.144634 1.59014
-2.53196 0.144654 1.56252
-2.74006 0.144639 1.44988
-2.3842 0.144665 1.61859
-2.35617 0.14466 1.62386
-2.52348 0.144691 1.5309
-2.41923 0.144723 1.5737
-2.47998 0.144758 1.53396
-2.18932 0.144732 1.67086
-2.55848 0.14477 1.47686
-2.58904 0.144852 1.45147
-2.7077 0.144895 1.38262
-2.44228 0.144941 1.50578
-2.58578 0.144988 1.42444
-2.60281 0.145037 1.4063
-2.31273 0.14514 1.54085
-2.39838 0.145195 1.4883
-2.77008 0.145251 1.29269
-2.37018 0.145373 1.48182
-2.58071 0.145494 1.36573
-2.71227 0.145557 1.29005
-2.48316 0.145622 1.39466
-2.5324 0.145754 1.35902
-2.28718 0.145887 1.47055
-2.34599 0.146022 1.43003
-2.4944 0.146103 1.34559
-2.35274 0.146243 1.40518
-2.32531 0.146385 1.40761
-2.3048 0.146544 1.40629
-2.12639 0.146691 1.48409
-2.26569 0.146906 1.40188
-2.10606 0.147057 1.47019
-2.06704 0.147231 1.47779
-2.1485 0.147453 1.42431
-2.26705 0.147635 1.35293
-2.07248 0.147862 1.43733
-2.39532 0.148091 1.26296
-2.24166 0.148322 1.32678
-2.02979 0.148585 1.41913
-2.16909 0.14882 1.33634
-2.17336 0.14909 1.32042
-2.0322 0.149398 1.37653
-1.85475 0.149743 1.45009
-2.15765 0.150055 1.28401
-2.07859 0.150408 1.30818
-2.01173 0.150724 1.32683
-1.75076 0.151082 1.44175
-2.03281 0.151472 1.28457
-2.04057 0.151905 1.26369
-1.9043 0.152299 1.31549
-1.86023 0.152737 1.32035
-2.17899 0.153206 1.14319
-1.69765 0.153719 1.3652
-1.47471 0.154191 1.45871
-1.83033 0.154593 1.26415
-1.71064 0.155068 1.30587
-1.73416 0.155544 1.2759
-1.78157 0.156094 1.23256
-1.70381 0.156573 1.25307
-1.80101 0.157126 1.18467
-1.73921 0.157493 1.19915
-1.61723 0.157861 1.24364
-1.66003 0.15849 1.20083
-1.58622 0.158861 1.22109
-1.58204 0.159308 1.20506
-1.69323 0.159574 1.13471
-1.51747 0.159949 1.20573
-1.47948 0.160401 1.20636
-1.55313 0.160675 1.15451
-1.42665 0.161181 1.19826
-1.48749 0.161486 1.15214
-1.49576 0.16177 1.13268
-1.41745 0.16221 1.15344
-1.27123 0.162579 1.20951
-1.30236 0.162951 1.17678
-1.48686 0.163249 1.06875
-1.11523 0.163629 1.23717
-1.5717 0.163924 0.993144
-1.07741 0.164326 1.22237
-0.967664 0.164722 1.25939
-1.14279 0.165046 1.15535
-1.1632 0.165365 1.12871
-1.4407 0.165681 0.973572
-1.07405 0.165993 1.14055
-0.909551 0.166239 1.20773
-1.08504 0.166543 1.10371
-1.20969 0.166841 1.0252
-1.09749 0.167081 1.06626
-0.914469 0.167317 1.14279
-0.946975 0.167601 1.11054
-0.966651 0.16783 1.08579
-0.852145 0.168056 1.12815
-0.903711 0.168281 1.08749
-0.905129 0.168504 1.07192
-1.0883 0.168712 0.965737
-0.577723 0.168929 1.20623
-1.05974 0.16913 0.950728
-1.05221 0.169328 0.940055
-0.661446 0.169535 1.12077
-0.956097 0.16974 0.958793
-1.0081 0.16988 0.919493
-0.633961 0.17008 1.09197
-0.915776 0.170214 0.937835
-0.79912 0.170409 0.981637
-0.726233 0.170539 1.00492
-0.863243 0.170728 0.921961
-0.791401 0.170875 0.94432
-0.634212 0.171037 1.00901
-0.499818 0.171181 1.06268
-0.576583 0.171297 1.01133
-0.890741 0.171438 0.840756
-0.38527 0.171586 1.0798
-0.914887 0.171724 0.801533
-0.60245 0.17183 0.944949
-0.477257 0.171964 0.994114
-0.778369 0.172066 0.830833
-0.564248 0.172198 0.924491
-0.548313 0.172294 0.919813
-0.389847 0.172423 0.985675
-0.479712 0.172515 0.928178
-0.676185 0.172642 0.816605
-0.279122 0.172729 1.00266
-0.49808 0.172852 0.879876
-0.496874 0.172934 0.868087
-0.550223 0.173054 0.828148
-0.304593 0.173132 0.93866
-0.381406 0.173182 0.888557
-0.563236 0.173297 0.784443
-0.550168 0.173368 0.778799
-0.721868 0.173481 0.679794
-0.457518 0.173546 0.799887
-0.522956 0.173588 0.755611
-0.629971 0.173696 0.689022
-0.29688 0.173755 0.843618
-0.468567 0.173793 0.746303
-0.388527 0.173896 0.773321
-0.469064 0.173931 0.721634
-0.573281 0.174032 0.656556
-0.372303 0.174079 0.74532
-0.70546 0.174109 0.567415
-0.607863 0.174205 0.60333
-0.157003 0.174232 0.81749
-0.216429 0.174271 0.776236
-0.439332 0.17435 0.65227
-0.46771 0.174384 0.626632
-0.516147 0.174405 0.591266
-0.273361 0.174492 0.699945
-0.349879 0.174511 0.6506
-0.534414 0.174536 0.547079
-0.448002 0.17461 0.577846
-0.462113 0.174631 0.559636
-0.46795 0.174643 0.545762
-0.355153 0.174654 0.591234
-0.493528 0.17473 0.509558
-0.24496 0.174738 0.622982
-0.134668 0.174745 0.667295
-0.426865 0.174816 0.5088
-0.254747 0.17482 0.584095
-0.170478 0.174822 0.615495
-0.208313 0.174889 0.584277
-0.192359 0.174888 0.581605
-0.257736 0.174885 0.538297
-0.31487 0.17488 0.499195
-0.278299 0.174941 0.505293
-0.260382 0.174934 0.503736
-0.21467 0.174927 0.516107
-0.0736645 0.174913 0.576279
-0.215879 0.174908 0.494628
-0.211456 0.174958 0.4849
0.0543749 0.174945 0.60747
-0.186092 0.174931 0.476924
-0.0711305 0.174915 0.524124
-0.362718 0.174907 0.367866
-0.34536 0.17494 0.365029
-0.226339 0.17492 0.414371
-0.0491385 0.174899 0.492836
-0.394356 0.174877 0.310126
-0.377355 0.174865 0.308254
-0.0760123 0.174886 0.447715
-0.182897 0.17486 0.384287
-0.303821 0.174832 0.313875
-0.211106 0.174803 0.350316
-0.00173509 0.174773 0.445121
-0.0564284 0.174813 0.406064
-0.488202 0.17478 0.180365
0.00519931 0.174746 0.417288
-0.18948 0.174711 0.310207
-0.140182 0.174675 0.32515
-0.100871 0.174638 0.335136
-0.160895 0.174599 0.295491
-0.399082 0.174631 0.164885
0.0422845 0.17459 0.376007
-0.167519 0.174548 0.26158
-0.339441 0.174504 0.166131
-0.224626 0.174459 0.214087
-0.0791716 0.174414 0.277401
-0.0253014 0.174366 0.29496
0.0463833 0.174318 0.321464
-0.438076 0.174269 0.0699332
-0.163662 0.174244 0.197187
-0.0284151 0.174239 0.254311
-0.204928 0.174186 0.156867
0.0865396 0.174131 0.293452
-0.10759 0.174076 0.187277
-0.0438924 0.174019 0.210054
-0.160545 0.173962 0.142694
-0.216826 0.173903 0.10556
-0.0765215 0.173843 0.166757
-0.152302 0.173781 0.119951
-0.308037 0.173719 0.0332066
-0.215747 0.173655 0.0705144
-0.289537 0.173591 0.0248219
0.080851 0.173525 0.201258
-0.259075 0.173458 0.0225766
-0.139925 0.17339 0.073473
-0.28077 0.173321 -0.00558783
0.0611089 0.17325 0.156753
-0.019345 0.173179 0.107968
-0.0506022 0.173143 0.0827926
-0.277372 0.17307 -0.0390878
-0.0728128 0.172996 0.0547366
0.0377474 0.17292 0.101602
-0.115385 0.172844 0.016662
-2.18279 0.158502 1.90452
-2.50187 0.157871 1.74397
-2.62111 0.157546 1.6795
-2.47138 0.157309 1.74842
-2.54905 0.15699 1.70473
-2.60729 0.156823 1.66883
-2.60081 0.156514 1.66716
-2.50462 0.156354 1.70842
-2.55655 0.156198 1.67559
-2.7499 0.156122 1.57103
-2.27189 0.155973 1.80312
-2.58772 0.155827 1.63824
-2.47337 0.155687 1.68841
-2.30293 0.155684 1.7648
-2.30175 0.155552 1.75831
-2.47402 0.155487 1.66418
-2.48333 0.15549 1.65064
-2.33518 0.155369 1.71751
-2.44745 0.155376 1.65242
-2.56949 0.155264 1.5841
-2.71593 0.155276 1.50186
-2.42582 0.155224 1.6388
-2.51443 0.15519 1.58612
-2.63021 0.155209 1.51912
-2.55104 0.155164 1.55051
-2.42657 0.155186 1.60358
-2.61538 0.15517 1.50057
-2.42471 0.155198 1.58667
-2.30373 0.155193 1.63839
-2.59212 0.155227 1.48488
-2.56126 0.155262 1.49096
-2.38597 0.1553 1.56922
-2.49055 0.155313 1.50789
-2.61364 0.155356 1.43687
-2.3917 0.155401 1.53834
-2.86924 0.155449 1.29002
-2.41393 0.155498 1.50811
-2.39869 0.155549 1.50612
-2.28994 0.155656 1.55004
-2.47726 0.155713 1.44667
-2.64407 0.155772 1.35353
-2.73672 0.155901 1.29639
-2.64745 0.155964 1.3312
-2.29204 0.156094 1.49806
-2.37163 0.156232 1.44728
-2.41998 0.156302 1.41315
-2.36685 0.156374 1.42972
-2.35593 0.156517 1.42406
-2.45973 0.156663 1.36101
-2.54134 0.156819 1.30887
-2.39984 0.156971 1.36835
-2.27627 0.157124 1.41881
-2.40732 0.157279 1.34191
-2.42972 0.157453 1.31903
-2.24457 0.157613 1.40012
-2.25772 0.157847 1.38087
-2.43076 0.158033 1.28242
-2.34455 0.158201 1.31387
-1.98858 0.158442 1.47899
-2.29887 0.158685 1.31092
-1.9136 0.158931 1.49058
-2.2389 0.159165 1.3151
-2.26292 0.159458 1.28929
-1.99278 0.15971 1.41119
-2.16594 0.160032 1.31026
-2.05252 0.160328 1.35302
-1.80288 0.160697 1.46266
-1.97625 0.161032 1.3613
-2.22551 0.161409 1.22128
-1.94258 0.161748 1.34792
-1.85355 0.162131 1.37687
-1.99801 0.16255 1.28841
-1.8753 0.162895 1.33472
-1.61595 0.163437 1.44601
-2.13352 0.163786 1.17204
-1.80001 0.164333 1.32021
-1.62331 0.164839 1.39062
-1.83647 0.165269 1.26732
-1.95776 0.165778 1.18857
-1.64245 0.166289 1.32802
-1.60502 0.166801 1.32846
-1.49138 0.167315 1.36692
-1.70975 0.167829 1.2393
-1.50782 0.168224 1.32384
-1.67553 0.168819 1.22003
-1.53132 0.169218 1.27555
-1.44259 0.169698 1.30186
-1.27608 0.170099 1.36838
-1.52613 0.170583 1.22514
-1.5137 0.171068 1.21304
-1.64849 0.171362 1.13067
-1.26558 0.171852 1.30365
-1.45854 0.172153 1.19199
-1.46915 0.172645 1.16805
-1.51196 0.172952 1.13128
-1.35929 0.173429 1.18916
-1.31808 0.173844 1.19238
-1.30016 0.174244 1.18416
-1.32025 0.174649 1.15682
-1.32306 0.17505 1.13813
-1.36826 0.175382 1.09948
-1.12868 0.175766 1.20221
-1.07095 0.176196 1.21313
-1.19356 0.17662 1.13394
-1.01484 0.176968 1.20679
-1.14234 0.177379 1.12529
-1.10921 0.177717 1.12544
-1.24982 0.178051 1.03875
-1.07621 0.178316 1.11043
-1.07559 0.178643 1.09443
-1.03777 0.178958 1.09721
-1.21236 0.179221 0.994723
-0.934396 0.179526 1.1177
-0.969352 0.179776 1.08524
-0.68565 0.18007 1.21122
-1.03578 0.180313 1.02124
-1.02444 0.180553 1.01201
-0.7469 0.180776 1.13619
-0.86323 0.18101 1.0632
-0.660772 0.181242 1.14961
-0.942663 0.181472 0.993868
-0.806814 0.181679 1.04741
-0.993241 0.181852 0.940456
-0.712461 0.182075 1.06612
-0.622 0.182271 1.09712
-0.741185 0.182439 1.02382
-0.921535 0.182628 0.919512
-0.661024 0.182792 1.03609
-0.77477 0.183002 0.964632
-0.86416 0.183135 0.906854
-0.69601 0.183339 0.97641
-0.69875 0.183466 0.962036
-0.584395 0.183665 1.00476
-0.590097 0.183821 0.988297
-0.435312 0.18394 1.0528
-0.603802 0.184093 0.954966
-0.468784 0.184207 1.00966
-0.559162 0.184319 0.951699
-0.580609 0.184503 0.926712
-0.858057 0.184649 0.774465
-0.700167 0.184752 0.840768
-0.635113 0.184896 0.859803
-0.652066 0.184994 0.838766
-0.311533 0.185135 0.995572
-0.55837 0.185227 0.859678
-0.476945 0.185365 0.886965
-0.282518 0.185452 0.971789
-0.513781 0.185509 0.844402
-0.544685 0.185642 0.815588
-0.541379 0.185722 0.804972
-0.423169 0.185852 0.850754
-0.715523 0.185926 0.692402
-0.531264 0.185975 0.772913
-0.455214 0.186099 0.797686
-0.343449 0.186167 0.841522
-0.541408 0.186288 0.729337
-0.335148 0.18633 0.82096
-0.522085 0.186448 0.714317
-0.582201 0.186506 0.672396
-0.284996 0.186543 0.809579
-0.471035 0.186656 0.703467
-0.251127 0.186706 0.8017
-0.414923 0.186738 0.708474
-0.193123 0.186846 0.80637
-0.701986 0.186874 0.540667
-0.63996 0.18698 0.558715
-0.524074 0.187005 0.605446
-0.1504 0.187041 0.780839
-0.330902 0.18713 0.677956
-0.230795 0.187161 0.71666
-0.460621 0.18718 0.590662
-0.242843 0.187275 0.686763
-0.209927 0.187291 0.692198
-0.117174 0.187306 0.72758
-0.245191 0.187396 0.65087
-0.273319 0.187407 0.625876
-0.159001 0.187422 0.67203
-0.487895 0.187503 0.495075
-0.503737 0.187509 0.47632
-0.34031 0.187517 0.547176
-0.227698 0.187521 0.59272
-0.141256 0.187597 0.623504
-0.262053 0.187598 0.552407
-0.304466 0.187596 0.520554
-0.244535 0.187669 0.538147
-0.264949 0.187662 0.517412
-0.325351 0.187656 0.476668
-0.471123 0.187652 0.393179
-0.145772 0.187717 0.543656
-0.1786 0.187701 0.516921
-0.265055 0.187689 0.463288
-0.084375 0.187683 0.543093
-0.311702 0.18774 0.417391
-0.232846 0.187724 0.446508
-0.107421 0.187706 0.498943
0.0771523 0.187687 0.580985
-0.27719 0.187737 0.391942
-0.292087 0.187715 0.374329
0.104252 0.187691 0.562367
-0.203838 0.187667 0.398225
-0.310045 0.187654 0.334743
-0.310564 0.187695 0.32281
-0.272491 0.187666 0.33185
-0.13152 0.187636 0.392374
-0.228338 0.187605 0.334039
-0.317279 0.187572 0.279678
-0.399343 0.187603 0.227208
-0.225819 0.187567 0.304165
-0.136535 0.18753 0.339038
-0.217588 0.187491 0.288779
-0.188867 0.187451 0.293443
-0.172625 0.187431 0.291392
0.0326947 0.187451 0.382885
-0.0631372 0.187407 0.325381
-0.100163 0.187361 0.297317
-0.110999 0.187315 0.282385
-0.208087 0.187267 0.224365
-0.046894 0.187218 0.295523
-0.159259 0.187168 0.229939
-0.150233 0.1872 0.222992
-0.16932 0.187146 0.204122
-0.115659 0.187092 0.221665
-0.410645 0.187037 0.0649228
-0.141601 0.18698 0.190234
-0.164159 0.186921 0.169783
-0.105139 0.186862 0.190161
-0.101103 0.186801 0.183084
-0.199327 0.186739 0.124917
-0.324715 0.186676 0.0532078
-0.118363 0.186644 0.146576
-0.398879 0.186579 -0.00263717
-0.110272 0.186513 0.132751
-0.147971 0.186479 0.104148
-0.10869 0.186459 0.113697
-0.115775 0.186388 0.10136
-0.0640377 0.186317 0.118474
-0.0522751 0.186244 0.115641
-0.0248356 0.18617 0.120687
-0.152862 0.186095 0.0480401
-0.0372034 0.186019 0.0972764
-0.248203 0.185941 -0.0167755
0.096591 0.185862 0.14711
-0.18965 0.185822 -0.00554206
0.0739538 0.185742 0.117812
-0.28472 0.18566 -0.069931
-0.0690146 0.185577 0.0295564
-2.4306 0.169276 1.76912
-2.38779 0.168603 1.78954
-2.45402 0.168256 1.75158
-2.49068 0.167913 1.72841
-2.53273 0.167664 1.70144
-2.26332 0.167486 1.82935
-2.42544 0.167156 1.74339
-2.73583 0.166986 1.58135
-2.34131 0.166821 1.77174
-2.71988 0.166739 1.57455
-2.6596 0.16658 1.59777
-2.41883 0.166426 1.71119
-2.66466 0.166276 1.58127
-2.61167 0.166274 1.59891
-2.59578 0.166133 1.59977
-2.52499 0.166064 1.62716
-2.55805 0.166002 1.60255
-2.5193 0.165938 1.61389
-2.60585 0.165947 1.56164
-2.2026 0.165827 1.75595
-2.35735 0.165841 1.66954
-2.81887 0.165785 1.43066
-2.54929 0.16575 1.55705
-2.61061 0.165771 1.51726
-2.41779 0.165722 1.60547
-2.24182 0.165747 1.68427
-2.47596 0.16573 1.55858
-2.33136 0.165761 1.62162
-2.61886 0.165794 1.46858
-2.55563 0.165792 1.49137
-2.61862 0.165831 1.45049
-2.51886 0.165871 1.49097
-2.47033 0.165914 1.5058
-2.3051 0.165959 1.57894
-2.26255 0.166005 1.59071
-2.41796 0.166031 1.50379
-2.69225 0.166084 1.35705
-2.69772 0.166213 1.34366
-2.32045 0.16627 1.52263
-2.48439 0.166389 1.4301
-2.55646 0.166452 1.3843
-2.5336 0.166517 1.38593
-2.46459 0.166584 1.41059
-2.64837 0.166728 1.30776
-2.29667 0.166872 1.47266
-2.42465 0.167022 1.39761
-2.53983 0.167099 1.33
-1.98658 0.167253 1.59548
-2.36447 0.16741 1.39534
-2.34965 0.167568 1.39151
-2.35549 0.167663 1.37826
-2.21624 0.167827 1.43653
-2.41151 0.16807 1.32636
-2.36019 0.168239 1.34057
-2.13019 0.168427 1.4438
-2.23563 0.168601 1.3795
-2.47433 0.168855 1.24737
-2.11884 0.169056 1.41309
-2.05914 0.169315 1.43003
-2.39248 0.169576 1.25038
-2.09381 0.16979 1.38743
-2.24381 0.170105 1.2986
-2.2652 0.170403 1.27428
-2.32145 0.170674 1.23293
-2.12113 0.17098 1.31927
-2.1649 0.171335 1.28281
-2.01552 0.171691 1.34284
-2.02954 0.172088 1.32052
-2.02674 0.17245 1.30711
-2.05374 0.172814 1.27873
-1.94835 0.17322 1.31585
-2.12897 0.173669 1.20924
-1.84682 0.174038 1.33523
-1.99973 0.174534 1.24164
-1.90876 0.174989 1.27059
-2.02263 0.175446 1.19705
-1.87954 0.175987 1.25058
-1.84826 0.176447 1.24945
-1.77679 0.176908 1.26835
-1.54812 0.177455 1.36443
-1.72258 0.178003 1.25886
-1.62657 0.178552 1.28845
-1.5773 0.178976 1.29664
-1.69007 0.179613 1.2203
-1.50993 0.18004 1.29377
-1.67757 0.18047 1.19327
-1.60263 0.180901 1.21399
-1.47626 0.181421 1.25892
-1.34823 0.181855 1.30603
-1.3776 0.182378 1.27292
-1.33338 0.182902 1.27653
-1.44864 0.183227 1.2037
-1.1599 0.183755 1.3294
-1.41228 0.184175 1.18631
-1.45432 0.1846 1.14826
-1.14526 0.185119 1.28412
-1.44989 0.185477 1.11583
-1.26899 0.185913 1.18892
-1.56076 0.186444 1.02401
-1.17372 0.186887 1.19996
-1.09492 0.187249 1.22314
-1.23468 0.187713 1.13523
-1.25116 0.188171 1.10903
-1.15766 0.188621 1.13788
-1.0253 0.189065 1.18624
-0.97596 0.189431 1.19441
-0.816759 0.189792 1.25755
-1.14336 0.190149 1.07783
-0.922639 0.190501 1.17181
-1.01461 0.190838 1.10968
-1.13479 0.191127 1.03426
-1.145 0.191453 1.01313
-1.0027 0.19174 1.06894
-0.944298 0.192039 1.08254
-0.984533 0.192302 1.04743
-0.890525 0.192623 1.07837
-1.02401 0.192881 0.996673
-0.604797 0.193136 1.19134
-0.89795 0.193366 1.03027
-0.790361 0.193615 1.0692
-0.891352 0.193862 1.00384
-0.907766 0.194025 0.98229
-0.940755 0.194266 0.950992
-0.732858 0.194505 1.04015
-0.885728 0.19471 0.949539
-0.698934 0.194892 1.02915
-0.703083 0.195123 1.01236
-0.604462 0.195268 1.04855
-0.544141 0.195494 1.06406
-0.816235 0.195632 0.914967
-0.874898 0.195852 0.871052
-0.646607 0.196025 0.971462
-0.607659 0.196155 0.978004
-0.783956 0.196368 0.875345
-0.556669 0.196491 0.976143
-0.628619 0.196658 0.926492
-0.401292 0.196777 1.02738
-0.592656 0.19694 0.918053
-0.737669 0.197053 0.832852
-0.557345 0.19725 0.908694
-0.533401 0.197409 0.907053
-0.271468 0.197512 1.02546
-0.447973 0.197668 0.923626
-0.467703 0.197766 0.901285
-0.583196 0.197919 0.829992
-0.482437 0.198012 0.867983
-0.638943 0.198072 0.777972
-0.761463 0.198219 0.703227
-0.374631 0.198304 0.884376
-0.645943 0.198448 0.735275
-0.577321 0.198527 0.757412
-0.59021 0.198667 0.737566
-0.426876 0.198716 0.807639
-0.460376 0.198854 0.777516
-0.627495 0.198923 0.681959
-0.629807 0.198967 0.669293
-0.29003 0.199099 0.825886
-0.233907 0.199159 0.842087
-0.488351 0.199287 0.701623
-0.587767 0.199324 0.640523
-0.65409 0.19945 0.594156
-0.634726 0.199483 0.592503
-0.281209 0.199531 0.757632
-0.453064 0.19965 0.658589
-0.0137579 0.199678 0.867003
-0.297561 0.199705 0.713888
-0.340135 0.199819 0.679563
-0.121508 0.199842 0.777723
-0.288439 0.199953 0.681266
-0.298646 0.199973 0.665071
-0.168653 0.2 0.718819
-0.295722 0.200098 0.642562
