ply
format ascii 1.0
comment Created by Open3D
element vertex 1738
property double x
property double y
property double z
end_header
-2.66516 -0.270184 1.6584
-2.84 -0.270342 1.56125
-2.79334 -0.270464 1.57511
-2.65252 -0.270645 1.6356
-2.8697 -0.270842 1.51696
-2.75795 -0.270982 1.5632
-2.85607 -0.2712 1.5039
-2.70332 -0.271426 1.56997
-2.67464 -0.27174 1.57331
-2.75742 -0.271993 1.52137
-2.75502 -0.272259 1.51189
-2.80088 -0.272613 1.47759
-2.7529 -0.27298 1.49009
-2.74803 -0.273401 1.48058
-2.71407 -0.273873 1.48519
-2.72809 -0.27441 1.46527
-2.59089 -0.275109 1.51964
-2.55235 -0.275995 1.52314
-2.57447 -0.277067 1.49476
-2.76282 -0.26735 1.96706
-2.84479 -0.266016 1.92558
-2.78516 -0.265093 1.95242
-2.89426 -0.264582 1.89236
-2.8949 -0.264079 1.88652
-2.95822 -0.26375 1.84827
-2.98884 -0.263267 1.82738
-2.83506 -0.262952 1.89763
-2.97118 -0.262645 1.82291
-2.87492 -0.262346 1.86435
-3.04523 -0.262054 1.77246
-2.94058 -0.261772 1.81802
-3.02408 -0.261499 1.76947
-2.93592 -0.26143 1.80542
-2.9712 -0.261172 1.78089
-2.88974 -0.260926 1.81468
-2.84573 -0.260871 1.82849
-2.89452 -0.260641 1.79706
-2.92779 -0.260531 1.77261
-2.87544 -0.260425 1.79095
-2.91071 -0.260284 1.76572
-2.97686 -0.260187 1.72476
-2.90477 -0.260067 1.75308
-2.87909 -0.259979 1.75798
-2.76777 -0.25988 1.80579
-2.88796 -0.259803 1.7377
-2.83749 -0.259795 1.75445
-2.83895 -0.259659 1.74615
-3.00233 -0.259662 1.6559
-3.11787 -0.259603 1.59002
-2.95011 -0.259563 1.66566
-2.96434 -0.259581 1.64988
-2.8649 -0.259497 1.69168
-2.97932 -0.259528 1.62572
-2.99144 -0.259495 1.61137
-2.84328 -0.259508 1.67683
-2.82775 -0.259555 1.67573
-2.79274 -0.259537 1.68483
-2.90215 -0.259592 1.6212
-2.90772 -0.259644 1.60948
-3.0588 -0.259711 1.52491
-2.75878 -0.259713 1.66638
-2.78854 -0.259787 1.6424
-2.78928 -0.259879 1.6328
-2.8411 -0.259966 1.59769
-2.86137 -0.260056 1.57832
-2.91656 -0.260109 1.54177
-2.67238 -0.260282 1.65398
-2.7998 -0.260357 1.58114
-2.75 -0.260541 1.59605
-2.61218 -0.260638 1.65564
-2.74189 -0.260834 1.58068
-2.78478 -0.261024 1.54917
-2.72724 -0.261227 1.56775
-2.76908 -0.261443 1.53653
-2.76641 -0.261667 1.52749
-2.67654 -0.261904 1.56193
-2.56581 -0.262137 1.6068
-2.66701 -0.26249 1.54474
-2.67407 -0.262838 1.52976
-2.67276 -0.263198 1.51885
-2.66511 -0.26357 1.51098
-2.72908 -0.264073 1.46621
-2.67357 -0.264598 1.48095
-2.58007 -0.265218 1.51387
-2.59339 -0.266217 1.49019
-2.46189 -0.267868 1.53342
-2.69858 -0.256461 1.99432
-2.80929 -0.255569 1.93598
-2.74996 -0.25485 1.96161
-2.78386 -0.254362 1.93916
-2.78238 -0.253883 1.93437
-2.78738 -0.253569 1.92527
-2.84142 -0.253261 1.89164
-2.74264 -0.25281 1.93539
-2.90454 -0.252519 1.84776
-2.93977 -0.252235 1.82344
-2.91521 -0.25196 1.82897
-2.7149 -0.251693 1.92234
-2.98069 -0.251625 1.78132
-2.94042 -0.251372 1.79459
-2.73588 -0.25113 1.88995
-2.8431 -0.251013 1.82858
-2.82752 -0.250961 1.82815
-2.90196 -0.250741 1.78391
-2.91159 -0.250635 1.77127
-2.77519 -0.250495 1.8319
-2.83647 -0.250305 1.79406
-2.88635 -0.250277 1.76076
-2.87887 -0.25019 1.75658
-2.83788 -0.250089 1.76926
-2.82675 -0.250011 1.76684
-2.79718 -0.249937 1.77362
-2.81595 -0.249863 1.75624
-2.78003 -0.249864 1.76566
-2.82066 -0.249747 1.73767
-2.95442 -0.249758 1.66217
-2.79815 -0.249708 1.73215
-2.85291 -0.249685 1.69641
-2.85213 -0.249712 1.68807
-2.87716 -0.249676 1.66729
-2.71475 -0.249682 1.73991
-2.83789 -0.249724 1.66949
-2.77613 -0.249704 1.69199
-2.82335 -0.24974 1.65957
-2.76966 -0.249797 1.67744
-3.02952 -0.249791 1.53902
-2.83303 -0.249856 1.62822
-2.78126 -0.249925 1.64503
-2.86087 -0.250006 1.59604
-2.64315 -0.250018 1.69626
-2.90735 -0.250122 1.55479
-2.74921 -0.250214 1.62458
-2.80585 -0.250339 1.5867
-2.83805 -0.250442 1.56122
-2.68902 -0.250589 1.62598
-2.61517 -0.250703 1.65342
-2.88368 -0.250871 1.50922
-2.83768 -0.250996 1.52263
-2.68661 -0.251194 1.58795
-2.78471 -0.25139 1.5287
-2.76885 -0.251599 1.5263
-2.75643 -0.251815 1.52211
-2.67243 -0.252043 1.5536
-2.56202 -0.252355 1.59757
-2.74469 -0.252608 1.49547
-2.63366 -0.252944 1.53951
-2.78096 -0.253291 1.45426
-2.52412 -0.25376 1.57002
-2.50411 -0.254134 1.56815
-2.57006 -0.254836 1.52044
-2.66681 -0.255572 1.45699
-2.48102 -0.25655 1.53266
-2.85491 -0.245998 1.90877
-2.87943 -0.245303 1.89248
-2.76867 -0.244672 1.94343
-2.79246 -0.244149 1.92643
-2.97678 -0.243693 1.82873
-3.00701 -0.243394 1.80701
-2.81528 -0.243102 1.89625
-2.7251 -0.242815 1.93469
-2.85011 -0.242399 1.86648
-2.9102 -0.242131 1.82971
-2.84844 -0.241999 1.85291
-2.73089 -0.241744 1.9049
-2.74896 -0.241557 1.8886
-2.76567 -0.241437 1.87251
-2.94087 -0.241205 1.77801
-2.92195 -0.241092 1.7797
-2.92597 -0.240936 1.77025
-3.12029 -0.24073 1.66603
-2.99655 -0.240693 1.71961
-2.80014 -0.240504 1.81065
-2.76228 -0.240414 1.82169
-2.89406 -0.240389 1.74743
-3.00683 -0.240224 1.68373
-2.84098 -0.240209 1.75823
-3.02444 -0.240063 1.65905
-2.91048 -0.240058 1.70753
-2.89512 -0.239993 1.70716
-2.9829 -0.239937 1.65517
-2.91352 -0.239882 1.68174
-2.76139 -0.239894 1.74917
-2.83506 -0.239846 1.70417
-2.77942 -0.239824 1.72363
-2.9275 -0.239851 1.64084
-2.83978 -0.239816 1.67643
-2.75007 -0.239823 1.7127
-2.76047 -0.239864 1.69863
-2.89855 -0.239844 1.62122
-2.92637 -0.239879 1.59849
-2.75429 -0.239929 1.67558
-2.87461 -0.239992 1.60637
-2.95283 -0.240058 1.55817
-2.78443 -0.240063 1.63378
-2.75342 -0.240137 1.64013
-2.78668 -0.24023 1.61419
-2.84294 -0.240315 1.5768
-2.67855 -0.240404 1.64969
-2.61925 -0.240525 1.66977
-2.78533 -0.240625 1.57733
-2.5463 -0.240766 1.68708
-2.75116 -0.240876 1.57514
-2.6699 -0.241039 1.60581
-2.77098 -0.241214 1.54518
-2.79006 -0.24134 1.52597
-2.75201 -0.241535 1.53472
-2.73991 -0.24174 1.53039
-2.6761 -0.242023 1.55123
-2.69507 -0.242248 1.53115
-2.72452 -0.242485 1.50572
-2.50778 -0.242803 1.60265
-2.6001 -0.243132 1.54494
-2.73636 -0.243471 1.46513
-2.6975 -0.243929 1.4718
-2.51144 -0.244407 1.55186
-2.60325 -0.244856 1.49321
-2.78545 -0.245563 1.387
-2.71191 -0.246711 1.40461
-2.55264 -0.236526 2.05441
-2.8653 -0.235707 1.89511
-2.83671 -0.234891 1.90647
-2.75559 -0.234236 1.943
-2.76826 -0.233942 1.93008
-2.97647 -0.233509 1.82043
-2.84502 -0.233226 1.87954
-2.82908 -0.232949 1.88087
-2.92394 -0.232678 1.82678
-2.87733 -0.232414 1.8434
-2.91661 -0.232157 1.81703
-2.8288 -0.231908 1.85417
-2.76552 -0.231726 1.87857
-2.96095 -0.231608 1.77313
-2.81515 -0.231381 1.83915
-2.79885 -0.231271 1.83954
-3.03302 -0.231118 1.71504
-2.82125 -0.230915 1.8139
-2.90794 -0.230818 1.76273
-2.95521 -0.230691 1.7315
-2.91367 -0.230602 1.7444
-2.82617 -0.230576 1.77978
-2.89759 -0.230412 1.7368
-2.79932 -0.230395 1.77751
-2.88786 -0.230249 1.72584
-2.86991 -0.230242 1.72632
-2.7543 -0.230115 1.7766
-2.79237 -0.230117 1.749
-2.84048 -0.230061 1.71684
-2.88375 -0.23007 1.68659
-2.8487 -0.229975 1.69635
-2.89966 -0.229994 1.66217
-2.85201 -0.229955 1.67778
-2.83005 -0.229948 1.68027
-2.80694 -0.229981 1.68301
-2.87826 -0.229955 1.63903
-2.88872 -0.229976 1.62508
-2.87358 -0.230023 1.62371
-2.86451 -0.230064 1.61936
-2.79099 -0.230122 1.64708
-2.79568 -0.230119 1.63621
-2.63766 -0.230184 1.70611
-2.91251 -0.230252 1.55955
-2.86322 -0.230335 1.57493
-2.83813 -0.230349 1.57879
-2.8104 -0.230496 1.58282
-2.93569 -0.230541 1.51122
-2.69741 -0.230699 1.62041
-2.92208 -0.230763 1.49894
-2.69015 -0.230931 1.60483
-2.72917 -0.231014 1.576
-2.83666 -0.231193 1.51208
-2.79539 -0.231361 1.52262
-2.78149 -0.231542 1.51934
-2.66696 -0.231737 1.56624
-2.68961 -0.231935 1.5445
-2.7346 -0.232141 1.51151
-2.61672 -0.232356 1.55985
-2.65058 -0.232652 1.53157
-2.5622 -0.232978 1.5641
-2.58184 -0.233299 1.54265
-2.90146 -0.23363 1.37108
-2.56724 -0.234076 1.52534
-2.67487 -0.234499 1.45885
-2.57825 -0.235162 1.4922
-2.59656 -0.235731 1.46892
-2.6473 -0.236841 1.42424
-2.89515 -0.22606 1.87573
-2.67604 -0.225277 1.98234
-2.69216 -0.224644 1.97027
-2.75044 -0.224217 1.93563
-2.85922 -0.223742 1.87613
-2.89407 -0.223331 1.85314
-2.83788 -0.223064 1.87461
-2.83445 -0.222802 1.86968
-2.94294 -0.222546 1.80876
-2.92131 -0.222297 1.81286
-2.97468 -0.222055 1.77944
-2.75525 -0.221994 1.88101
-2.84477 -0.221764 1.82944
-2.8898 -0.221542 1.80007
-2.86095 -0.221329 1.80759
-2.89221 -0.221284 1.78372
-2.8196 -0.221085 1.81303
-2.87046 -0.22099 1.77979
-2.74651 -0.220864 1.8342
-2.92344 -0.220776 1.73788
-2.72167 -0.220691 1.83089
-2.90149 -0.220587 1.73326
-2.81801 -0.220511 1.76707
-2.87964 -0.220424 1.72841
-2.86409 -0.220356 1.7282
-2.91053 -0.220287 1.697
-2.94517 -0.220287 1.67112
-2.71865 -0.220231 1.77631
-2.83956 -0.220177 1.70775
-2.8286 -0.220139 1.70501
-2.93455 -0.220155 1.64334
-2.80631 -0.220114 1.69927
-2.69103 -0.220102 1.74847
-2.79824 -0.220131 1.68606
-2.8363 -0.220103 1.65873
-2.81563 -0.220117 1.6604
-2.75503 -0.220159 1.68177
-2.92838 -0.220144 1.58669
-2.80848 -0.220184 1.63773
-2.69915 -0.22024 1.68335
-2.63363 -0.220237 1.70758
-2.72908 -0.220362 1.65018
-2.73598 -0.220372 1.63808
-2.85135 -0.220445 1.57118
-2.78593 -0.220537 1.59448
-2.95917 -0.22062 1.49854
-2.72699 -0.220706 1.60527
-2.73533 -0.220824 1.59144
-2.80079 -0.220919 1.54925
-2.89326 -0.221056 1.49316
-2.5984 -0.221205 1.63061
-2.81766 -0.221316 1.51135
-2.71165 -0.221495 1.55407
-2.67479 -0.221668 1.56226
-2.6105 -0.221852 1.58404
-2.67776 -0.222046 1.53995
-2.69338 -0.222313 1.52095
-2.78554 -0.222525 1.4642
-2.7448 -0.222813 1.47314
-2.59008 -0.223046 1.53959
-2.77032 -0.223354 1.43781
-2.64246 -0.223767 1.48902
-2.88264 -0.224165 1.35632
-2.69565 -0.22461 1.43673
-2.64409 -0.22514 1.44854
-2.43164 -0.225989 1.53759
-2.55316 -0.227261 1.45535
-2.68575 -0.215752 1.9719
-2.68 -0.215006 1.97186
-2.89542 -0.214403 1.86016
-2.85232 -0.213998 1.8762
-2.84631 -0.213547 1.8741
-2.7534 -0.213287 1.91395
-2.81366 -0.212906 1.8782
-3.05668 -0.21266 1.75003
-2.7812 -0.212419 1.88108
-2.90793 -0.212301 1.81004
-2.77737 -0.212125 1.86812
-3.07754 -0.211902 1.71125
-2.96979 -0.211687 1.7583
-2.84435 -0.211479 1.81413
-2.75468 -0.211435 1.85074
-2.83983 -0.211241 1.80119
-2.97753 -0.211147 1.72454
-2.86539 -0.211023 1.77308
-2.96056 -0.210937 1.71764
-2.8159 -0.210853 1.78211
-3.07183 -0.21075 1.64646
-2.92712 -0.2106 1.71154
-2.80749 -0.210586 1.7629
-2.74163 -0.210518 1.78786
-2.8597 -0.210448 1.72089
-2.91854 -0.210388 1.68343
-2.91719 -0.210389 1.67554
-2.87337 -0.210284 1.68982
-2.85468 -0.210294 1.69053
-2.816 -0.210249 1.70172
-2.93211 -0.210225 1.63532
-2.75534 -0.210248 1.71495
-2.80334 -0.210214 1.6827
-3.00313 -0.210215 1.57424
-2.76384 -0.21025 1.68502
-2.97903 -0.210229 1.56906
-2.85586 -0.210255 1.62185
-2.71831 -0.210303 1.68163
-2.85316 -0.210354 1.60517
-2.81921 -0.210348 1.61365
-2.73376 -0.210405 1.64727
-2.73957 -0.210469 1.6352
-2.76633 -0.210536 1.61263
-2.69788 -0.210618 1.63749
-2.77605 -0.210695 1.58911
-2.75293 -0.210774 1.59133
-2.88951 -0.210881 1.51343
-2.73843 -0.21097 1.57953
-2.84576 -0.211095 1.51606
-2.93287 -0.211193 1.46296
-2.82355 -0.211335 1.50763
-2.83339 -0.211489 1.49259
-2.78539 -0.211601 1.50687
-2.82484 -0.21178 1.47676
-2.66274 -0.211956 1.54743
-2.55358 -0.212206 1.59088
-2.66101 -0.212403 1.52654
-2.72947 -0.212601 1.48166
-2.55236 -0.212877 1.55876
-2.68212 -0.213181 1.48212
-2.58037 -0.21348 1.52125
-2.5836 -0.213854 1.50711
-2.6588 -0.214171 1.45753
-2.5256 -0.214763 1.50927
-2.53091 -0.215275 1.49255
-2.43584 -0.216093 1.52278
-2.50666 -0.217694 1.46177
-2.80242 -0.206028 1.90906
-2.71609 -0.205317 1.94928
-2.81688 -0.20474 1.89491
-2.87084 -0.204168 1.86394
-2.7975 -0.203785 1.89509
-2.98033 -0.203534 1.79709
-2.86595 -0.203113 1.84914
-2.92477 -0.202754 1.81411
-2.68958 -0.202522 1.92502
-2.74699 -0.202462 1.88819
-2.74437 -0.202239 1.88277
-2.85214 -0.202023 1.82212
-2.87 -0.201814 1.80638
-2.86507 -0.201613 1.80198
-2.85286 -0.201569 1.79986
-2.83786 -0.20138 1.80042
-2.78312 -0.201289 1.82
-2.99405 -0.201167 1.70702
-2.68479 -0.201083 1.85382
-2.91136 -0.200921 1.7334
-2.98917 -0.200898 1.68612
-2.83808 -0.200751 1.75443
-2.78022 -0.200736 1.77492
-3.03818 -0.200668 1.63799
-2.82449 -0.200597 1.73692
-2.88441 -0.200537 1.69894
-2.61592 -0.20048 1.82515
-2.82823 -0.20043 1.7109
-2.80084 -0.200438 1.71597
-2.87815 -0.200392 1.66918
-2.76822 -0.200364 1.71585
-2.88302 -0.200327 1.65024
-2.70663 -0.200317 1.72998
-2.78559 -0.200345 1.68167
-2.73893 -0.200318 1.6967
-2.68224 -0.200332 1.71635
-2.69367 -0.200372 1.70169
-2.77505 -0.200415 1.65202
-2.84185 -0.200403 1.61018
-2.86408 -0.200447 1.59008
-2.95232 -0.200502 1.53685
-2.78751 -0.20056 1.61011
-2.74175 -0.200622 1.6238
-2.82158 -0.200636 1.57518
-2.76885 -0.200706 1.59226
-2.80203 -0.200796 1.56618
-2.88836 -0.200875 1.51364
-2.64786 -0.201017 1.62386
-2.79974 -0.201071 1.53878
-2.70069 -0.201222 1.57817
-2.72905 -0.201316 1.55442
-2.74223 -0.201451 1.53782
-2.62337 -0.201598 1.58712
-2.63101 -0.201755 1.57304
-2.64732 -0.201929 1.55444
-2.73735 -0.202102 1.49898
-2.75614 -0.202284 1.47902
-2.73611 -0.202472 1.4784
-2.55856 -0.202731 1.55576
-2.73043 -0.202999 1.45828
-2.58162 -0.203277 1.52103
-2.64546 -0.203563 1.47733
-2.6737 -0.203945 1.45037
-2.53484 -0.204345 1.50674
-2.44878 -0.204823 1.53581
-2.64763 -0.205379 1.42153
-2.69171 -0.206166 1.38205
-2.74361 -0.195701 1.92989
-2.7797 -0.194727 1.91154
-2.81115 -0.194355 1.89031
-2.859 -0.193938 1.86133
-2.82131 -0.193577 1.87465
-2.66752 -0.19334 1.94495
-2.70191 -0.192994 1.92216
-2.86022 -0.192768 1.83635
-2.87769 -0.192548 1.82094
-2.7346 -0.192334 1.88577
-2.76309 -0.192126 1.86478
-2.86357 -0.191924 1.80775
-2.9098 -0.191826 1.77691
-2.83309 -0.191687 1.80793
-2.90659 -0.191504 1.76427
-2.8288 -0.191415 1.79538
-2.70511 -0.191328 1.84943
-2.90687 -0.191214 1.74104
-2.79636 -0.191055 1.7892
-2.81066 -0.191032 1.77367
-2.80079 -0.190887 1.77141
-2.94848 -0.190818 1.68964
-2.82454 -0.190805 1.74316
-2.75424 -0.190679 1.77095
-2.96114 -0.190673 1.65899
-2.89371 -0.190617 1.68468
-2.74259 -0.190565 1.75218
-2.92084 -0.190516 1.65497
-2.76047 -0.19048 1.72695
-2.78178 -0.190493 1.7076
-2.84436 -0.190454 1.66813
-2.79661 -0.19044 1.68358
-2.91595 -0.190464 1.61511
-2.76582 -0.190437 1.68189
-2.7646 -0.190445 1.67386
-2.99915 -0.19048 1.54765
-2.75441 -0.190464 1.66163
-2.87796 -0.190494 1.59098
-2.88106 -0.190541 1.58037
-2.63171 -0.190591 1.69595
-2.90019 -0.190588 1.55318
-2.73484 -0.190644 1.62669
-2.7394 -0.190708 1.61517
-2.56049 -0.190773 1.69536
-2.79034 -0.19084 1.57114
-2.76625 -0.190926 1.57368
-2.91156 -0.191002 1.49162
-2.63641 -0.191105 1.6195
-2.62348 -0.191189 1.61647
-2.62181 -0.191307 1.60742
-2.68672 -0.1914 1.56535
-2.78392 -0.191534 1.50667
-2.56888 -0.191692 1.60384
-2.67796 -0.191842 1.53902
-2.54699 -0.192001 1.59411
-2.56973 -0.192173 1.5722
-2.72604 -0.192405 1.48279
-2.72715 -0.192588 1.47153
-2.68237 -0.192839 1.48243
-2.50255 -0.193028 1.56152
-2.58927 -0.193293 1.50648
-2.66438 -0.193645 1.45621
-2.68081 -0.194013 1.43507
-2.59351 -0.194369 1.46589
-2.47694 -0.194825 1.51017
-2.67155 -0.195552 1.39567
-2.55342 -0.196207 1.43832
-2.55534 -0.18526 2.01652
-2.76879 -0.184456 1.90844
-2.76169 -0.184106 1.90649
-2.70858 -0.183712 1.92799
-2.79538 -0.183373 1.87906
-2.77609 -0.183151 1.88209
-2.84653 -0.182934 1.84025
-2.72672 -0.182616 1.8945
-2.76508 -0.18241 1.86863
-2.95119 -0.18221 1.76884
-2.8467 -0.182112 1.81339
-2.80622 -0.181922 1.82684
-2.82156 -0.181787 1.81185
-2.76137 -0.181698 1.8342
-2.75921 -0.181524 1.82836
-2.73353 -0.181358 1.83423
-2.85258 -0.181328 1.7664
-2.683 -0.181174 1.84413
-2.74578 -0.1811 1.80488
-2.83756 -0.181009 1.75132
-2.92209 -0.180942 1.70115
-2.94639 -0.180928 1.68055
-2.78228 -0.180804 1.75529
-2.84435 -0.180797 1.71575
-2.90937 -0.180687 1.67579
-3.01324 -0.180687 1.61528
-2.87254 -0.180638 1.67756
-2.75939 -0.1806 1.72597
-2.85046 -0.180558 1.6723
-2.8939 -0.180571 1.64187
-3.05567 -0.180534 1.55281
-2.91983 -0.180521 1.6123
-2.87823 -0.180545 1.62427
-2.77518 -0.180519 1.66751
-2.89473 -0.180527 1.59909
-2.85291 -0.180561 1.61106
-2.82557 -0.180585 1.61589
-2.78298 -0.180628 1.62815
-2.73914 -0.180619 1.64159
-2.67671 -0.180667 1.6637
-2.76629 -0.180718 1.60977
-2.74544 -0.180774 1.611
-2.70421 -0.180833 1.62237
-2.76547 -0.180895 1.58246
-2.74185 -0.180917 1.58544
-2.6438 -0.181041 1.62446
-2.71547 -0.181114 1.57921
-2.66322 -0.181211 1.59562
-2.72558 -0.181292 1.55492
-2.69136 -0.181404 1.56213
-2.7361 -0.181527 1.52973
-2.82364 -0.181619 1.47627
-2.89462 -0.181771 1.43039
-2.75373 -0.181913 1.49054
-2.65223 -0.182064 1.53088
-2.7565 -0.18228 1.46755
-2.74325 -0.182449 1.46352
-2.62907 -0.18268 1.5092
-2.53126 -0.182861 1.54726
-2.64733 -0.183108 1.47758
-2.42283 -0.183363 1.57807
-2.58764 -0.183702 1.48286
-2.67439 -0.184034 1.42674
-2.5426 -0.184398 1.47945
-2.55439 -0.184893 1.45874
-2.46104 -0.185436 1.48997
-2.43564 -0.186373 1.4823
-0.0641991 -0.227373 0.241159
-0.0539538 -0.227058 0.242068
-0.110211 -0.2269 0.206458
0.00602988 -0.226823 0.255412
-0.00477781 -0.226626 0.243387
-0.149687 -0.226586 0.16101
0.128338 -0.226387 0.293464
-0.0391938 -0.226187 0.203174
-0.101374 -0.226146 0.162228
-0.123936 -0.226061 0.142004
-0.000957774 -0.225859 0.197071
-0.0100106 -0.225815 0.182753
-0.0614051 -0.225727 0.148224
-0.0101454 -0.225637 0.165067
-0.161155 -0.225476 0.0822993
-0.0436777 -0.225384 0.132319
-0.0709023 -0.22529 0.110032
-0.0509997 -0.225195 0.111354
-0.0371109 -0.225146 0.108657
-0.197001 -0.224935 0.0226015
0.0904975 -0.224836 0.157834
-0.0469059 -0.224786 0.0795564
-0.00231936 -0.224684 0.0934032
0.0118187 -0.22458 0.0920713
-0.0549267 -0.224475 0.0503433
0.0614733 -0.224422 0.099057
-0.100345 -0.224205 0.0122859
-0.220927 -0.224096 -0.0562472
0.0198011 -0.224041 0.0546965
-0.101895 -0.22393 -0.0143218
-2.79971 -0.175707 1.88712
-2.64565 -0.174837 1.96385
-2.77011 -0.174347 1.89766
-2.83802 -0.173861 1.85975
-2.73736 -0.173538 1.90457
-2.68881 -0.173173 1.92376
-2.71722 -0.172966 1.90294
-2.80466 -0.172763 1.85258
-2.93618 -0.172564 1.78015
-2.87317 -0.17237 1.80496
-2.72978 -0.172182 1.86993
-2.86774 -0.171999 1.79418
-2.89679 -0.171909 1.77194
-3.02349 -0.171783 1.70126
-2.95716 -0.171616 1.72754
-2.75706 -0.171456 1.82065
-2.99761 -0.171426 1.69207
-2.87825 -0.171277 1.74472
-2.75288 -0.171205 1.79956
-2.76907 -0.171116 1.78382
-2.71766 -0.17105 1.80163
-2.86516 -0.170986 1.71998
-2.77682 -0.170914 1.75633
-2.94062 -0.170857 1.66647
-2.93631 -0.170798 1.66069
-2.63226 -0.170796 1.80414
-2.88748 -0.170701 1.669
-2.89406 -0.170707 1.65707
-2.84665 -0.170665 1.67266
-2.77514 -0.170676 1.69972
-2.85905 -0.170639 1.6496
-2.87282 -0.170622 1.63433
-2.99384 -0.170643 1.56501
-2.81115 -0.170616 1.6481
-2.8945 -0.170619 1.59782
-2.76178 -0.170649 1.65525
-2.75673 -0.170631 1.6494
-2.86994 -0.170654 1.58396
-2.61643 -0.170695 1.70166
-2.62974 -0.170733 1.68598
-2.80878 -0.170782 1.58731
-2.58736 -0.170781 1.68945
-2.80453 -0.170834 1.57164
-2.81867 -0.170897 1.55524
-2.73949 -0.170958 1.58551
-2.78041 -0.171022 1.55569
-2.65164 -0.171105 1.61049
-2.83475 -0.171176 1.50947
-2.67493 -0.171273 1.5796
-2.85292 -0.171351 1.48104
-2.73741 -0.171486 1.52854
-2.82021 -0.171601 1.47709
-2.81469 -0.171726 1.46969
-2.55214 -0.171873 1.59051
-2.58097 -0.172011 1.56574
-2.74577 -0.172158 1.47286
-2.72782 -0.172316 1.4712
-2.71525 -0.17253 1.46612
-2.52547 -0.172697 1.55022
-2.62936 -0.172927 1.48667
-2.59713 -0.173165 1.49107
-2.50236 -0.17341 1.52661
-2.46098 -0.173718 1.53462
-2.54952 -0.173977 1.47828
-2.46898 -0.174377 1.50462
-2.57876 -0.17479 1.43559
-2.3158 -0.175448 1.54969
-2.51115 -0.176492 1.4295
-0.0475079 -0.216049 0.481307
-0.154502 -0.215678 0.424694
-0.0391966 -0.215425 0.476795
-0.000585907 -0.215289 0.48811
-0.227031 -0.215135 0.367307
-0.0455712 -0.21498 0.450495
-0.0720597 -0.21496 0.426872
-0.0787294 -0.214803 0.416056
-0.0797122 -0.214667 0.407659
-0.0507522 -0.214623 0.412281
-0.102524 -0.214463 0.379007
-0.194077 -0.214417 0.323455
-0.152169 -0.214279 0.336572
-0.0912897 -0.21423 0.357299
-0.135669 -0.214179 0.325438
-0.158766 -0.214041 0.306104
-0.0520653 -0.213988 0.349846
-0.115178 -0.213933 0.308723
-0.115657 -0.213766 0.301362
-0.173887 -0.213737 0.262129
0.116646 -0.213679 0.397934
-0.167152 -0.213509 0.249006
-0.119651 -0.213447 0.263379
-0.116726 -0.213416 0.254806
-0.192657 -0.213352 0.207526
-0.0168282 -0.213178 0.288545
-0.218453 -0.213111 0.178503
-0.0765798 -0.213077 0.239486
-0.17004 -0.213007 0.183591
-0.215359 -0.21283 0.154168
-0.102638 -0.212758 0.201447
0.00597958 -0.212721 0.245886
-0.131369 -0.212647 0.168197
0.0640637 -0.21257 0.256941
0.216639 -0.212492 0.324299
-0.0583418 -0.212413 0.177922
-0.0173957 -0.212269 0.190968
-0.150901 -0.212188 0.115395
-0.140569 -0.212105 0.111783
-0.0451224 -0.21202 0.150771
-0.100365 -0.211978 0.113473
-0.0792557 -0.211891 0.11536
0.0600243 -0.211802 0.176377
-0.16423 -0.211612 0.0579739
-0.159256 -0.211567 0.05087
-0.0577237 -0.211475 0.0931226
-0.0746571 -0.211382 0.0761861
-0.227952 -0.211287 -0.00888694
-0.10678 -0.211239 0.0421951
-0.183131 -0.211142 -0.00433697
0.0939874 -0.211043 0.12591
-0.187585 -0.210943 -0.0231441
-0.106633 -0.210893 0.00791605
-0.122438 -0.21079 -0.00818451
-2.68547 -0.165103 1.93821
-2.71503 -0.164537 1.92054
-2.70965 -0.164076 1.91929
-2.94819 -0.163621 1.79607
-2.78011 -0.163318 1.87459
-2.91197 -0.162978 1.80357
-2.7893 -0.162785 1.85828
-2.68665 -0.162596 1.90295
-2.88752 -0.162411 1.79583
-2.86699 -0.162231 1.79939
-2.8963 -0.162057 1.77798
-3.04948 -0.162017 1.69318
-2.80475 -0.16185 1.80873
-2.91588 -0.16169 1.74631
-2.73403 -0.161536 1.83032
-2.86559 -0.161507 1.75623
-2.97907 -0.161363 1.69249
-2.83254 -0.161294 1.75793
-2.7913 -0.161207 1.77092
-2.80175 -0.161143 1.75782
-2.81789 -0.161081 1.74186
-2.80135 -0.16101 1.74235
-2.78018 -0.160953 1.74499
-2.82221 -0.160894 1.71607
-2.87443 -0.160844 1.68195
-2.82351 -0.160798 1.69937
-2.76166 -0.160802 1.72166
-2.86391 -0.16076 1.66244
-2.98021 -0.160721 1.59618
-2.66002 -0.160697 1.74798
-2.72221 -0.160712 1.70812
-2.78722 -0.160681 1.6674
-2.80463 -0.160675 1.6502
-2.71066 -0.1607 1.6883
-2.78165 -0.160679 1.64449
-2.69412 -0.160691 1.67952
-2.71804 -0.160725 1.65856
-2.90871 -0.160762 1.55418
-2.7842 -0.160752 1.60798
-2.6889 -0.160788 1.6466
-2.76769 -0.160834 1.59804
-2.79192 -0.160882 1.57672
-2.802 -0.160937 1.5624
-2.86943 -0.160993 1.51938
-2.88248 -0.161051 1.50352
-2.67449 -0.161124 1.59798
-2.78939 -0.16119 1.53109
-2.80269 -0.161276 1.51471
-2.69447 -0.161349 1.55927
-2.62848 -0.161449 1.58235
-2.71288 -0.161528 1.53049
-2.64671 -0.16166 1.55322
-2.56968 -0.161777 1.58155
-2.78369 -0.161903 1.46424
-2.71996 -0.162047 1.48555
-2.57201 -0.162185 1.54903
-2.72551 -0.162383 1.46097
-2.70109 -0.162537 1.46244
-2.55717 -0.162747 1.52287
-2.60779 -0.162964 1.48593
-2.56331 -0.163189 1.49641
-2.55182 -0.16342 1.49028
-2.71181 -0.163658 1.39829
-2.38268 -0.164027 1.54904
-2.55867 -0.164408 1.44702
-2.59849 -0.164802 1.41286
-2.5474 -0.165343 1.42207
-2.36768 -0.166561 1.48606
-0.233085 -0.20331 0.56288
-0.128146 -0.203082 0.609345
-0.300841 -0.202966 0.51463
-0.184126 -0.202845 0.564748
-0.243637 -0.202728 0.526661
-0.302622 -0.202606 0.488987
-0.0720592 -0.202591 0.593755
-0.255503 -0.202474 0.493755
-0.188442 -0.202348 0.519199
-0.128158 -0.202231 0.541088
-0.160234 -0.202212 0.51466
-0.163575 -0.202084 0.50499
-0.167758 -0.202073 0.492343
0.0192492 -0.201944 0.577902
-0.215709 -0.20192 0.450171
-0.0193278 -0.201801 0.540199
-0.0146599 -0.201774 0.532341
-0.0997812 -0.201746 0.479626
-0.0860057 -0.201612 0.478729
0.0461332 -0.201581 0.534723
-0.0458116 -0.201461 0.480666
-0.167182 -0.201428 0.409966
-0.125414 -0.201393 0.420873
-0.230352 -0.201254 0.360774
-0.176681 -0.201235 0.377284
0.0584518 -0.201197 0.484973
-0.112023 -0.201157 0.389897
-0.242094 -0.201014 0.31736
-0.29519 -0.200972 0.281054
-0.120039 -0.20095 0.3584
-0.16897 -0.200805 0.326518
-0.0661823 -0.200758 0.368254
-0.267528 -0.20071 0.257964
-0.289731 -0.200661 0.237285
-0.0416746 -0.200635 0.351183
-0.00513088 -0.200486 0.362203
-0.281487 -0.200432 0.21455
-0.0555075 -0.200378 0.318105
-0.258077 -0.200322 0.207425
-0.0514932 -0.200293 0.300688
-0.0685645 -0.200139 0.285064
-0.202989 -0.20008 0.208561
-0.183509 -0.200019 0.209051
-0.226029 -0.199956 0.178582
0.00902021 -0.199924 0.286181
-0.0261247 -0.19986 0.259463
-0.0409951 -0.1997 0.245141
-0.0352354 -0.199633 0.238958
-0.0728186 -0.199598 0.210322
-0.0886993 -0.199529 0.193384
-0.0322075 -0.199458 0.212673
-0.0322998 -0.199385 0.203713
-0.278095 -0.199312 0.0719432
-0.0710526 -0.199236 0.166634
-0.0207395 -0.199198 0.182074
-0.19868 -0.199031 0.0865222
-0.168018 -0.198952 0.0931302
-0.052744 -0.198872 0.142086
-0.203782 -0.198832 0.0569349
-0.0815534 -0.19875 0.109435
-0.156494 -0.198666 0.0633932
-0.144358 -0.198581 0.0609333
-0.191664 -0.198495 0.0287956
-0.165637 -0.198451 0.0322847
-0.00689958 -0.198363 0.103236
-0.206573 -0.198273 -0.00497444
-0.140132 -0.198182 0.0199159
-0.221692 -0.19809 -0.0291501
0.0363929 -0.198043 0.0904781
-0.208475 -0.197948 -0.0401738
-2.64427 -0.154673 1.95124
-2.72897 -0.154003 1.90759
-2.69588 -0.153713 1.91864
-2.7012 -0.153384 1.91095
-2.62817 -0.153103 1.94193
-2.90708 -0.152919 1.79586
-2.67288 -0.152607 1.90784
-2.89563 -0.152432 1.7898
-2.87482 -0.152346 1.79252
-2.75553 -0.152221 1.84495
-2.70177 -0.152057 1.86508
-2.78118 -0.151899 1.81858
-2.69377 -0.151745 1.85545
-2.7739 -0.151598 1.8085
-2.72518 -0.15157 1.82456
-2.72288 -0.151432 1.81874
-2.66837 -0.151365 1.83817
-2.75122 -0.1513 1.78891
-2.79389 -0.15122 1.75995
-2.85609 -0.15116 1.72097
-2.79867 -0.15109 1.74193
-2.73634 -0.150982 1.76581
-2.88765 -0.150976 1.68163
-2.63238 -0.150928 1.80128
-2.93273 -0.150926 1.64253
-2.87463 -0.150838 1.6641
-2.77642 -0.150842 1.70455
-2.74033 -0.150803 1.71451
-2.74766 -0.150776 1.70259
-2.60657 -0.150789 1.76438
-2.90141 -0.150758 1.60877
-2.65635 -0.150749 1.72284
-2.76455 -0.15077 1.65987
-2.66863 -0.150748 1.69954
-2.71953 -0.150756 1.6654
-2.77572 -0.150786 1.62832
-2.60266 -0.150772 1.70644
-2.73223 -0.150807 1.63261
-2.65727 -0.150837 1.6611
-3.00757 -0.150875 1.47685
-2.76926 -0.150921 1.5868
-2.70217 -0.150968 1.61111
-2.693 -0.150973 1.60704
-2.85989 -0.151073 1.51363
-2.75873 -0.151128 1.55485
-2.67372 -0.151149 1.58846
-2.72903 -0.151258 1.55069
-2.71581 -0.15134 1.54755
-2.65488 -0.151408 1.56845
-2.68826 -0.151502 1.54183
-2.84888 -0.151625 1.45116
-2.58482 -0.151683 1.57375
-2.72809 -0.151812 1.49165
-2.78653 -0.15193 1.45211
-2.66065 -0.152066 1.50446
-2.5907 -0.152238 1.52831
-2.66031 -0.152381 1.48278
-2.60698 -0.152575 1.49798
-2.72778 -0.152725 1.42672
-2.58814 -0.152929 1.48488
-2.42569 -0.15314 1.55432
-2.6038 -0.153357 1.45336
-2.60628 -0.153695 1.43842
-2.46614 -0.153927 1.49631
-2.56138 -0.154285 1.43462
-2.4328 -0.15478 1.48277
-2.50136 -0.155292 1.43203
-2.45364 -0.156357 1.4311
-0.255549 -0.19079 0.688672
-0.210358 -0.190371 0.70962
-0.282946 -0.190272 0.664667
-0.279477 -0.190172 0.657758
-0.254552 -0.190073 0.66159
-0.215164 -0.189977 0.672581
-0.327273 -0.189878 0.607928
-0.285452 -0.189781 0.62019
-0.072665 -0.189683 0.717969
-0.188714 -0.189584 0.651361
-0.164285 -0.189584 0.652761
-0.0401427 -0.189484 0.706303
-0.0396274 -0.189483 0.695794
-0.154527 -0.18938 0.629883
-0.269029 -0.189376 0.561939
-0.318052 -0.189274 0.528966
-0.144249 -0.189267 0.605231
-0.34824 -0.189161 0.49489
-0.197143 -0.189152 0.559876
-0.2153 -0.189049 0.54239
-0.268833 -0.189038 0.505118
-0.316626 -0.188928 0.472987
-0.0435289 -0.188914 0.599105
-0.124169 -0.188898 0.548389
-0.202415 -0.188794 0.500929
-0.254327 -0.188777 0.464636
-0.180194 -0.188757 0.491401
-0.127574 -0.188642 0.50966
-0.00871424 -0.188632 0.5586
-0.156198 -0.188609 0.474652
-0.185296 -0.188491 0.452133
-0.216769 -0.188466 0.426266
-0.139701 -0.188439 0.454706
-0.224484 -0.188411 0.402258
-0.0423794 -0.188304 0.485118
-0.214003 -0.188274 0.389309
-0.175574 -0.188242 0.398564
-0.284662 -0.188209 0.334098
-0.282955 -0.188084 0.327236
-0.113483 -0.188048 0.402128
-0.0377497 -0.18803 0.429732
-0.165506 -0.187992 0.356068
-0.300896 -0.187864 0.280775
-0.398204 -0.187823 0.222413
-0.0646618 -0.187781 0.379516
-0.13324 -0.187737 0.335597
-0.240689 -0.187693 0.272281
-0.0433871 -0.18767 0.360807
-0.209351 -0.187536 0.270423
-0.224251 -0.187488 0.253482
-0.0025799 -0.187439 0.354866
-0.161499 -0.187388 0.265995
-0.23467 -0.187335 0.220039
-0.0761535 -0.187309 0.289292
-0.0807016 -0.18717 0.279809
-0.339854 -0.187115 0.140963
0.0204593 -0.187058 0.31189
-0.246017 -0.187 0.169463
-0.165709 -0.18697 0.199714
-0.199643 -0.18691 0.17362
-0.236001 -0.186849 0.146356
-0.385015 -0.186786 0.0628049
-0.15757 -0.18664 0.16959
-0.175271 -0.186575 0.151776
-0.0111321 -0.186542 0.224067
-0.163334 -0.186475 0.139067
-0.145975 -0.186406 0.138889
-0.16918 -0.186336 0.118471
-0.2527 -0.186265 0.067937
-0.202615 -0.186192 0.0842475
-0.200391 -0.186155 0.0757079
-0.0902981 -0.186081 0.122088
-0.114021 -0.186005 0.101602
-0.0421598 -0.185928 0.12895
-0.303239 -0.185772 -0.00811612
-0.0672313 -0.185733 0.100343
-0.256613 -0.185653 -0.00282398
-0.185995 -0.185571 0.0240514
-0.12814 -0.185489 0.0445881
-0.116825 -0.185405 0.0418971
-0.00991294 -0.18532 0.0870484
-0.0359312 -0.185277 0.0646267
-0.185762 -0.18519 -0.0185264
-2.62447 -0.145194 1.95118
-2.63091 -0.14435 1.94924
-2.81016 -0.143725 1.85836
-2.92572 -0.143456 1.79507
-2.68412 -0.14315 1.91085
-2.80292 -0.142977 1.84485
-2.79386 -0.142721 1.84381
-2.82625 -0.142554 1.82097
-2.76784 -0.142391 1.8435
-2.90093 -0.142232 1.77025
-2.66883 -0.142077 1.87957
-2.86653 -0.141927 1.77395
-2.87719 -0.141782 1.76181
-2.72312 -0.141642 1.83198
-2.88949 -0.141615 1.74049
-2.81679 -0.141548 1.76906
-2.86732 -0.141419 1.73682
-2.90434 -0.141357 1.71049
-2.72025 -0.141279 1.79493
-2.83706 -0.141166 1.72939
-2.80056 -0.141153 1.73919
-2.81793 -0.14105 1.72326
-2.78779 -0.141043 1.72981
-2.79562 -0.140996 1.71792
-2.82127 -0.14095 1.69711
-2.87992 -0.140907 1.65976
-2.7469 -0.140909 1.71764
-2.71726 -0.140835 1.72488
-2.74077 -0.140843 1.70442
-2.82081 -0.14081 1.65625
-2.73697 -0.140794 1.6898
-2.77231 -0.14081 1.66331
-2.80879 -0.140785 1.63683
-2.63897 -0.140785 1.71316
-2.89624 -0.140809 1.57559
-2.91317 -0.140836 1.55815
-2.78022 -0.140821 1.61624
-2.83063 -0.140841 1.58216
-2.75864 -0.140876 1.60906
-3.01211 -0.140908 1.47327
-2.64465 -0.140949 1.64781
-2.75899 -0.140948 1.58205
-2.77583 -0.140994 1.56437
-2.65854 -0.141041 1.61372
-2.71104 -0.141098 1.57804
-2.72286 -0.141151 1.56273
-2.57781 -0.141252 1.62515
-2.82727 -0.141279 1.4914
-2.56056 -0.141387 1.61453
-2.67259 -0.141471 1.54863
-2.78691 -0.141539 1.48182
-2.82852 -0.141634 1.45094
-2.76267 -0.141754 1.47341
-2.73843 -0.14186 1.47526
-2.72135 -0.141974 1.47341
-2.62223 -0.142104 1.51232
-2.62515 -0.142228 1.50028
-2.68756 -0.142363 1.45832
-2.73746 -0.142544 1.42187
-2.70046 -0.142732 1.42875
-2.66751 -0.142926 1.43348
-2.52533 -0.143126 1.4927
-2.5269 -0.14339 1.47903
-2.59679 -0.143592 1.43214
-2.32783 -0.14392 1.55266
-2.51137 -0.144258 1.44672
-2.41607 -0.144725 1.47811
-2.48927 -0.145207 1.42494
-0.313591 -0.177868 0.783814
-0.272411 -0.177576 0.800223
-0.346261 -0.177395 0.756612
-0.371826 -0.177311 0.734941
-0.324446 -0.177142 0.751701
-0.288603 -0.177058 0.760765
-0.304618 -0.176984 0.743666
-0.287527 -0.176994 0.741176
-0.305959 -0.176909 0.723143
-0.277669 -0.176833 0.728266
-0.209492 -0.176756 0.753364
-0.3212 -0.176679 0.68855
-0.238522 -0.176686 0.718937
-0.214646 -0.176607 0.721963
-0.410622 -0.176613 0.613052
-0.176496 -0.176532 0.721251
-0.194066 -0.176542 0.701457
-0.256403 -0.176455 0.661586
-0.26578 -0.176463 0.645943
-0.409566 -0.176379 0.565294
-0.186692 -0.176384 0.665846
-0.258626 -0.176298 0.621184
-0.298405 -0.1763 0.590504
-0.217534 -0.176213 0.62228
-0.248354 -0.176213 0.596125
-0.110944 -0.176211 0.654119
-0.262805 -0.17612 0.569649
-0.31334 -0.176116 0.533741
-0.230286 -0.17611 0.564662
-0.0832512 -0.17602 0.629644
-0.36669 -0.176013 0.477374
-0.250371 -0.175918 0.527127
-0.299404 -0.175908 0.492132
-0.167171 -0.175896 0.547805
-0.164209 -0.175883 0.538877
-0.167216 -0.175792 0.528916
-0.120188 -0.175777 0.542077
-0.141307 -0.175761 0.5212
-0.354544 -0.17566 0.406381
-0.226801 -0.175641 0.460009
-0.104209 -0.175621 0.511097
-0.265523 -0.1756 0.420268
-0.12866 -0.175507 0.480334
-0.130194 -0.175484 0.469453
-0.168159 -0.175459 0.440392
-0.233617 -0.175433 0.397622
-0.329996 -0.175326 0.341471
-0.253588 -0.175297 0.369709
-0.0640351 -0.175268 0.454556
-0.132509 -0.175236 0.410427
-0.326067 -0.175204 0.303794
-0.200316 -0.175109 0.358433
-0.20637 -0.175075 0.345611
-0.246275 -0.17504 0.3159
-0.080727 -0.175003 0.388954
-0.131823 -0.174965 0.353724
-0.118704 -0.174925 0.35064
-0.11083 -0.174829 0.34643
-0.103615 -0.174788 0.340454
-0.210594 -0.174746 0.277419
-0.137039 -0.174702 0.30469
-0.230238 -0.174657 0.248622
0.0153237 -0.174611 0.361974
-0.251656 -0.174563 0.219095
-0.236519 -0.174441 0.219279
-0.166833 -0.174416 0.24414
-0.261704 -0.174366 0.187415
-0.177754 -0.174314 0.220141
-0.247982 -0.174261 0.175817
-0.176452 -0.174207 0.202413
-0.118855 -0.174152 0.222081
-0.0930844 -0.174095 0.225878
-0.26102 -0.174037 0.132862
-0.139692 -0.173937 0.185634
-0.255154 -0.173878 0.118916
-0.14189 -0.173817 0.166602
0.0130657 -0.173755 0.235174
-0.173522 -0.173692 0.133015
0.0352307 -0.173627 0.228569
-0.113499 -0.173595 0.144511
-0.241056 -0.173529 0.0719731
-0.313296 -0.173461 0.0271346
-0.0414334 -0.173393 0.15439
-0.14586 -0.173323 0.0935416
-0.127123 -0.173252 0.094317
-0.270769 -0.173216 0.0129284
-0.110684 -0.173143 0.084443
-0.00907671 -0.173069 0.126761
-0.299489 -0.172928 -0.0250275
-0.14267 -0.172852 0.0449779
-0.0120818 -0.172775 0.10191
-0.231757 -0.172736 -0.0173637
-0.239507 -0.172657 -0.0295348
-0.104396 -0.172577 0.0297673
-2.63924 -0.134526 1.93877
-2.8102 -0.133946 1.85201
-2.65807 -0.133572 1.92416
-2.82718 -0.133202 1.83568
-2.54705 -0.133039 1.96915
-2.8277 -0.13276 1.82378
-2.70509 -0.132525 1.8795
-2.87418 -0.132372 1.7883
-2.80864 -0.132223 1.81438
-2.68675 -0.132077 1.86861
-2.83015 -0.131936 1.79015
-2.69132 -0.131798 1.85277
-2.95733 -0.131732 1.71202
-2.73372 -0.13164 1.81643
-2.72374 -0.131577 1.81364
-2.75423 -0.131455 1.79146
-2.78499 -0.131396 1.76827
-2.81411 -0.131321 1.74612
-2.74984 -0.131213 1.77116
-2.76263 -0.1312 1.75632
-2.74557 -0.131101 1.75764
-2.83953 -0.131094 1.70215
-2.85076 -0.131048 1.68857
-2.63379 -0.131004 1.78908
-2.88214 -0.130961 1.65693
-2.74205 -0.130922 1.71894
-2.92308 -0.130889 1.6203
-2.88633 -0.130896 1.62997
-2.83813 -0.130863 1.64595
-2.7712 -0.130845 1.67109
-2.81394 -0.130859 1.64091
-2.59017 -0.130834 1.74457
-2.80983 -0.13083 1.6262
-2.99699 -0.130851 1.5237
-2.75049 -0.130834 1.63862
-2.73306 -0.130845 1.63857
-2.70517 -0.130874 1.64347
-2.79237 -0.130905 1.59079
-2.82253 -0.130896 1.56724
-2.69559 -0.130931 1.62157
-2.82797 -0.130965 1.54625
-2.80312 -0.131006 1.54943
-2.83637 -0.131048 1.52352
-2.96069 -0.131097 1.45198
-2.6764 -0.131146 1.58475
-2.74747 -0.131196 1.53979
-2.76187 -0.131259 1.52295
-2.84069 -0.131315 1.47402
-2.72165 -0.13139 1.52371
-2.67803 -0.131451 1.5359
-2.64372 -0.131558 1.54268
-2.60261 -0.131646 1.55315
-2.64932 -0.131742 1.51958
-2.6986 -0.131858 1.48438
-2.61922 -0.131963 1.51366
-2.55563 -0.132084 1.53478
-2.62495 -0.132244 1.48879
-2.61379 -0.132365 1.48365
-2.51172 -0.132537 1.52311
-2.75693 -0.13267 1.38956
-2.48618 -0.13285 1.51317
-2.49274 -0.133087 1.49714
-2.45085 -0.133326 1.50527
-2.5788 -0.133526 1.42913
-2.56219 -0.133775 1.42437
-2.33755 -0.134197 1.52064
-2.32019 -0.134635 1.51294
-2.4058 -0.1352 1.45147
-0.140826 -0.164781 0.977051
-0.413412 -0.164513 0.83636
-0.460018 -0.164354 0.806089
-0.368253 -0.164283 0.842882
-0.28293 -0.164212 0.876465
-0.277934 -0.16407 0.87162
-0.405627 -0.164087 0.796597
-0.533258 -0.164015 0.723741
-0.361431 -0.163959 0.800252
-0.380183 -0.163902 0.781504
-0.498636 -0.163844 0.712934
-0.389401 -0.163858 0.756453
-0.42613 -0.163785 0.729108
-0.380903 -0.163738 0.742137
-0.322793 -0.16375 0.76014
-0.30025 -0.163688 0.762188
-0.244007 -0.163709 0.779023
-0.363694 -0.163636 0.710261
-0.332476 -0.163582 0.716484
-0.459164 -0.16359 0.642168
-0.309095 -0.163607 0.706032
-0.166885 -0.163533 0.768265
-0.451508 -0.163554 0.614658
-0.358325 -0.16348 0.652403
-0.219972 -0.163492 0.710525
-0.291744 -0.163423 0.665673
-0.300963 -0.163432 0.650077
-0.31692 -0.163361 0.633186
-0.109166 -0.163365 0.726232
-0.12148 -0.163374 0.709099
-0.356433 -0.163298 0.582856
-0.254044 -0.163302 0.623215
-0.195066 -0.163305 0.6419
-0.235615 -0.163229 0.612876
-0.306377 -0.163229 0.566769
-0.3437 -0.163152 0.539425
-0.227962 -0.163149 0.586645
-0.345294 -0.163145 0.517364
-0.298679 -0.16314 0.530088
-0.270653 -0.163061 0.535452
-0.260339 -0.163054 0.530081
-0.29245 -0.163046 0.503531
-0.369382 -0.162963 0.456575
-0.316766 -0.162952 0.472459
-0.0849469 -0.16294 0.57798
-0.110733 -0.162927 0.554732
-0.105867 -0.162841 0.548797
-0.211071 -0.162825 0.485912
-0.0488114 -0.162809 0.556794
-0.175532 -0.1628 0.482974
-0.308237 -0.162781 0.406427
-0.131472 -0.162691 0.486585
-0.260024 -0.16267 0.412187
-0.369887 -0.162648 0.347171
-0.262557 -0.162625 0.390786
-0.323516 -0.162531 0.352202
-0.354373 -0.162506 0.326799
-0.280824 -0.162479 0.353634
-0.220995 -0.162451 0.373647
-0.365718 -0.162422 0.29142
-0.17884 -0.162407 0.374604
-0.099241 -0.162309 0.406478
-0.298217 -0.162277 0.29722
-0.135544 -0.162244 0.368823
-0.0934139 -0.16221 0.380193
-0.192348 -0.162174 0.321068
-0.273816 -0.162137 0.270714
-0.104672 -0.162034 0.347556
-0.171889 -0.162015 0.303847
-0.214152 -0.161976 0.273193
-0.139864 -0.161935 0.300852
-0.138094 -0.161893 0.292292
-0.288897 -0.16185 0.207483
-0.0237303 -0.161806 0.330698
-0.0872874 -0.161761 0.28959
-0.347599 -0.161652 0.151958
-0.128741 -0.161605 0.252136
-0.284842 -0.161581 0.164165
-0.10363 -0.161532 0.24558
-0.224643 -0.161481 0.175923
-0.131541 -0.16143 0.213363
-0.108597 -0.161378 0.215763
-0.0686768 -0.161324 0.226692
-0.124496 -0.161269 0.189791
-0.258622 -0.161214 0.113777
-0.0686855 -0.161157 0.199835
-0.0934656 -0.161128 0.17771
-0.346794 -0.16101 0.0439628
-0.145131 -0.16095 0.135986
-0.0306223 -0.16089 0.184472
-0.0943331 -0.160828 0.143889
-0.257115 -0.160765 0.0538124
-0.0745096 -0.160701 0.13647
-0.283802 -0.160669 0.0222373
-0.129356 -0.160603 0.0908795
-0.339403 -0.160536 -0.0226837
-0.0169709 -0.160469 0.130035
-0.000232755 -0.1604 0.129947
-0.274341 -0.16033 -0.0155215
-0.0393054 -0.160259 0.0936239
-0.244505 -0.160223 -0.018411
-0.193225 -0.160151 -0.0010782
-0.30639 -0.160077 -0.065926
-2.666 -0.123981 1.91933
-2.73033 -0.123635 1.88324
-2.82226 -0.123291 1.83337
-2.82332 -0.122951 1.82892
-2.74241 -0.122802 1.86277
-2.88071 -0.122546 1.78859
-2.64986 -0.122402 1.89737
-2.79323 -0.122261 1.81903
-2.76197 -0.122123 1.82798
-2.75424 -0.121989 1.82512
-2.76133 -0.121859 1.81483
-2.88796 -0.121769 1.74418
-2.70909 -0.121707 1.82586
-2.82505 -0.121587 1.76102
-2.76057 -0.121472 1.78635
-2.72972 -0.121416 1.79397
-2.92473 -0.121345 1.6889
-2.87865 -0.121242 1.70487
-2.77695 -0.12123 1.74728
-2.64715 -0.121182 1.80429
-2.82538 -0.121128 1.70739
-3.01006 -0.121084 1.60711
-2.7971 -0.121042 1.70563
-2.94896 -0.120999 1.62175
-2.75373 -0.120962 1.71135
-2.61136 -0.120929 1.77444
-2.72827 -0.120933 1.7073
-2.97749 -0.120872 1.57506
-2.75323 -0.120882 1.67843
-2.67936 -0.120856 1.70719
-2.7951 -0.120846 1.64088
-2.66652 -0.120862 1.69629
-2.79122 -0.120842 1.62566
-2.67197 -0.120863 1.67635
-2.60782 -0.12087 1.6997
-2.82103 -0.120895 1.58407
-2.74864 -0.120884 1.61185
-2.84624 -0.120913 1.55396
-2.68676 -0.120937 1.62468
-2.73982 -0.120972 1.58896
-2.86759 -0.121006 1.51587
-2.69737 -0.121046 1.59169
-2.73315 -0.121086 1.56451
-2.75448 -0.121091 1.54513
-2.56447 -0.121176 1.63005
-2.76419 -0.121232 1.5206
-2.66692 -0.121282 1.55973
-2.76153 -0.121347 1.50265
-2.73857 -0.121403 1.50452
-2.6952 -0.1215 1.51585
-2.73218 -0.121538 1.48804
-2.64562 -0.121641 1.52084
-2.64253 -0.121729 1.51216
-2.56968 -0.121837 1.53799
-2.53324 -0.121934 1.54579
-2.66216 -0.122079 1.47005
-2.76648 -0.122188 1.40722
-2.57982 -0.122306 1.4897
-2.53553 -0.122466 1.50024
-2.46775 -0.12263 1.5224
-2.52076 -0.1228 1.48405
-2.64977 -0.123017 1.4068
-2.56403 -0.123196 1.43759
-2.40538 -0.123423 1.50393
-2.64259 -0.123708 1.37122
-2.41119 -0.124002 1.47262
-2.2842 -0.124406 1.51969
-2.3996 -0.124972 1.44245
-0.384632 -0.152015 0.954896
-0.356427 -0.151668 0.967002
-0.520969 -0.151425 0.880117
-0.319888 -0.151366 0.971373
-0.394512 -0.151308 0.92479
-0.464556 -0.15119 0.882024
-0.360867 -0.151131 0.924625
-0.477273 -0.151072 0.857189
-0.436226 -0.151032 0.867981
-0.404063 -0.150973 0.87485
-0.337187 -0.150932 0.8986
-0.461693 -0.150891 0.826687
-0.291205 -0.150908 0.900729
-0.543056 -0.150865 0.765188
-0.267873 -0.150822 0.893189
-0.30317 -0.150838 0.864381
-0.363015 -0.150793 0.824911
-0.278371 -0.150823 0.855705
-0.26437 -0.150762 0.853592
-0.314009 -0.150728 0.818926
-0.376705 -0.150742 0.776493
-0.262934 -0.150705 0.823618
-0.401867 -0.150717 0.743098
-0.388639 -0.150667 0.740336
-0.432292 -0.150678 0.707481
-0.249478 -0.150638 0.789271
-0.405498 -0.150648 0.700265
-0.308656 -0.150604 0.73915
-0.400827 -0.150613 0.682102
-0.254441 -0.150629 0.744112
-0.335425 -0.150574 0.694419
-0.287645 -0.150589 0.70719
-0.285994 -0.150538 0.698692
-0.463388 -0.150544 0.599113
-0.266461 -0.150555 0.686553
-0.277974 -0.150496 0.671727
-0.261657 -0.1505 0.669046
-0.359855 -0.150508 0.609005
-0.267648 -0.15045 0.64602
-0.257468 -0.150453 0.640319
-0.250676 -0.150458 0.63287
-0.379493 -0.150396 0.559502
-0.273168 -0.150397 0.601926
-0.18553 -0.150398 0.634999
-0.258491 -0.150332 0.589687
-0.259653 -0.150331 0.578444
-0.331709 -0.150329 0.531785
-0.215187 -0.150325 0.579449
-0.301585 -0.150256 0.527543
-0.293745 -0.15025 0.520935
-0.0525798 -0.150243 0.631022
-0.265904 -0.150235 0.513897
-0.277846 -0.150167 0.499198
-0.296931 -0.150157 0.479248
-0.297771 -0.150146 0.468453
-0.288705 -0.150128 0.462832
-0.0880357 -0.150114 0.552877
-0.198101 -0.150045 0.489186
-0.164855 -0.15003 0.495574
-0.296462 -0.150014 0.419571
-0.0768714 -0.149997 0.519201
-0.332024 -0.149918 0.383284
-0.178569 -0.149898 0.449919
-0.22255 -0.149878 0.417871
-0.124962 -0.149856 0.456643
-0.196689 -0.149833 0.410793
-0.145749 -0.149809 0.426313
-0.18518 -0.149726 0.398446
-0.172701 -0.1497 0.394809
-0.091344 -0.149673 0.425648
-0.174174 -0.149659 0.373999
-0.255678 -0.14963 0.323463
-0.15033 -0.149601 0.36639
-0.363614 -0.149513 0.251768
-0.266295 -0.149482 0.290756
-0.166703 -0.149449 0.330917
0.0233308 -0.149415 0.416337
-0.032167 -0.14938 0.379029
-0.243565 -0.149344 0.263808
-0.246896 -0.149307 0.252659
-0.286373 -0.149269 0.223475
-0.167207 -0.149195 0.274729
-0.149787 -0.149155 0.274052
-0.163023 -0.149114 0.258086
-0.405271 -0.149073 0.127653
-0.175117 -0.14903 0.233459
-0.181146 -0.148986 0.221212
-0.0928031 -0.148941 0.256191
-0.277621 -0.148895 0.154628
-0.31944 -0.148849 0.124604
-0.201984 -0.148801 0.174257
-0.265605 -0.1487 0.135054
-0.061014 -0.148675 0.227554
-0.139007 -0.148625 0.179582
-0.180346 -0.148574 0.149977
-0.188484 -0.148521 0.137013
-0.304833 -0.148468 0.0699832
-0.139414 -0.148413 0.143878
-0.217283 -0.148358 0.0961688
-0.240079 -0.148301 0.0760369
-0.198246 -0.148244 0.0882597
-0.266213 -0.148215 0.0446689
-0.222429 -0.148156 0.057931
-0.299811 -0.148096 0.0106506
-0.445932 -0.148035 -0.0709578
-0.125033 -0.147973 0.0809845
-0.085119 -0.14791 0.0924759
-0.126672 -0.147846 0.063275
-0.0782952 -0.147782 0.0790805
-0.204009 -0.147749 0.00678825
-0.162361 -0.147682 0.0192943
-0.134765 -0.147615 0.024816
-2.65292 -0.113644 1.91713
-2.62172 -0.113327 1.92882
-2.82296 -0.113013 1.82431
-2.92246 -0.112703 1.77065
-2.56158 -0.112567 1.94447
-2.71648 -0.112433 1.8604
-2.76244 -0.112237 1.83181
-2.87245 -0.112109 1.77013
-2.80141 -0.111985 1.79894
-2.79405 -0.111864 1.79588
-2.82276 -0.111804 1.7738
-2.79324 -0.111689 1.78177
-2.79066 -0.111577 1.77622
-2.8962 -0.111469 1.71655
-2.67572 -0.111451 1.81844
-2.77537 -0.11135 1.76164
-2.74454 -0.111253 1.77002
-2.82649 -0.111241 1.7206
-2.73339 -0.111196 1.75927
-2.92262 -0.111109 1.65749
-2.84034 -0.111103 1.69012
-2.73464 -0.111024 1.73568
-2.75153 -0.111021 1.71866
-2.8159 -0.110985 1.67847
-2.8266 -0.110953 1.66507
-2.83976 -0.110921 1.65042
-2.67878 -0.110897 1.72271
-2.78608 -0.110905 1.66031
-2.75464 -0.110879 1.66788
-2.57243 -0.11089 1.75017
-2.91915 -0.110867 1.56861
-2.87421 -0.110861 1.58257
-2.64807 -0.110879 1.68672
-2.59278 -0.110862 1.70606
-2.62802 -0.110869 1.6797
-2.69541 -0.110892 1.63697
-2.77064 -0.110909 1.59044
-2.80094 -0.110937 1.56615
-2.59674 -0.110968 1.65908
-2.86759 -0.110963 1.51512
-2.73251 -0.111032 1.57277
-2.88338 -0.111032 1.48871
-2.68951 -0.11107 1.5763
-2.66179 -0.111147 1.58009
-2.80466 -0.111158 1.49982
-2.66649 -0.111203 1.55942
-2.61138 -0.111286 1.57675
-2.81933 -0.111346 1.46298
-2.53768 -0.111397 1.59418
-2.66286 -0.111467 1.52161
-2.71878 -0.11156 1.48319
-2.6057 -0.111638 1.52955
-2.80933 -0.111736 1.41715
-2.72984 -0.111784 1.44727
-2.66579 -0.111914 1.46806
-2.61935 -0.112019 1.48051
-2.5862 -0.112119 1.48641
-2.66317 -0.112263 1.43636
-2.47141 -0.112411 1.52056
-2.54068 -0.112565 1.47412
-2.5082 -0.112721 1.47848
-2.5845 -0.112882 1.42833
-2.49387 -0.113092 1.46061
-2.46083 -0.113302 1.46407
-2.5431 -0.113606 1.40793
-2.53289 -0.113878 1.39864
-2.28292 -0.114197 1.5082
-2.33054 -0.114775 1.4636
-0.484702 -0.138713 0.997803
-0.409681 -0.138494 1.03048
-0.433578 -0.138446 1.00908
-0.470781 -0.138326 0.983023
-0.419516 -0.138254 0.999887
-0.527972 -0.138158 0.937555
-0.242544 -0.138181 1.0689
-0.441743 -0.138085 0.961239
-0.447594 -0.138036 0.948927
-0.32783 -0.13801 0.998828
-0.4533 -0.137982 0.926138
-0.401233 -0.138003 0.940874
-0.489163 -0.137954 0.887563
-0.509149 -0.137945 0.867117
-0.587033 -0.137964 0.816916
-0.343797 -0.137915 0.929218
-0.533832 -0.137902 0.823846
-0.37891 -0.13792 0.890088
-0.411538 -0.137888 0.863989
-0.33674 -0.137871 0.891152
-0.383283 -0.137887 0.856707
-0.399879 -0.137853 0.838696
-0.428944 -0.137883 0.812577
-0.192859 -0.137832 0.921378
-0.364758 -0.137861 0.823887
-0.48849 -0.137824 0.752393
-0.378727 -0.137851 0.795791
-0.379926 -0.137812 0.785613
-0.29484 -0.137837 0.816733
-0.490527 -0.137808 0.709024
-0.408357 -0.137819 0.73908
-0.29013 -0.137788 0.788405
-0.222844 -0.137798 0.811049
-0.419622 -0.137818 0.701385
-0.334016 -0.137774 0.734783
-0.418207 -0.137791 0.681475
-0.354162 -0.137807 0.702312
-0.464487 -0.137754 0.638046
-0.38173 -0.137776 0.668079
-0.141931 -0.137789 0.776885
-0.42622 -0.137735 0.625669
-0.451028 -0.137752 0.602058
-0.330377 -0.137761 0.651383
-0.234505 -0.137707 0.69028
-0.31578 -0.137719 0.638575
-0.206396 -0.137726 0.682361
-0.398567 -0.137671 0.577267
-0.417539 -0.137676 0.556925
-0.312172 -0.137682 0.598729
-0.259526 -0.137628 0.616033
-0.301183 -0.137629 0.584485
-0.163754 -0.13763 0.642471
-0.284688 -0.13763 0.571332
-0.396291 -0.137573 0.506606
-0.315053 -0.137571 0.536612
-0.41551 -0.137568 0.475802
-0.0920221 -0.137561 0.627077
-0.239089 -0.137504 0.544665
-0.312582 -0.137497 0.497439
-0.201539 -0.13749 0.542513
-0.361571 -0.137482 0.452083
-0.28855 -0.137419 0.479904
-0.213688 -0.137409 0.506991
-0.288398 -0.137398 0.459324
-0.286828 -0.137386 0.449833
-0.28077 -0.137372 0.442618
-0.355559 -0.137306 0.39668
-0.0901211 -0.137291 0.519227
-0.250744 -0.137275 0.428778
-0.334318 -0.137258 0.376888
-0.217909 -0.137239 0.425024
-0.126527 -0.13722 0.460683
-0.231523 -0.13715 0.399822
-0.255042 -0.137129 0.378102
-0.395434 -0.137107 0.297982
-0.272149 -0.137084 0.349735
-0.207704 -0.13706 0.372105
-0.205524 -0.137035 0.363378
-0.207107 -0.136961 0.354406
-0.261578 -0.136934 0.317427
-0.231714 -0.13692 0.322184
-0.19806 -0.136891 0.329325
-0.225082 -0.136862 0.306163
-0.184102 -0.136832 0.31704
-0.249184 -0.136801 0.274923
-0.229751 -0.136768 0.275102
-0.0956504 -0.136689 0.334212
-0.097321 -0.136655 0.323914
-0.218278 -0.13662 0.25401
-0.188794 -0.136584 0.259364
-0.165003 -0.136547 0.261911
-0.434672 -0.136509 0.117765
-0.0384635 -0.13647 0.306597
-0.150481 -0.136431 0.241354
-0.305667 -0.13639 0.154566
-0.278829 -0.136348 0.158828
