ply
format ascii 1.0
comment Created by Open3D
element vertex 1677
property double x
property double y
property double z
end_header
0.0689519 -0.126617 0.534555
-0.159761 -0.126494 0.413736
-0.00953953 -0.126434 0.480208
0.0178666 -0.126313 0.487427
-0.214178 -0.126253 0.362762
-0.149985 -0.126134 0.38835
-0.177664 -0.126017 0.367981
0.10152 -0.125958 0.49892
-0.144537 -0.125842 0.369336
-0.388776 -0.125784 0.238557
-0.126607 -0.12567 0.363056
-0.0798449 -0.125613 0.377771
-0.188252 -0.125501 0.316952
-0.0107201 -0.125389 0.399079
-0.108266 -0.125334 0.341623
-0.260661 -0.125225 0.258753
-0.155013 -0.12517 0.302885
-0.0505809 -0.125034 0.349456
-0.124978 -0.12498 0.30356
-0.217792 -0.124874 0.25042
-0.1946 -0.124821 0.253307
-0.146915 -0.124717 0.270378
-0.21754 -0.124666 0.226344
-0.23714 -0.124563 0.209732
-0.142617 -0.124513 0.248258
0.0994442 -0.124412 0.362435
-0.069096 -0.124362 0.269414
-0.164596 -0.124264 0.214768
-0.244966 -0.124215 0.165816
-0.116726 -0.124119 0.222994
-0.216049 -0.124071 0.16455
-0.334579 -0.124023 0.0964968
-0.16244 -0.123929 0.175565
-0.164626 -0.123883 0.165666
-0.175885 -0.123791 0.152986
-0.221051 -0.123746 0.121578
-0.163737 -0.123656 0.143133
-0.211015 -0.123611 0.110649
-0.289057 -0.123524 0.0644737
-0.0904522 -0.12348 0.15491
-0.0627289 -0.123437 0.1599
-0.190387 -0.123352 0.0888462
-0.160559 -0.12331 0.094866
-0.139083 -0.123227 0.098323
-0.249353 -0.123186 0.0342704
-0.224744 -0.123105 0.0392357
-0.212712 -0.123065 0.0363098
-0.106883 -0.123026 0.0802749
-0.327015 -0.122948 -0.037208
-0.172964 -0.122909 0.0308426
-0.266045 -0.122833 -0.0231769
-0.0687939 -0.122796 0.0664472
0.713204 -0.127652 1.1519
0.598828 -0.126726 1.11318
0.582503 -0.125932 1.11931
0.70962 -0.125494 1.18546
0.510892 -0.124981 1.09126
0.464216 -0.12454 1.07079
0.646291 -0.124097 1.16487
0.489097 -0.123802 1.0844
0.401401 -0.12343 1.04134
0.402077 -0.123135 1.03993
0.289818 -0.122841 0.982082
0.358054 -0.122467 1.01724
0.488924 -0.122247 1.07856
0.291253 -0.122027 0.975629
0.345373 -0.121735 1.00112
0.189609 -0.121434 0.922005
0.489095 -0.121216 1.06774
0.421309 -0.120998 1.02986
0.299685 -0.120854 0.962581
0.318603 -0.120637 0.968088
0.192531 -0.120338 0.904002
0.210374 -0.120195 0.906512
0.156665 -0.119981 0.87576
0.326739 -0.119838 0.954412
0.212998 -0.119625 0.893663
0.213329 -0.119484 0.887466
0.00911162 -0.119259 0.781962
0.0865974 -0.119049 0.816861
0.0858153 -0.118909 0.810145
0.142337 -0.11877 0.832089
0.139723 -0.118562 0.826949
0.130921 -0.118424 0.816243
0.16971 -0.118286 0.829339
0.0764102 -0.118066 0.779408
0.159566 -0.11793 0.814705
0.145223 -0.117794 0.801257
0.0551159 -0.117659 0.749931
0.165304 -0.117525 0.798755
0.0997454 -0.117391 0.759707
0.128212 -0.117258 0.767674
0.124729 -0.117126 0.759667
0.00302958 -0.116994 0.692551
-0.0691304 -0.11678 0.653257
0.0132441 -0.11665 0.688181
-0.0616925 -0.116585 0.642047
-0.0361892 -0.116456 0.648539
0.0357065 -0.116327 0.678224
0.0546941 -0.1162 0.681451
-0.0920935 -0.116073 0.601786
-0.0577712 -0.115947 0.612671
-0.00179206 -0.115821 0.634379
-0.0771984 -0.115697 0.590387
-0.299064 -0.115635 0.470819
-0.231791 -0.115492 0.498892
-0.0278649 -0.115369 0.594564
-0.0545292 -0.115248 0.574933
-0.104819 -0.115127 0.543479
-0.136329 -0.115066 0.519104
-0.154218 -0.114947 0.503841
0.00630788 -0.114828 0.577774
-0.0352895 -0.114769 0.548358
-0.0470844 -0.114651 0.536118
0.138144 -0.114534 0.622377
-0.125844 -0.114419 0.484014
-0.216664 -0.114361 0.429986
-0.0853618 -0.114247 0.489251
-0.0711396 -0.11419 0.487744
-0.0626101 -0.114077 0.485605
-0.160467 -0.113944 0.431096
-0.138246 -0.113833 0.435779
-0.124978 -0.113778 0.433792
-0.113449 -0.113668 0.433108
-0.0268325 -0.113614 0.467792
-0.190385 -0.113505 0.379543
-0.108268 -0.113452 0.411973
0.00649097 -0.113345 0.462854
-0.0791952 -0.11324 0.413491
-0.142072 -0.113187 0.373413
-0.127085 -0.113083 0.374359
-0.00956425 -0.113032 0.424472
-0.0579419 -0.112929 0.393706
-0.0796749 -0.112878 0.374184
-0.241173 -0.112777 0.286826
-0.1815 -0.112727 0.307999
-0.207124 -0.112628 0.288544
-0.215348 -0.112579 0.275759
-0.137267 -0.112481 0.308122
-0.00580466 -0.112433 0.365168
-0.190549 -0.112337 0.266082
-0.214066 -0.112266 0.246592
-0.105795 -0.112172 0.293984
-0.0169862 -0.112125 0.329684
-0.156003 -0.112033 0.253392
-0.115256 -0.111987 0.265047
-0.0342488 -0.111896 0.298726
-0.124314 -0.111851 0.24496
-0.292085 -0.111762 0.154206
-0.199334 -0.111718 0.191832
-0.120649 -0.11163 0.22426
-0.282342 -0.111587 0.134647
-0.191711 -0.111501 0.173002
-0.074908 -0.111459 0.222619
-0.215334 -0.111417 0.143618
-0.157255 -0.111334 0.165633
-0.0300076 -0.111293 0.220449
-0.197916 -0.111212 0.129419
0.0539666 -0.111171 0.246533
-0.160495 -0.111092 0.132173
-0.275047 -0.111053 0.0660483
-0.182554 -0.111014 0.103439
-0.231535 -0.110937 0.0717507
-0.24391 -0.110899 0.0566854
-0.217848 -0.110824 0.0624608
-0.0875219 -0.110786 0.118723
-0.223989 -0.110713 0.0431754
-0.0529219 -0.110677 0.119783
-0.364812 -0.110641 -0.0450947
-0.191671 -0.110571 0.0340833
-0.191345 -0.110536 0.0252875
-0.153125 -0.110467 0.0369429
-0.172583 -0.110433 0.0182284
0.677901 -0.113301 1.15255
0.783028 -0.112531 1.22156
0.53737 -0.11201 1.10607
0.516431 -0.111487 1.10312
0.468105 -0.111093 1.08179
0.47654 -0.110697 1.089
0.491072 -0.110367 1.09684
0.599678 -0.110034 1.1519
0.294021 -0.109704 0.999808
0.541402 -0.10944 1.12179
0.29754 -0.109172 0.99837
0.440091 -0.108908 1.06803
0.380784 -0.108711 1.03429
0.411637 -0.108448 1.04817
0.556285 -0.10818 1.11923
0.414421 -0.107984 1.0443
0.24751 -0.107788 0.956875
0.365259 -0.107593 1.0118
0.319499 -0.107399 0.984979
0.350672 -0.107197 0.996983
0.183411 -0.107003 0.909462
0.200491 -0.106875 0.911611
0.256416 -0.106683 0.935708
0.239997 -0.106492 0.923643
0.143311 -0.106365 0.868948
0.12237 -0.106175 0.85464
0.0269442 -0.106038 0.801019
0.127669 -0.105849 0.847572
0.133195 -0.105724 0.844032
0.0496395 -0.105599 0.795961
0.168691 -0.105413 0.85169
0.0828663 -0.10529 0.802496
0.31662 -0.105166 0.913099
0.0649637 -0.10497 0.783969
0.103995 -0.104848 0.797228
-0.00426987 -0.104727 0.736843
-0.0292418 -0.104606 0.718108
0.108599 -0.104486 0.780783
0.116636 -0.104366 0.778559
0.041121 -0.104246 0.73456
0.0223661 -0.104128 0.718942
0.0189053 -0.10401 0.710972
0.0423246 -0.10382 0.719437
-0.0187894 -0.103761 0.680221
0.0402355 -0.103645 0.703502
-0.157454 -0.103529 0.598423
0.0599318 -0.103414 0.700879
-0.0237356 -0.1033 0.652806
-0.0610197 -0.103186 0.62792
0.221483 -0.103073 0.762922
0.0137089 -0.10296 0.652782
0.0751594 -0.102904 0.674883
0.000849889 -0.102793 0.631471
-0.191924 -0.102682 0.528819
-0.0491019 -0.102573 0.593958
0.0137464 -0.102448 0.619763
-0.0278838 -0.102339 0.592668
-0.00414772 -0.102286 0.59593
-0.218989 -0.102178 0.48222
-0.134724 -0.102072 0.518051
-0.123108 -0.102018 0.515258
-0.163093 -0.101913 0.488952
-0.176917 -0.101808 0.475715
-0.25593 -0.101756 0.427608
-0.0206379 -0.101653 0.538913
-0.220456 -0.101551 0.43265
-0.148088 -0.1015 0.460231
-0.0605538 -0.101398 0.497626
-0.0742712 -0.101298 0.484379
-0.0986517 -0.101248 0.463582
-0.0744783 -0.101149 0.46926
-0.174322 -0.101034 0.413668
-0.197597 -0.100985 0.393423
-0.0694466 -0.100888 0.451057
-0.230551 -0.10084 0.361892
-0.181744 -0.100744 0.37983
-0.314073 -0.100696 0.305048
-0.00875718 -0.100602 0.451213
-0.051963 -0.100509 0.423096
-0.0632006 -0.100462 0.408847
-0.291278 -0.10037 0.288264
-0.0535211 -0.100325 0.398505
-0.0596522 -0.100234 0.388865
-0.14995 -0.100189 0.335069
-0.359457 -0.1001 0.223708
-0.126876 -0.100056 0.331343
-0.181334 -0.0999682 0.297472
-0.0706895 -0.0999248 0.344127
-0.223492 -0.0998386 0.261047
-0.0615631 -0.0997959 0.333334
-0.260167 -0.0997113 0.227315
-0.151481 -0.0996694 0.272967
-0.247428 -0.0995863 0.218237
-0.0588626 -0.0995451 0.303815
-0.18699 -0.0994635 0.232954
-0.0905766 -0.0994231 0.272442
-0.151608 -0.099383 0.233203
-0.274905 -0.0993035 0.164702
-0.12575 -0.0992453 0.231432
-0.290446 -0.0991673 0.142194
-0.178338 -0.0991287 0.189497
-0.0829737 -0.0990523 0.230241
-0.360781 -0.0990145 0.0825682
-0.171071 -0.0989397 0.170436
-0.298284 -0.0989027 0.0980416
-0.111617 -0.098866 0.182582
-0.0756511 -0.0987933 0.193513
-0.083669 -0.0987574 0.18069
-0.234556 -0.0986865 0.0981417
-0.40855 -0.0986514 0.00230997
-0.314495 -0.0985821 0.0421771
-0.00278546 -0.0985478 0.189175
-0.0535506 -0.0985139 0.154929
-0.0962422 -0.0984468 0.12635
-0.260932 -0.0984137 0.0351181
-0.303721 -0.0983484 0.00643145
-0.183682 -0.0983161 0.0575396
-0.210404 -0.0982842 0.0352601
-0.116312 -0.0982211 0.074935
0.0647108 -0.09819 0.156502
-0.127593 -0.0981287 0.0529168
-0.196826 -0.0980984 0.00932864
0.896609 -0.0992638 1.26873
0.715017 -0.0985287 1.19686
0.550966 -0.0980137 1.12462
0.591743 -0.0976096 1.15021
0.413633 -0.0972037 1.06653
0.5008 -0.0969134 1.11065
0.407891 -0.0966229 1.06481
0.448055 -0.0963299 1.08569
0.351192 -0.0960972 1.03552
0.392247 -0.0958647 1.05437
0.384514 -0.0955706 1.05154
0.331262 -0.0953386 1.02334
0.306083 -0.0951649 1.00668
0.298199 -0.0949337 1.00122
0.404293 -0.0947554 1.05049
0.305991 -0.0945251 0.999898
0.273274 -0.0943529 0.97959
0.378375 -0.0941812 1.02821
0.367347 -0.094067 1.01626
0.189302 -0.0938962 0.923348
0.125575 -0.0936622 0.890447
0.232542 -0.093549 0.937556
0.346983 -0.0933798 0.990938
0.178465 -0.0932674 0.900332
0.10994 -0.0930993 0.862255
0.290219 -0.0929877 0.946072
0.117652 -0.0928127 0.856366
0.232103 -0.0926465 0.90981
0.20403 -0.0925361 0.889488
-0.0169821 -0.0924262 0.772707
0.259807 -0.092262 0.907335
0.18172 -0.0921531 0.86203
0.0810516 -0.0920446 0.80544
0.149257 -0.0919366 0.833294
0.073908 -0.0917657 0.792303
0.0295219 -0.0916586 0.763877
0.226176 -0.091552 0.855975
-0.0614478 -0.0914459 0.705938
0.096658 -0.0913402 0.778768
0.0660331 -0.0912351 0.757235
0.0813911 -0.0911304 0.758696
-0.0043163 -0.0910263 0.709624
0.12229 -0.0909228 0.76671
0.0834511 -0.0908197 0.741073
-0.0286072 -0.0907173 0.678825
-0.147056 -0.0906044 0.613899
0.0431767 -0.0905029 0.702801
0.0513535 -0.090402 0.700672
0.00949546 -0.0903017 0.673522
-0.0840672 -0.090202 0.620515
-0.0754238 -0.0901523 0.616221
-0.00841339 -0.0900535 0.643499
0.167326 -0.0899553 0.725135
-0.0933684 -0.0898578 0.588548
-0.0198626 -0.0897609 0.619053
0.000819107 -0.0897127 0.620793
0.0494898 -0.0896167 0.638874
0.0187794 -0.0895215 0.617255
-0.0478703 -0.0894148 0.578249
-0.20427 -0.0893677 0.491459
-0.0229172 -0.089274 0.57586
-0.15507 -0.089181 0.503497
-0.13476 -0.0890887 0.507352
-0.085582 -0.0890428 0.523353
-0.0757967 -0.0889516 0.521931
-0.193802 -0.0888611 0.456601
-0.102391 -0.0888162 0.493717
0.0925687 -0.0887268 0.584852
0.0889311 -0.0886824 0.574443
-0.223338 -0.0885941 0.411945
-0.0380108 -0.0885066 0.498228
-0.156448 -0.0884631 0.430414
-0.0553046 -0.0883768 0.474584
-0.10861 -0.0883339 0.439333
-0.211951 -0.0882487 0.381237
-0.0637188 -0.0881643 0.448908
-0.224305 -0.0881225 0.360007
-0.270932 -0.0880261 0.330903
-0.0973055 -0.0879847 0.409107
-0.213952 -0.0879027 0.344292
-0.128996 -0.0878619 0.378154
-0.200552 -0.0877811 0.335855
-0.149455 -0.087741 0.35278
-0.137692 -0.0876615 0.352109
0.0341954 -0.087622 0.42942
-0.209217 -0.0875437 0.301128
-0.168556 -0.0875049 0.312816
-0.262875 -0.0874279 0.259037
-0.205514 -0.0873897 0.279065
-0.207194 -0.087314 0.271568
-0.162899 -0.0872765 0.285051
-0.300305 -0.0872022 0.209654
-0.209353 -0.0871653 0.246452
-0.250399 -0.0870923 0.219195
-0.147553 -0.0870561 0.261927
-0.073224 -0.0869844 0.292315
-0.136654 -0.0869489 0.251894
-0.161235 -0.0868786 0.232785
-0.227365 -0.0868438 0.190998
-0.211541 -0.0867749 0.192046
-0.115856 -0.0867408 0.23115
-0.453625 -0.0867069 0.0535239
-0.15693 -0.0866399 0.194947
-0.0396097 -0.0866067 0.244847
-0.0207326 -0.0865411 0.247312
-0.0786765 -0.0865086 0.20956
-0.198674 -0.0864444 0.142537
-0.125132 -0.0864127 0.170509
-0.204671 -0.0863812 0.121935
-0.259499 -0.0863189 0.0874281
-0.198911 -0.0862881 0.108896
-0.0960329 -0.0862273 0.153188
-0.296559 -0.0861973 0.0440766
-0.173899 -0.0861675 0.0965516
-0.326233 -0.0861087 0.0131638
-0.0629143 -0.0860796 0.135945
-0.24923 -0.0860223 0.0355074
-0.091658 -0.085994 0.10539
-0.184216 -0.085966 0.0502005
-0.28182 -0.0858956 -0.00510868
-0.200538 -0.0858683 0.0265994
-0.307783 -0.0858144 -0.0344388
-0.260679 -0.0857878 -0.0198461
0.617132 -0.0851902 1.13587
0.671551 -0.0845569 1.18205
0.46444 -0.0841131 1.08832
0.664667 -0.083765 1.19366
0.455446 -0.0834153 1.09445
0.521652 -0.0831651 1.12811
0.42961 -0.0829147 1.08273
0.255105 -0.0826121 0.998789
0.300502 -0.0824115 1.01978
0.540311 -0.0822111 1.13802
0.434627 -0.0819579 1.08624
0.449817 -0.0818078 1.08975
0.446243 -0.081608 1.08644
0.187695 -0.0814585 0.953145
0.203557 -0.0813093 0.957082
0.297685 -0.0811065 1.00294
0.317196 -0.0809579 1.00876
0.34561 -0.0808097 1.01906
0.3398 -0.0806619 1.01226
0.193112 -0.0805146 0.935048
0.185766 -0.0803625 0.927798
0.331394 -0.080216 0.996783
0.198599 -0.0801186 0.924037
0.362219 -0.0799731 1.00204
0.122352 -0.0798282 0.878317
0.342718 -0.0797319 0.982191
0.144307 -0.0795881 0.87921
0.142728 -0.0794926 0.872133
0.0920067 -0.0793434 0.843358
0.15261 -0.0792485 0.867398
0.0896632 -0.0791541 0.829673
0.139249 -0.079013 0.850727
0.201035 -0.0789194 0.875381
0.0779447 -0.0788262 0.807602
0.160328 -0.0787333 0.842567
0.0397916 -0.0786409 0.776078
0.0115193 -0.0784956 0.758606
0.0563086 -0.078404 0.774791
0.239931 -0.0783129 0.860396
-0.127006 -0.0782222 0.670724
0.0669578 -0.0781319 0.761504
0.0126689 -0.0780421 0.728159
-0.169676 -0.0779527 0.630787
-0.0666912 -0.0778638 0.676079
0.167536 -0.0777753 0.786992
-0.149632 -0.0776873 0.622206
0.109799 -0.0775999 0.745718
0.123695 -0.0775563 0.744042
0.0330711 -0.0774181 0.695401
0.146187 -0.077375 0.743347
0.0281619 -0.0772892 0.678132
-0.109793 -0.0772039 0.602946
-0.00847669 -0.0771191 0.64739
-0.181607 -0.0770349 0.554605
-0.163812 -0.076993 0.554909
0.0869154 -0.0769096 0.674047
-0.14349 -0.0768268 0.552611
-0.143373 -0.0767445 0.546427
-0.154442 -0.0767036 0.532307
0.0269553 -0.0766222 0.616755
-0.105271 -0.0765414 0.54438
0.160254 -0.0765012 0.668562
-0.15358 -0.0764213 0.505372
0.0707998 -0.076342 0.611276
-0.107541 -0.0762542 0.516338
-0.207145 -0.076215 0.457959
0.0619755 -0.0761372 0.586212
-0.237907 -0.07606 0.429948
-0.0422587 -0.0760216 0.519193
-0.266614 -0.0759453 0.400675
-0.0380178 -0.0759075 0.506393
-0.219149 -0.0758322 0.409467
-0.206182 -0.0757576 0.409573
-0.0859525 -0.0757205 0.461101
-0.163002 -0.0756469 0.416176
-0.116968 -0.0756104 0.430603
-0.107979 -0.0755378 0.428672
-0.133258 -0.0755017 0.407437
-0.204125 -0.0754302 0.365552
-0.206878 -0.0753947 0.355575
-0.0781371 -0.0753242 0.413466
-0.225448 -0.0752544 0.33331
-0.149233 -0.0752197 0.362802
-0.288959 -0.075151 0.286407
-0.110177 -0.0751169 0.367175
-0.0663142 -0.0750493 0.382541
-0.186546 -0.0750158 0.313793
-0.272788 -0.0749492 0.264073
-0.0172169 -0.0749063 0.383827
-0.107335 -0.0748409 0.332139
-0.230259 -0.0748084 0.262026
-0.073797 -0.0747441 0.33359
-0.19499 -0.0747122 0.26433
-0.219062 -0.074649 0.245588
-0.141489 -0.0746177 0.275698
-0.226579 -0.0745866 0.224473
-0.224076 -0.0745249 0.218966
-0.0849142 -0.0744944 0.279853
-0.216926 -0.0744339 0.207045
-0.17249 -0.074404 0.220553
-0.165203 -0.0743447 0.217349
-0.323328 -0.0743154 0.12956
-0.305309 -0.0742573 0.131675
-0.476208 -0.0742286 0.037481
-0.295693 -0.0742001 0.118989
-0.127098 -0.0741436 0.19633
-0.134859 -0.0741157 0.183681
-0.207558 -0.0740605 0.140324
-0.231056 -0.0740332 0.119787
-0.237659 -0.0740061 0.107691
-0.349402 -0.0739526 0.044744
-0.271982 -0.0739261 0.0746383
-0.346705 -0.0738738 0.0301465
-0.185371 -0.073848 0.101975
-0.154627 -0.0738224 0.108503
-0.31181 -0.0737718 0.0227073
-0.27229 -0.0737468 0.0335993
-0.243552 -0.0736975 0.0407048
-0.172849 -0.0736731 0.0671633
-0.190072 -0.073649 0.0496518
-0.176307 -0.0736014 0.0491917
-0.208348 -0.073578 0.0242452
-0.169897 -0.0735317 0.0360646
-0.218283 -0.0735089 0.00291847
0.734848 -0.0712017 1.19456
0.808546 -0.0705913 1.25511
0.616293 -0.0701787 1.17125
0.566035 -0.0698874 1.15135
0.409711 -0.0695946 1.07861
0.537793 -0.0693852 1.14321
0.481298 -0.0691755 1.11561
0.435759 -0.0689222 1.09617
0.483462 -0.0687543 1.11831
0.56038 -0.0685864 1.15512
0.464173 -0.0684187 1.10541
0.350799 -0.0682488 1.04732
0.251386 -0.0680814 0.9961
0.495051 -0.0679561 1.11392
0.388659 -0.0677894 1.05928
0.342567 -0.0676647 1.03228
0.298994 -0.0674955 1.00931
0.348466 -0.0673713 1.03015
0.0327499 -0.0672476 0.868418
0.160157 -0.0671653 0.925722
0.295339 -0.0670421 0.989474
0.504293 -0.0669194 1.09013
0.195715 -0.066793 0.932288
0.276344 -0.0666711 0.968813
0.206886 -0.0665901 0.927772
0.228515 -0.066469 0.934821
0.232186 -0.0663886 0.930369
0.319245 -0.0662685 0.97015
0.01267 -0.0661887 0.810596
-0.0621009 -0.0661092 0.766954
0.103251 -0.0659857 0.846211
0.11248 -0.0659068 0.844591
0.0873213 -0.0658282 0.825786
0.118807 -0.0657109 0.837817
0.0878171 -0.0656331 0.816107
0.0638774 -0.0655556 0.797927
0.0348135 -0.0654784 0.777191
0.202186 -0.0654016 0.854677
0.0461159 -0.0653251 0.770446
-0.000772995 -0.065249 0.740809
0.219165 -0.06513 0.847417
0.0869024 -0.0650547 0.775098
0.115938 -0.0650172 0.780968
0.147804 -0.0649425 0.79072
0.0345991 -0.0648681 0.727937
-0.0343566 -0.0647942 0.687279
-0.0117121 -0.0647206 0.692419
0.186075 -0.0646475 0.785128
-0.0248374 -0.0645747 0.673485
-0.0149904 -0.0645024 0.672218
-0.0310864 -0.0644305 0.657976
0.0255769 -0.0643591 0.680108
-0.13955 -0.0643235 0.588948
0.0148361 -0.0642528 0.65994
-0.0380238 -0.0641764 0.627712
0.00554235 -0.0641064 0.643286
-0.0440545 -0.064037 0.61227
-0.118763 -0.0640024 0.566336
-0.0384692 -0.0639336 0.600259
-0.0346892 -0.0638654 0.595916
-0.0808717 -0.0638314 0.56425
-0.121632 -0.0637639 0.537626
-0.173829 -0.0636968 0.505273
-0.0394206 -0.0636302 0.566211
-0.126506 -0.0635972 0.514096
-0.0923573 -0.0635314 0.52489
-0.106394 -0.0634987 0.509302
-0.132159 -0.0634337 0.490123
0.0108379 -0.0633692 0.555311
-0.0733638 -0.0633372 0.504638
-0.168058 -0.0632735 0.450962
-0.261951 -0.0632104 0.397669
-0.138462 -0.063179 0.450837
-0.209714 -0.0631102 0.409308
0.0560839 -0.0630792 0.53363
-0.118204 -0.0630177 0.440101
-0.172472 -0.0629568 0.406563
-0.20109 -0.0629265 0.383669
-0.0674655 -0.0628664 0.444051
-0.133365 -0.0628366 0.402511
-0.137903 -0.0627774 0.393785
-0.250017 -0.062748 0.32913
-0.0849074 -0.0626897 0.405199
-0.33272 -0.0626607 0.272688
-0.175417 -0.0626033 0.344823
-0.404442 -0.0625748 0.221697
-0.150672 -0.0625183 0.342033
-0.24191 -0.0624903 0.287791
-0.00304655 -0.0624347 0.400639
-0.305693 -0.0624071 0.240682
-0.255224 -0.0623525 0.259298
-0.172935 -0.0623254 0.291797
-0.187673 -0.0622717 0.277771
-0.302458 -0.062245 0.211722
-0.166292 -0.0621923 0.273108
-0.255646 -0.0621662 0.21976
-0.256234 -0.0621144 0.212729
-0.163402 -0.0620887 0.25046
-0.175766 -0.0620632 0.23559
-0.25207 -0.0620128 0.190645
-0.136731 -0.0619878 0.239611
-0.176009 -0.0619383 0.213134
-0.177135 -0.0619138 0.20385
-0.0509329 -0.0618653 0.260066
-0.0667646 -0.0618413 0.243412
-0.0964885 -0.0618175 0.219807
-0.188917 -0.0617704 0.166645
-0.109918 -0.0617471 0.197382
-0.112447 -0.061701 0.189119
-0.394744 -0.0616711 0.0397353
-0.249602 -0.0616485 0.103521
-0.10644 -0.0616038 0.168039
-0.349111 -0.0615816 0.0378961
-0.29939 -0.061538 0.0556385
-0.00239224 -0.0615164 0.195308
-0.117063 -0.061495 0.129137
-0.150209 -0.0614527 0.105372
-0.123112 -0.0614318 0.11006
-0.225631 -0.0613906 0.0515497
-0.208471 -0.0613703 0.0512451
-0.183697 -0.0613502 0.0547403
-0.330155 -0.0613104 -0.0258191
-0.244598 -0.0612908 0.0080412
-0.160779 -0.0612521 0.0425569
-0.160256 -0.0612331 0.0338736
0.631468 -0.0572252 1.13576
0.890492 -0.0566405 1.29588
0.706546 -0.0563098 1.21611
0.818276 -0.0560099 1.28204
0.680752 -0.0558089 1.21617
0.539323 -0.0555732 1.15101
0.496995 -0.0554048 1.13049
0.509277 -0.0552363 1.13736
0.660345 -0.0550665 1.21379
0.545062 -0.0549316 1.15449
0.404647 -0.0547969 1.08268
0.344319 -0.0546623 1.05096
0.199038 -0.054526 0.976954
0.370689 -0.0544253 1.05877
0.390596 -0.0542913 1.06729
0.333941 -0.054191 1.03501
0.333821 -0.054091 1.03103
0.338267 -0.0539555 1.03209
0.24579 -0.0538559 0.981978
0.151423 -0.0537567 0.930944
0.277129 -0.0536907 0.987419
0.0821284 -0.053592 0.886105
0.310334 -0.0534936 0.996409
0.0543823 -0.0533956 0.864648
0.126884 -0.0533275 0.894817
0.135926 -0.0532301 0.895585
0.101047 -0.0531654 0.871863
0.0621507 -0.0530687 0.848682
0.228708 -0.0530044 0.925701
-0.00417535 -0.0529085 0.80554
0.0798044 -0.0528448 0.84129
0.169868 -0.0527814 0.88009
0.101147 -0.0526866 0.842025
0.0578351 -0.0526203 0.814424
0.176715 -0.0525577 0.867658
-0.135944 -0.0524952 0.70513
0.191177 -0.0524021 0.864999
0.0827823 -0.0523403 0.80461
0.016633 -0.0522788 0.765347
0.0171273 -0.0522176 0.75941
0.0340286 -0.0521567 0.761679
0.0144097 -0.052096 0.745691
0.0352455 -0.0520357 0.749931
0.109562 -0.0519756 0.780913
-0.0104622 -0.0519159 0.714725
-0.0384507 -0.0518527 0.694865
0.0443219 -0.0517936 0.730078
0.154746 -0.0517347 0.779116
-0.0280043 -0.0516762 0.681564
0.135674 -0.0516471 0.754799
-0.151707 -0.0515891 0.604933
-0.257406 -0.0515315 0.545904
-0.0305299 -0.0514742 0.653158
0.00809779 -0.0514172 0.666283
-0.103718 -0.0513889 0.60179
-0.151366 -0.0513325 0.571774
-0.260132 -0.0512764 0.511191
-0.179668 -0.0512208 0.545215
-0.174391 -0.0511655 0.541638
0.0208107 -0.051138 0.630666
-0.126677 -0.0510832 0.550698
-0.265499 -0.0510249 0.475397
-0.138492 -0.0509979 0.530336
-0.0936151 -0.0509441 0.546533
-0.230438 -0.0508908 0.471868
-0.074646 -0.0508642 0.5412
-0.182956 -0.0508115 0.480778
-0.135642 -0.0507591 0.498154
-0.0604114 -0.0507331 0.527206
0.0177462 -0.0506814 0.559987
-0.233841 -0.0506302 0.42788
0.0311891 -0.0506047 0.551829
-0.0829114 -0.0505541 0.488446
-0.0942958 -0.0505289 0.474185
-0.0497865 -0.050479 0.490086
-0.106805 -0.0504295 0.455205
-0.0845695 -0.0504049 0.457747
-0.277834 -0.0503561 0.354719
-0.149402 -0.0503318 0.410354
-0.295198 -0.0502837 0.331035
-0.24569 -0.0502598 0.347203
-0.215935 -0.0502124 0.355632
-0.219802 -0.0501888 0.345106
-0.218257 -0.0501421 0.339401
-0.196716 -0.0501189 0.341571
-0.0497289 -0.0500687 0.408938
-0.276055 -0.0500459 0.287169
-0.0699079 -0.0500006 0.383704
-0.109884 -0.0499781 0.3551
-0.129394 -0.0499335 0.338773
-0.244064 -0.0499114 0.272812
-0.174952 -0.0498676 0.30076
-0.169197 -0.0498459 0.295
-0.13153 -0.0498029 0.307187
-0.134381 -0.0497815 0.297112
-0.148365 -0.0497392 0.283434
-0.215966 -0.0497183 0.24097
-0.0820287 -0.0496768 0.301212
-0.275362 -0.0496562 0.195868
-0.313365 -0.0496358 0.168185
-0.132556 -0.0495953 0.251808
-0.166842 -0.0495753 0.225968
-0.243087 -0.0495356 0.181018
-0.287679 -0.049516 0.150008
-0.145862 -0.0494771 0.214043
-0.289297 -0.0494579 0.133594
-0.174417 -0.0494388 0.182297
-0.138996 -0.049401 0.193071
-0.103004 -0.0493824 0.202311
-0.215058 -0.0493454 0.139297
-0.301829 -0.0493271 0.087135
-0.13152 -0.049291 0.165249
-0.153724 -0.0492732 0.14535
-0.193753 -0.0492555 0.116532
-0.185811 -0.0492205 0.113392
-0.213975 -0.0492032 0.0904847
-0.109182 -0.049169 0.135712
-0.315021 -0.0491522 0.0239444
-0.200243 -0.0491355 0.0724776
-0.22424 -0.0491025 0.0532341
-0.320019 -0.0490862 -0.00353572
-0.19389 -0.04907 0.0506408
-0.140565 -0.0490382 0.0699792
-0.528816 -0.0490225 -0.13306
-0.294622 -0.0489915 -0.0233513
-0.267971 -0.0489763 -0.0189664
0.730678 -0.0426787 1.20875
0.519479 -0.0423577 1.12236
0.682113 -0.0421076 1.21612
0.575406 -0.0419314 1.16808
0.513131 -0.0417799 1.13993
0.628236 -0.0416275 1.20065
0.503416 -0.0415007 1.13894
0.42462 -0.0413739 1.10033
0.455563 -0.0412715 1.11422
0.521114 -0.0411447 1.14792
0.481887 -0.0410687 1.12421
0.405911 -0.0409675 1.0847
0.446231 -0.0408665 1.10338
0.222947 -0.0407642 0.990436
0.38571 -0.0406887 1.06786
0.332044 -0.0406133 1.03711
0.364319 -0.0405381 1.04934
0.268439 -0.0404631 0.997527
0.16395 -0.0403618 0.944152
0.279364 -0.040312 0.995478
0.124215 -0.0402376 0.914093
0.153014 -0.0401635 0.924698
0.127048 -0.0400896 0.907936
0.217808 -0.0400405 0.947002
0.156105 -0.0399671 0.912398
0.0231226 -0.0399184 0.839621
0.158913 -0.0398435 0.90399
0.114516 -0.0397951 0.875534
0.142142 -0.0397228 0.885638
0.186466 -0.0396747 0.901563
0.233413 -0.039603 0.921338
0.17735 -0.0395554 0.887086
0.243184 -0.0395079 0.913792
0.0313664 -0.0394607 0.801679
0.246999 -0.0393901 0.905811
0.0817426 -0.0393433 0.816989
0.11869 -0.0392946 0.829503
-0.143634 -0.0392482 0.692161
0.0831879 -0.039202 0.799396
0.113782 -0.039156 0.808521
0.221886 -0.0391102 0.856404
-0.0159363 -0.0390646 0.731326
0.065523 -0.0390193 0.76589
-0.0427493 -0.0389741 0.70559
-0.0952395 -0.0389292 0.673181
0.00205077 -0.0388846 0.715662
-0.00053986 -0.0388402 0.708201
-0.104 -0.038796 0.650304
0.0847325 -0.0387521 0.738501
0.0793038 -0.0387084 0.729615
-0.0839514 -0.0386844 0.639641
-0.0800871 -0.0386411 0.635404
-0.0436871 -0.038598 0.647431
-0.228992 -0.0385552 0.5486
-0.0441482 -0.0385127 0.634837
-0.0701946 -0.0384916 0.613238
0.023792 -0.0384495 0.654042
-0.0855105 -0.0384076 0.593194
-0.142928 -0.0383661 0.558279
-0.0426027 -0.0383454 0.599876
-0.0887542 -0.0383043 0.570587
-0.12318 -0.0382635 0.54715
-0.10225 -0.038223 0.55138
-0.139053 -0.0382029 0.524417
-0.124043 -0.0381628 0.525675
-0.188657 -0.038123 0.487108
-0.0902574 -0.0381033 0.527748
-0.169338 -0.038064 0.481933
-0.212455 -0.0380445 0.451815
-0.175965 -0.0380056 0.463768
-0.162878 -0.0379649 0.464272
-0.167135 -0.0379457 0.453583
-0.216027 -0.0379077 0.422813
0.110281 -0.03787 0.579626
-0.165642 -0.0378513 0.433097
-0.180796 -0.0378141 0.419157
0.0114083 -0.0377957 0.506689
-0.275009 -0.037759 0.357093
-0.0574983 -0.0377408 0.457274
-0.083757 -0.0377046 0.437732
-0.139424 -0.0376867 0.401318
-0.13837 -0.037651 0.395405
-0.0627976 -0.0376334 0.424604
-0.31383 -0.0375983 0.292618
-0.120311 -0.0375809 0.380784
-0.205859 -0.0375463 0.331509
-0.312283 -0.0375292 0.269694
-0.174959 -0.0374951 0.331824
-0.187119 -0.0374783 0.317131
-0.201914 -0.0374448 0.303167
-0.272603 -0.0374282 0.2592
-0.0560158 -0.0373954 0.36089
-0.253946 -0.037379 0.253291
-0.19725 -0.0373467 0.274998
-0.126967 -0.0373307 0.301493
-0.156923 -0.037299 0.279834
-0.102098 -0.0372832 0.298587
-0.276972 -0.0372521 0.204428
-0.197541 -0.0372366 0.235469
-0.103261 -0.0372061 0.275844
-0.344644 -0.0371909 0.146463
-0.262412 -0.0371759 0.178885
-0.118565 -0.0371461 0.243987
-0.196731 -0.0371314 0.196193
-0.281479 -0.0371022 0.14695
-0.144707 -0.0370878 0.206607
-0.24835 -0.0370592 0.147868
-0.429272 -0.0370451 0.0486599
-0.0825991 -0.0370311 0.213244
-0.00157671 -0.0370033 0.246772
-0.127543 -0.0369874 0.175308
-0.21147 -0.0369602 0.12631
-0.0755149 -0.0369468 0.185495
-0.241359 -0.0369335 0.0937742
-0.201892 -0.0369073 0.106403
-0.214716 -0.0368943 0.0911699
-0.258422 -0.0368686 0.0621545
-0.370081 -0.036856 -0.00251979
-0.302912 -0.0368434 0.0222135
-0.0969975 -0.0368186 0.117932
-0.197934 -0.0368064 0.0585879
-0.291777 -0.0367943 0.00278253
-0.361946 -0.0367704 -0.0396202
-0.29242 -0.0367586 -0.0137667
-0.351737 -0.0367353 -0.0508071
-0.232561 -0.0367239 -0.000155731
0.769864 -0.028649 1.21187
0.883339 -0.0283383 1.30177
0.700176 -0.0281719 1.22246
0.485477 -0.0280376 1.1228
0.645664 -0.0279197 1.2083
0.41903 -0.0278184 1.09803
0.513698 -0.0277333 1.1461
0.508353 -0.0276486 1.14417
0.476895 -0.0275638 1.12927
0.313638 -0.0274784 1.04863
0.429101 -0.0274107 1.10478
0.350874 -0.0273599 1.06159
0.355665 -0.0272923 1.06249
0.391757 -0.0272248 1.07909
0.325259 -0.0271743 1.04187
0.416512 -0.0271062 1.08624
0.122316 -0.0270559 0.935234
0.217668 -0.0270057 0.979028
0.518456 -0.0269557 1.12556
0.286441 -0.0269058 1.00572
0.233938 -0.026856 0.975646
0.258246 -0.0268054 0.984152
0.202017 -0.0267724 0.949703
0.179925 -0.0267231 0.934892
0.342834 -0.0266739 1.01259
0.184619 -0.0266413 0.927198
0.289003 -0.0265925 0.975662
0.141501 -0.02656 0.895648
0.11251 -0.0265116 0.877442
0.170502 -0.0264794 0.900198
0.10822 -0.0264303 0.86553
0.255868 -0.0263984 0.933133
0.113939 -0.0263666 0.855958
0.0962717 -0.026335 0.840921
0.107314 -0.0262877 0.842767
0.155215 -0.0262563 0.860526
0.0266981 -0.0262251 0.790083
0.0957575 -0.026194 0.818433
0.0925715 -0.026163 0.810665
-0.00600218 -0.0261322 0.755208
0.0241301 -0.0261015 0.764108
0.02797 -0.0260709 0.759864
-0.191177 -0.0260394 0.644307
0.218002 -0.0260091 0.842738
0.0198367 -0.025979 0.737499
0.0178227 -0.025949 0.730336
-0.0539121 -0.0259192 0.688312
0.0234887 -0.0258896 0.720854
0.0323923 -0.0258601 0.719147
-0.149884 -0.0258308 0.621847
-0.0512595 -0.0258016 0.664995
0.0126024 -0.0257726 0.690757
-0.0354103 -0.0257582 0.658164
-0.0827142 -0.0257295 0.628343
-0.121399 -0.025701 0.602826
-0.137723 -0.0256726 0.588484
-0.169362 -0.0256444 0.566478
-0.125313 -0.0256304 0.579932
-0.0638944 -0.0256014 0.604625
0.0546882 -0.0255737 0.657717
-0.0300579 -0.0255462 0.609135
-0.223124 -0.0255325 0.504041
0.00815513 -0.0255053 0.613462
-0.0715806 -0.0254782 0.567365
-0.159153 -0.0254648 0.515021
0.0145496 -0.0254381 0.595632
-0.0129036 -0.0254115 0.575651
-0.0738025 -0.0253983 0.536645
0.0417662 -0.0253721 0.588161
-0.0530738 -0.0253461 0.534458
-0.00204937 -0.0253332 0.551412
-0.0597013 -0.0253075 0.516285
-0.0675332 -0.0252947 0.50381
-0.116226 -0.0252694 0.473143
-0.166216 -0.0252442 0.441811
-0.272294 -0.0252318 0.380207
-0.00848079 -0.025207 0.505754
-0.0782567 -0.0251946 0.462298
-0.115752 -0.0251702 0.437166
-0.245979 -0.025158 0.36348
0.0265779 -0.0251339 0.493349
-0.136544 -0.0251219 0.40321
-0.0956693 -0.0250982 0.41721
-0.0313903 -0.0250864 0.440765
-0.223 -0.025063 0.338495
-0.119037 -0.0250389 0.384155
-0.221015 -0.0250274 0.324567
-0.0384548 -0.0250046 0.409327
-0.139069 -0.0249933 0.350412
-0.0703683 -0.024982 0.376153
-0.071017 -0.0249597 0.369265
-0.181378 -0.0249486 0.305465
-0.195544 -0.0249267 0.291783
-0.197411 -0.0249158 0.282218
-0.25407 -0.0248942 0.247252
-0.107471 -0.0248836 0.311907
-0.251196 -0.0248624 0.233369
-0.0946577 -0.0248519 0.302981
-0.243258 -0.0248311 0.221963
-0.376838 -0.0248208 0.146502
-0.152212 -0.0248004 0.252053
-0.0393025 -0.0247903 0.299821
-0.231921 -0.0247803 0.194821
-0.28682 -0.0247604 0.160553
-0.162254 -0.0247506 0.214128
-0.103173 -0.0247311 0.236804
-0.348635 -0.0247215 0.105347
-0.185015 -0.0247024 0.180243
-0.168878 -0.024693 0.179567
-0.247511 -0.0246837 0.131501
-0.218544 -0.0246652 0.139005
-0.318464 -0.024656 0.0802757
-0.465052 -0.0246379 -5.0759e-05
-0.190229 -0.024629 0.12857
-0.344252 -0.0246201 0.0427615
-0.105247 -0.0246026 0.155161
-0.449752 -0.0245939 -0.0259109
-0.209451 -0.0245768 0.0870794
-0.28945 -0.0245684 0.0382366
-0.0808829 -0.02456 0.133671
-0.263843 -0.0245435 0.0349538
-0.202203 -0.0245354 0.0568992
-0.129767 -0.0245273 0.0842355
-0.228018 -0.0245113 0.0277937
-0.0986735 -0.0245035 0.0835577
-0.139316 -0.0244879 0.0558569
-0.162855 -0.0244803 0.0351518
0.773896 -0.014268 1.23036
0.619517 -0.0141441 1.17716
0.696358 -0.0140689 1.22553
0.468182 -0.0140015 1.11925
0.672158 -0.0139508 1.22421
0.503971 -0.0139 1.14321
0.589177 -0.0138489 1.1891
0.334734 -0.0138149 1.06014
0.396495 -0.0137725 1.09188
0.652499 -0.0137385 1.21826
0.292975 -0.0137043 1.03703
0.297606 -0.0136704 1.03783
0.359516 -0.0136366 1.06731
0.305261 -0.0136112 1.03619
0.290733 -0.0135775 1.02753
0.428698 -0.0135523 1.09258
0.246468 -0.0135267 0.997685
0.129653 -0.0135016 0.935406
0.19402 -0.0134766 0.96374
0.235731 -0.0134516 0.980767
0.204497 -0.0134267 0.961342
0.305828 -0.0134018 1.00822
0.447165 -0.0133771 1.07511
0.209889 -0.0133606 0.950158
0.143276 -0.0133356 0.913231
0.0800724 -0.0133111 0.877896
0.237649 -0.0132949 0.950414
0.0562187 -0.0132705 0.855987
0.0880531 -0.0132544 0.865658
0.00155343 -0.0132383 0.816173
0.122102 -0.0132143 0.872759
0.0445873 -0.0131983 0.827785
0.256514 -0.0131824 0.92754
0.101047 -0.0131586 0.846132
-0.0584052 -0.0131425 0.760334
0.175456 -0.0131268 0.871078
0.150303 -0.0131112 0.852321
0.129785 -0.0130956 0.835887
0.0509305 -0.0130801 0.790289
-0.0354099 -0.0130647 0.740953
0.0347453 -0.0130493 0.769868
0.214847 -0.013034 0.85376
-0.0126745 -0.0130188 0.733842
0.0137415 -0.0130037 0.740895
-0.0359215 -0.0129886 0.709909
0.124956 -0.0129736 0.784194
-0.0466393 -0.0129587 0.692242
-0.261724 -0.0129439 0.578545
-0.0073663 -0.0129288 0.699677
-0.0662914 -0.0129142 0.664056
0.0587312 -0.0128996 0.720405
-0.00791499 -0.0128851 0.680917
-0.033671 -0.0128779 0.659454
-0.00592994 -0.0128635 0.667158
-0.049686 -0.0128492 0.639109
-0.128672 -0.012835 0.593439
-0.0822488 -0.0128209 0.610466
-0.171798 -0.0128139 0.557123
-0.0196087 -0.0128 0.627028
-0.189354 -0.0127861 0.535957
-0.0674471 -0.0127723 0.590703
-0.098636 -0.0127655 0.566549
-0.0323207 -0.0127519 0.59349
-0.141108 -0.0127383 0.532868
-0.256854 -0.0127316 0.466439
-0.1289 -0.0127183 0.524176
0.00306979 -0.012705 0.583909
-0.021575 -0.0126984 0.563031
-0.215728 -0.012685 0.45977
-0.0569158 -0.012672 0.532894
-0.147774 -0.0126656 0.478908
-0.209661 -0.0126527 0.441665
-0.124747 -0.0126463 0.475564
-0.164783 -0.0126337 0.449227
-0.0311058 -0.0126211 0.50973
-0.131561 -0.0126149 0.450939
-0.189239 -0.0126024 0.415741
0.0661801 -0.0125963 0.534884
-0.115301 -0.0125841 0.437761
-0.245553 -0.012578 0.364063
-0.17288 -0.0125659 0.393992
-0.0586327 -0.0125599 0.442538
-0.00704579 -0.0125481 0.461896
-0.195243 -0.0125422 0.359214
-0.407049 -0.0125304 0.246847
-0.138174 -0.0125189 0.374796
-0.243371 -0.0125131 0.313599
-0.317882 -0.0125017 0.269824
-0.222247 -0.0124961 0.309033
-0.0989183 -0.0124851 0.36406
-0.110366 -0.0124793 0.349802
-0.202542 -0.0124737 0.295095
-0.116489 -0.0124628 0.331523
-0.145571 -0.0124573 0.308351
-0.124609 -0.0124465 0.312196
-0.251566 -0.0124412 0.240074
-0.212453 -0.0124306 0.252955
-0.292566 -0.0124254 0.204241
-0.280216 -0.012415 0.203699
-0.176061 -0.0124098 0.247106
-0.193345 -0.0123996 0.231703
-0.4007 -0.0123946 0.119339
-0.192821 -0.0123896 0.214588
-0.142728 -0.0123796 0.232817
-0.134974 -0.0123747 0.227986
-0.195551 -0.012365 0.190833
-0.112818 -0.0123602 0.223475
-0.271413 -0.0123507 0.137263
-0.207406 -0.0123459 0.160523
-0.299397 -0.0123413 0.105778
-0.288878 -0.012332 0.104059
-0.447792 -0.0123274 0.0158324
-0.175307 -0.0123184 0.145043
-0.25955 -0.0123139 0.0941312
-0.1238 -0.0123095 0.15321
-0.158649 -0.0123007 0.128682
-0.200989 -0.0122964 0.0986934
-0.254524 -0.0122879 0.0647664
-0.248539 -0.0122836 0.0589166
-0.236924 -0.0122794 0.0558748
-0.174542 -0.0122712 0.0798292
-0.273615 -0.0122671 0.0214187
-0.330082 -0.0122631 -0.0156962
-0.304657 -0.0122551 -0.0102998
-0.211939 -0.0122512 0.0271516
-0.272574 -0.0122434 -0.0105453
-0.156095 -0.0122396 0.0387594
0.798485 0 1.25225
0.607718 0 1.17625
0.608198 0 1.18406
0.489676 0 1.13267
0.521243 0 1.15146
0.784827 0 1.28638
0.611536 0 1.20045
0.520382 0 1.15576
0.476049 0 1.13193
0.30591 0 1.04779
0.249305 0 1.01793
0.372042 0 1.07525
0.346357 0 1.06103
0.384527 0 1.07869
0.499802 0 1.13238
0.549505 0 1.15331
0.197937 0 0.973632
0.407309 0 1.07701
0.407115 0 1.07316
0.224273 0 0.975356
0.231933 0 0.975381
0.245278 0 0.978267
0.234111 0 0.968912
0.222181 0 0.956636
0.268634 0 0.97612
0.147165 0 0.911654
0.257642 0 0.960624
0.101545 0 0.87895
0.28065 0 0.962258
0.221107 0 0.926253
0.104601 0 0.864313
0.195958 0 0.903776
0.102892 0 0.851037
0.0707258 0 0.83128
0.141569 0 0.860509
0.0890801 0 0.828078
-0.159675 0 0.69752
-0.032176 0 0.755095
0.102793 0 0.81641
0.00515497 0 0.761487
0.0756658 0 0.79058
0.104398 0 0.798787
-0.0984005 0 0.693567
-0.0706459 0 0.698953
0.0403629 0 0.748303
0.0707965 0 0.757365
0.023615 0 0.72762
0.0460679 0 0.732691
0.0168166 0 0.711909
-0.0355062 0 0.679588
-0.0527506 0 0.664804
-0.037617 0 0.666205
0.0915808 0 0.722218
-0.120163 0 0.61018
-0.0513926 0 0.638393
-0.0539088 0 0.630957
0.146872 0 0.725185
-0.0552319 0 0.615564
-0.226599 0 0.523689
-0.190491 0 0.535543
-0.0228984 0 0.61313
-0.15443 0 0.538804
-0.109735 0 0.554933
-0.15408 0 0.526531
-0.0503472 0 0.56984
-0.23181 0 0.472867
-0.054184 0 0.555426
-0.0702121 0 0.538856
-0.149751 0 0.492818
-0.195895 0 0.463462
-0.0875554 0 0.509075
-0.00360711 0 0.544748
-0.117527 0 0.479229
-0.0629316 0 0.500206
-0.113396 0 0.468637
-0.157779 0 0.437881
0.0370706 0 0.528945
-0.160496 0 0.421595
-0.118785 0 0.436066
-0.145268 0 0.414252
-0.0892701 0 0.435841
0.0624218 0 0.50311
-0.159869 0 0.385527
-0.127464 0 0.393145
-0.161225 0 0.3698
-0.207694 0 0.340076
-0.0718554 0 0.399397
0.0289483 0 0.443278
-0.232757 0 0.303818
-0.178206 0 0.322485
-0.231653 0 0.289198
-0.189662 0 0.301574
-0.134517 0 0.322548
-0.239551 0 0.261399
-0.333309 0 0.207883
-0.121841 0 0.304974
-0.270884 0 0.223776
-0.278214 0 0.211454
-0.0829834 0 0.302352
0.0281017 0 0.349223
-0.186971 0 0.234926
-0.276093 0 0.181678
-0.107211 0 0.257428
-0.25094 0 0.178745
-0.219371 0 0.185823
-0.185981 0 0.195652
-0.23073 0 0.164553
-0.158177 0 0.193915
-0.232655 0 0.147932
-0.183535 0 0.163742
-0.291476 0 0.102793
-0.442353 0 0.0185844
-0.217021 0 0.124218
-0.137966 0 0.154955
-0.134567 0 0.147858
-0.0455116 0 0.185282
-0.279502 0 0.0594681
-0.0842835 0 0.149917
-0.0866866 0 0.139873
-0.242161 0 0.0532866
-0.184414 0 0.0749234
-0.328547 0 -0.00601741
-0.184582 0 0.0570833
-0.202208 0 0.0409542
-0.344846 0 -0.0392728
-0.178951 0 0.0362952
-0.219877 0 0.00689692
0.826321 0.014218 1.27112
0.594609 0.014118 1.17234
0.706059 0.0140509 1.23567
0.614841 0.0139919 1.19541
0.48701 0.0139323 1.13709
0.565786 0.0138899 1.17711
0.558524 0.0138474 1.1742
0.567609 0.0138049 1.17955
0.397152 0.0137707 1.09275
0.4402 0.0137282 1.11521
0.384888 0.0136943 1.086
0.598496 0.0136688 1.18875
0.502725 0.013635 1.1394
0.28768 0.0136009 1.03053
0.228741 0.0135756 0.997108
0.245052 0.0135504 1.00134
0.2037 0.0135252 0.976773
0.234498 0.0134917 0.99086
0.330974 0.0134667 1.03525
0.146468 0.01345 0.936615
0.347895 0.0134251 1.03352
0.0943197 0.0134001 0.90301
0.194756 0.0133753 0.949454
0.1487 0.0133589 0.920113
0.262548 0.0133343 0.973292
0.0966348 0.0133098 0.886602
0.212105 0.0132935 0.938067
0.0581373 0.0132692 0.85737
0.159499 0.0132531 0.901804
0.0596566 0.013237 0.845648
-0.00301051 0.0132129 0.810625
0.145555 0.0131969 0.878722
0.0237075 0.013181 0.811589
0.105427 0.0131573 0.848742
0.0412741 0.0131415 0.810497
0.127027 0.0131258 0.847184
0.0632213 0.0131102 0.809098
0.0873627 0.0130946 0.814991
-0.123306 0.0130792 0.703483
-0.00414976 0.0130637 0.756893
0.0656477 0.0130484 0.785627
0.0299883 0.0130331 0.761635
0.00719211 0.0130179 0.744077
-0.0413024 0.0130028 0.713672
0.0192767 0.0129877 0.737804
-0.0912611 0.0129728 0.676379
-0.039881 0.0129579 0.695912
-0.0364578 0.012943 0.691465
-0.0793708 0.0129283 0.663849
-0.0579337 0.0129136 0.668406
0.0568695 0.0128991 0.719642
-0.0571917 0.0128846 0.656444
-0.0526068 0.0128774 0.650151
-0.0732545 0.012863 0.633659
-0.165165 0.0128487 0.581531
-0.0711171 0.0128346 0.622376
0.14728 0.0128205 0.72538
-0.0264905 0.0128135 0.629925
-0.217259 0.0127995 0.528348
-0.178702 0.0127857 0.541425
-0.0471161 0.0127719 0.601008
-0.0423769 0.0127651 0.594816
-0.141455 0.0127515 0.539057
-0.222069 0.012738 0.492519
-0.116383 0.0127312 0.536804
-0.156439 0.0127179 0.510533
-0.170934 0.0127046 0.49703
-0.0293239 0.012698 0.559278
-0.100933 0.0126849 0.517203
-0.151464 0.0126719 0.485652
-0.222157 0.0126655 0.441748
-0.10338 0.0126526 0.494834
-0.262562 0.0126463 0.406683
-0.0385917 0.0126336 0.512346
-0.078879 0.012621 0.485863
-0.275645 0.0126148 0.378915
-0.0236392 0.0126024 0.498557
-0.211559 0.0125963 0.396028
-0.212651 0.012584 0.389096
-0.347484 0.012578 0.313107
-0.031272 0.0125659 0.464802
-0.254565 0.0125599 0.344577
-0.193764 0.012548 0.368539
-0.167676 0.0125422 0.372998
-0.0744813 0.0125307 0.413042
-0.222867 0.0125249 0.330255
-0.100408 0.0125134 0.384985
-0.140471 0.0125077 0.356351
-0.100676 0.0124963 0.369715
-0.166533 0.0124907 0.328175
-0.20841 0.0124796 0.30067
-0.141801 0.012474 0.325352
-0.173673 0.0124631 0.302813
-0.103964 0.0124577 0.329034
-0.384781 0.0124469 0.181984
-0.23051 0.0124415 0.250474
-0.208405 0.012431 0.254846
-0.00143949 0.0124257 0.349669
-0.139219 0.0124154 0.274058
-0.193983 0.0124102 0.238002
-0.063057 0.0124 0.2967
-0.236683 0.012395 0.201198
-0.255717 0.01239 0.182988
-0.147435 0.0123801 0.230307
-0.208871 0.0123751 0.190879
-0.121017 0.0123654 0.227937
-0.111603 0.0123606 0.223916
-0.244841 0.0123558 0.148565
-0.239163 0.0123464 0.144472
-0.0460959 0.0123417 0.232253
-0.171836 0.0123325 0.1624
-0.0914665 0.0123279 0.193813
-0.0636343 0.0123189 0.200693
-0.0926426 0.0123144 0.177396
-0.182527 0.01231 0.123655
-0.112894 0.0123012 0.151365
-0.189114 0.0122969 0.104433
-0.298982 0.0122884 0.0423354
-0.138532 0.0122842 0.113716
-0.258115 0.01228 0.0450723
-0.274012 0.0122717 0.0298835
-0.222784 0.0122676 0.046621
-0.335814 0.0122636 -0.0187777
-0.275701 0.0122556 0.00395902
-0.0985012 0.0122517 0.0836491
-0.180645 0.012244 0.0351943
-0.227626 0.0122402 0.00276625
0.706937 0.0284344 1.21167
0.550554 0.0282348 1.15049
0.621636 0.0280999 1.19373
0.544142 0.0279819 1.16033
0.524584 0.027864 1.15597
0.473247 0.0277779 1.13112
0.593545 0.027693 1.19198
0.405248 0.0276081 1.09863
0.541946 0.0275402 1.16532
0.462428 0.0274558 1.12641
0.303493 0.027388 1.04539
0.257053 0.0273361 1.01827
0.257399 0.0272684 1.01697
0.473918 0.0272013 1.12372
0.26185 0.0271503 1.0138
0.195572 0.0270995 0.976798
0.148245 0.0270491 0.949234
0.339049 0.0269989 1.04076
0.202318 0.0269489 0.96854
0.184227 0.0268989 0.955662
0.460164 0.0268491 1.08982
0.265392 0.0267995 0.988636
0.295829 0.0267501 1.00008
0.30431 0.0267172 0.998
0.111089 0.0266679 0.897657
0.175077 0.0266353 0.923362
0.121141 0.0265865 0.892663
0.0413625 0.0265541 0.84651
0.0994744 0.0265057 0.871854
0.0795764 0.0264736 0.855664
-0.125401 0.0264255 0.749478
0.0514431 0.0263936 0.83168
0.0668344 0.0263619 0.833164
0.140941 0.0263302 0.864014
0.00427855 0.026283 0.792006
0.0362859 0.0262516 0.801818
-0.119334 0.0262204 0.717822
0.064265 0.0261893 0.803442
-0.0430998 0.0261583 0.743584
0.0790439 0.0261275 0.798485
0.0848986 0.0260968 0.795246
0.0172449 0.0260663 0.755255
0.0708385 0.0260359 0.77589
-0.0113084 0.0260056 0.728656
0.0313403 0.0259755 0.743821
0.0232698 0.0259459 0.733585
-0.130445 0.0259161 0.650567
0.0760717 0.0258865 0.747662
-0.0373111 0.025857 0.684806
-0.0110669 0.0258277 0.691762
-0.128843 0.0257986 0.626704
-0.147667 0.0257841 0.608699
-0.23234 0.0257553 0.560193
-0.304595 0.0257266 0.517892
0.0557105 0.0256981 0.691865
-0.0895478 0.0256698 0.613051
-0.086441 0.0256557 0.606029
0.00249635 0.0256276 0.644308
0.0740951 0.0255997 0.67391
-0.179039 0.0255721 0.541137
-0.107051 0.0255583 0.568566
-0.086045 0.0255309 0.572855
-0.103853 0.0255037 0.557726
-0.151805 0.0254767 0.527515
-0.200208 0.0254633 0.494753
-0.0975462 0.0254366 0.539836
-0.194382 0.0254233 0.48286
-0.14022 0.0253977 0.503552
0.0176391 0.0253715 0.576203
-0.211395 0.0253585 0.453126
0.0317704 0.0253327 0.568413
-0.16948 0.025307 0.461478
-0.167182 0.0252943 0.454064
-0.223281 0.025269 0.419684
-0.187194 0.0252564 0.429162
-0.146235 0.0252314 0.443291
-0.259298 0.0252067 0.380391
0.027677 0.0251944 0.515306
-0.120254 0.02517 0.434947
-0.0854164 0.0251579 0.443789
-0.246681 0.0251338 0.356738
-0.287682 0.0251219 0.327654
-0.349435 0.0250981 0.290332
-0.268845 0.0250864 0.322038
-0.158609 0.025063 0.370681
-0.117768 0.0250514 0.382505
0.0054527 0.0250284 0.437609
-0.0844475 0.025017 0.384054
-0.146757 0.0249944 0.346361
-0.313399 0.0249832 0.254425
-0.24457 0.0249609 0.282268
-0.252962 0.0249499 0.269447
-0.32149 0.024928 0.228574
-0.116512 0.0249171 0.322426
-0.17035 0.0248956 0.288861
-0.193644 0.0248849 0.268565
-0.247356 0.0248638 0.235023
-0.319442 0.0248533 0.190318
-0.406226 0.0248326 0.140199
-0.224634 0.0248223 0.222319
-0.211833 0.0248121 0.220039
-0.227668 0.0247919 0.20534
-0.188234 0.0247819 0.216361
-0.24028 0.0247621 0.18351
-0.247514 0.0247523 0.17118
-0.199382 0.0247328 0.188372
-0.0626215 0.0247232 0.248022
-0.119628 0.0247137 0.210783
-0.130051 0.0246948 0.198635
-0.251599 0.0246855 0.129107
-0.180075 0.024667 0.157881
-0.190656 0.0246579 0.143816
-0.173088 0.0246399 0.145559
-0.120162 0.0246309 0.163226
-0.179504 0.0246221 0.124754
-0.190178 0.0246046 0.112305
-0.225217 0.024596 0.0859613
-0.222929 0.0245789 0.0799368
-0.214318 0.0245705 0.0753948
-0.137901 0.0245621 0.104749
-0.318085 0.0245456 0.00741219
-0.291165 0.0245375 0.0119926
-0.231016 0.0245294 0.0331809
-0.254726 0.0245135 0.0140016
-0.32052 0.0245057 -0.027808
-0.174952 0.0244902 0.0375884
-0.209304 0.0244826 0.0114728
0.784367 0.0426493 1.25061
0.751108 0.0423512 1.25086
0.632131 0.0421477 1.1992
0.659947 0.0419707 1.21844
0.544237 0.0418174 1.16369
0.551561 0.0416659 1.17037
0.596224 0.0415377 1.19351
0.352057 0.0414113 1.07213
0.49831 0.0413077 1.14375
0.210002 0.0412059 0.997979
0.318666 0.0411036 1.05081
0.370639 0.0410021 1.07526
0.279825 0.0409019 1.02825
0.287257 0.0408248 1.02809
0.273859 0.0407249 1.01987
0.299914 0.0406483 1.02906
0.275753 0.0405729 1.01307
0.214848 0.0404974 0.978761
0.287526 0.0404224 1.01123
0.19962 0.0403477 0.963434
0.111746 0.0402732 0.915661
0.133659 0.040199 0.922798
0.244685 0.0401494 0.97199
0.323062 0.0400755 1.00741
0.229893 0.0400019 0.957063
0.453878 0.0399529 1.06276
0.248153 0.0398798 0.956166
0.00457462 0.0398312 0.82811
0.0827217 0.0397587 0.863467
0.256986 0.0397105 0.944354
0.173103 0.0396624 0.896179
0.103852 0.0395907 0.857858
-0.0103183 0.0395431 0.794556
0.163558 0.0394957 0.875285
0.0980512 0.0394484 0.836331
0.0535026 0.0394013 0.807862
0.0805233 0.0393317 0.817634
-0.0348979 0.0392851 0.753735
0.0101328 0.0392387 0.770066
0.098811 0.0391926 0.808225
0.0937568 0.0391467 0.799521
0.135533 0.0391009 0.814236
-0.0516255 0.0390554 0.714485
0.0873055 0.0390101 0.777781
-0.0181288 0.0389651 0.718896
0.168763 0.0389202 0.806173
0.0483238 0.0388756 0.739785
0.0184896 0.0388313 0.718699
-0.00329293 0.0387872 0.701636
-0.100728 0.0387433 0.646745
-0.0594192 0.0387214 0.658799
-0.0554903 0.038678 0.654591
-0.0104063 0.0386347 0.670957
-0.0345893 0.0385931 0.652537
-0.156531 0.0385504 0.585376
-0.130216 0.0385292 0.58995
-0.0298095 0.0384869 0.63396
0.0660268 0.0384449 0.675678
-0.0647784 0.0384032 0.604067
-0.141704 0.0383824 0.557032
-0.0758794 0.0383411 0.583728
-0.0986238 0.0383001 0.566131
-0.188229 0.0382594 0.515093
-0.118619 0.0382392 0.541332
-0.140049 0.0381989 0.524371
-0.0354867 0.038159 0.570393
-0.157437 0.0381391 0.500854
-0.265409 0.0380996 0.440596
-0.241976 0.0380604 0.446027
-0.011789 0.038041 0.552556
-0.128698 0.0380022 0.487799
-0.0668581 0.037983 0.510154
0.0424603 0.0379448 0.558492
-0.0772247 0.0379069 0.492313
-0.283555 0.0378881 0.380578
-0.270292 0.0378506 0.380852
-0.0580616 0.0378321 0.478394
-0.106028 0.0377952 0.44803
-0.0872526 0.0377586 0.451017
-0.129113 0.0377405 0.421505
-0.107461 0.0377044 0.425906
-0.285497 0.0376865 0.328301
-0.20061 0.037651 0.364291
-0.00459051 0.0376358 0.453416
-0.321252 0.0376008 0.288599
-0.252201 0.0375835 0.314521
-0.189406 0.037549 0.339401
-0.196683 0.037532 0.327151
-0.224331 0.0374981 0.306777
-0.269657 0.0374813 0.275493
-0.245063 0.037448 0.281206
-0.220288 0.0374315 0.284962
-0.0588549 0.0373987 0.359058
-0.0587935 0.0373825 0.350446
-0.0433523 0.0373503 0.351509
-0.279673 0.0373343 0.224694
-0.0993268 0.0373027 0.30817
-0.12437 0.037287 0.286979
-0.325192 0.0372715 0.177896
-0.191109 0.0372406 0.238188
-0.223054 0.0372253 0.213529
-0.307198 0.0371951 0.164664
-0.255063 0.0371801 0.182029
0.0268387 0.0371504 0.316142
-0.163478 0.0371358 0.212265
-0.158096 0.0371067 0.20807
-0.216305 0.0370923 0.170229
-0.276519 0.0370781 0.13138
-0.293347 0.0370498 0.116019
-0.0393712 0.0370358 0.234246
-0.305545 0.0370082 0.0941609
-0.258887 0.0369946 0.108709
-0.38565 0.036981 0.0365412
-0.205568 0.0369542 0.119515
-0.213713 0.036941 0.106635
-0.0876187 0.0369148 0.16256
-0.0951834 0.0369019 0.149948
-0.249817 0.0368891 0.063794
-0.267969 0.0368637 0.0475225
-0.344252 0.0368512 0.000520388
-0.164153 0.0368266 0.0833152
-0.220405 0.0368144 0.046304
-0.133672 0.0368023 0.0807781
