ply
format ascii 1.0
comment Created by Open3D
element vertex 1682
property double x
property double y
property double z
end_header
-0.0916159 -0.770214 1.34649
-0.0241025 -0.769704 1.3713
0.0584491 -0.769326 1.40302
-0.0523452 -0.768849 1.33854
-0.0576393 -0.768381 1.32679
-0.0849911 -0.767941 1.30389
-0.0553061 -0.767655 1.30878
-0.120831 -0.767266 1.26658
-0.0637109 -0.767007 1.28508
-0.137652 -0.76667 1.23843
-0.075014 -0.766368 1.25992
0.0738063 -0.766153 1.32408
-0.112308 -0.765904 1.22095
-0.0936297 -0.765691 1.22005
-0.0549885 -0.765522 1.22892
-0.0911732 -0.765362 1.20034
-0.0508923 -0.76522 1.2099
-0.00908877 -0.765088 1.22018
-0.0362394 -0.765 1.19577
-0.0968302 -0.764948 1.15446
-0.0219309 -0.764932 1.18073
-0.0127949 -0.76495 1.17394
-0.0266575 -0.765002 1.15548
-0.0807965 -0.765088 1.11671
-0.0686167 -0.765218 1.11087
-0.0326665 -0.765354 1.11689
0.0158758 -0.765691 1.12818
0.0767255 -0.766052 1.14549
-0.038748 -0.766297 1.07522
-0.0219669 -0.766793 1.06979
0.00594446 -0.767494 1.06886
0.0423697 -0.768253 1.07187
0.0292448 -0.769636 1.04686
0.0874613 -0.771151 1.0568
0.107209 -0.777403 1.56973
0.112563 -0.774319 1.57462
0.0491304 -0.772133 1.54116
0.0385204 -0.770703 1.53075
0.0699707 -0.769288 1.54135
0.0124591 -0.7677 1.5083
0.0767376 -0.766682 1.53359
-0.0260074 -0.765503 1.47613
0.00915075 -0.764682 1.48602
-0.0420381 -0.76372 1.4534
0.0182641 -0.762936 1.47574
-0.0283101 -0.762012 1.44531
-0.0707512 -0.76127 1.41612
-0.141478 -0.760551 1.37272
-0.104507 -0.759855 1.38306
-0.0837771 -0.759185 1.38519
-0.0204306 -0.758542 1.40853
-0.109218 -0.757994 1.35536
-0.0758768 -0.757392 1.36353
-0.0216509 -0.756867 1.38179
-0.0661526 -0.75631 1.35086
-0.0296501 -0.755939 1.35955
-0.0182553 -0.755443 1.35631
-0.0986751 -0.754974 1.30704
-0.126789 -0.754668 1.28315
-0.056718 -0.754238 1.30896
-0.0556806 -0.75384 1.30011
-0.16869 -0.753423 1.23435
-0.0388418 -0.75323 1.28892
-0.104265 -0.75284 1.24684
-0.0246065 -0.752545 1.27684
-0.0911445 -0.752438 1.23282
-0.0293742 -0.752093 1.25414
-0.0719492 -0.752038 1.22186
-0.0575862 -0.75172 1.21935
-0.0799893 -0.751566 1.19765
-0.048316 -0.751578 1.20217
-0.0786562 -0.751326 1.177
-0.12433 -0.75126 1.14324
0.0173272 -0.751228 1.20297
-0.0426186 -0.7513 1.16137
-0.0347241 -0.751231 1.15441
-0.0887359 -0.751268 1.11595
-0.0506175 -0.751338 1.12339
-0.13376 -0.751441 1.07003
-0.00165328 -0.751729 1.12334
-0.0324394 -0.751912 1.09573
-0.00989801 -0.75227 1.09388
0.0440548 -0.752512 1.10832
0.0604384 -0.753145 1.10193
0.0412774 -0.753694 1.07819
0.0596845 -0.754443 1.07217
0.0328812 -0.755523 1.04177
0.114482 -0.7573 1.06188
0.179422 -0.762042 1.60206
0.113855 -0.759734 1.56825
0.123571 -0.757953 1.56972
0.0174322 -0.755989 1.51417
0.0779397 -0.754962 1.53766
0.0196098 -0.753598 1.50332
0.0124709 -0.75242 1.49375
-0.0381203 -0.751441 1.46156
0.0413656 -0.750636 1.49363
-0.00692552 -0.74954 1.4632
-0.0386569 -0.74878 1.43949
-0.0600689 -0.748013 1.421
-0.0412201 -0.747285 1.42247
-0.0208782 -0.746472 1.42513
-0.124036 -0.745899 1.36491
-0.0709772 -0.745243 1.38321
0.0125996 -0.744612 1.41667
-0.0475297 -0.744073 1.37786
-0.0724703 -0.743484 1.35689
-0.139592 -0.743079 1.31396
-0.0838193 -0.742547 1.3331
-0.0772948 -0.742061 1.32742
-0.131063 -0.741576 1.2916
0.00639002 -0.741114 1.35129
0.0262385 -0.74083 1.35131
-0.0607605 -0.740394 1.29867
-0.0359458 -0.740006 1.30171
-0.054508 -0.739748 1.28243
-0.106885 -0.73941 1.24665
-0.0990587 -0.739177 1.24045
-0.0111267 -0.73889 1.27458
-0.0689375 -0.738637 1.23568
-0.061121 -0.738448 1.22928
-0.108169 -0.738247 1.19551
-0.00308168 -0.73808 1.23764
-0.0503593 -0.737931 1.20351
-0.112163 -0.737799 1.16202
-0.0491097 -0.737672 1.18295
-0.0312996 -0.737592 1.18101
-0.058633 -0.737546 1.15633
-0.0701268 -0.737534 1.13939
-0.00960069 -0.737467 1.15875
-0.062172 -0.737505 1.12101
-0.0661935 -0.737577 1.10738
-0.0324839 -0.737816 1.11173
-0.0503191 -0.73796 1.0908
-0.0060694 -0.738125 1.10079
0.0704798 -0.738502 1.12581
0.0527962 -0.738742 1.10443
0.00848373 -0.739367 1.06767
0.076404 -0.739676 1.08871
0.0136408 -0.740649 1.04083
0.0249846 -0.741714 1.02948
0.130952 -0.74316 1.06336
0.23342 -0.751261 1.61589
0.0873244 -0.74709 1.55067
0.159369 -0.744978 1.585
0.0614347 -0.743235 1.53266
0.0617316 -0.741862 1.52775
-0.000840157 -0.740324 1.49223
-0.0257223 -0.739334 1.47299
-0.0797535 -0.738189 1.43995
-0.0138447 -0.737391 1.46526
-0.0654112 -0.736452 1.43253
-0.111142 -0.735531 1.40266
-0.0152029 -0.734786 1.4428
-0.0431984 -0.734062 1.4209
-0.051113 -0.733359 1.40896
0.0453481 -0.732679 1.44912
-0.074433 -0.731958 1.38137
-0.0715577 -0.731316 1.37459
-0.0702195 -0.730853 1.36618
-0.0699376 -0.730262 1.35789
-0.0746525 -0.729699 1.34698
-0.141311 -0.729197 1.30481
-0.077778 -0.728677 1.32784
-0.0257054 -0.728199 1.34495
-0.0434238 -0.727877 1.32639
-0.00923851 -0.727423 1.33447
-0.0787106 -0.726996 1.29059
-0.11701 -0.726718 1.26155
-0.0867983 -0.726339 1.2673
-0.104732 -0.725992 1.24881
-0.105329 -0.725605 1.23922
-0.0930111 -0.725459 1.23485
0.0105588 -0.725098 1.27722
-0.115355 -0.725001 1.2035
-0.0568353 -0.724667 1.22323
-0.144565 -0.724472 1.16912
-0.0503898 -0.724313 1.20578
-0.0467283 -0.724169 1.19711
-0.111849 -0.724036 1.154
-0.111564 -0.723943 1.14339
-0.159335 -0.723883 1.10857
0.0349211 -0.723793 1.19493
-0.0253842 -0.723784 1.15358
-0.0264304 -0.723807 1.14169
-0.0810678 -0.723863 1.10283
-0.0211482 -0.723951 1.12108
0.00185931 -0.72407 1.1207
-0.0862811 -0.724212 1.06462
-0.0614498 -0.724377 1.0649
0.0263426 -0.724572 1.09649
0.0121899 -0.724988 1.0759
-0.0419812 -0.725606 1.0342
0.0766155 -0.72591 1.08057
0.0413815 -0.72687 1.04642
0.0934239 -0.72792 1.0554
0.0556194 -0.729344 1.01736
0.0932799 -0.73561 1.54363
0.117359 -0.732336 1.55968
0.0883273 -0.73046 1.54257
0.0550241 -0.728908 1.52182
0.0148648 -0.727566 1.49669
-0.0414351 -0.726243 1.46343
-0.0289294 -0.725101 1.46375
-0.0185662 -0.724148 1.4621
-0.0273591 -0.723365 1.45007
-0.0149212 -0.722299 1.45008
-0.0485292 -0.721559 1.42549
-0.00326836 -0.720809 1.4404
-0.0844979 -0.719983 1.39247
-0.0156602 -0.719305 1.41887
-0.0904253 -0.718744 1.3729
-0.0697927 -0.718102 1.37506
-0.108818 -0.717484 1.34729
-0.121444 -0.716891 1.3326
-0.0300309 -0.716376 1.36957
-0.170584 -0.715825 1.29075
-0.0564258 -0.715332 1.33901
-0.0949143 -0.714975 1.31026
-0.0333355 -0.714496 1.33219
-0.0846138 -0.714041 1.29758
-0.0451534 -0.713745 1.30753
-0.0904342 -0.713328 1.27575
-0.112541 -0.712941 1.25541
-0.0884476 -0.712535 1.25829
-0.0645024 -0.712287 1.26028
-0.093998 -0.711966 1.23594
-0.0160068 -0.711677 1.26518
-0.0257251 -0.711471 1.25015
-0.0306481 -0.711231 1.23769
-0.0824285 -0.71105 1.20151
-0.0518866 -0.710861 1.20653
-0.0511879 -0.710704 1.19647
-0.0817522 -0.710419 1.17146
-0.0695216 -0.710435 1.16625
-0.130992 -0.710314 1.12493
-0.0279725 -0.710145 1.16611
-0.0665487 -0.710121 1.13571
-0.0992176 -0.710194 1.10775
-0.0139294 -0.710075 1.1398
-0.0277956 -0.710132 1.12133
-0.0815504 -0.710221 1.08273
-0.060905 -0.71034 1.08117
-0.0570838 -0.710481 1.07106
-0.0538821 -0.710645 1.06052
-0.0300657 -0.710838 1.06012
-0.0102498 -0.711249 1.0565
-0.00527358 -0.71165 1.04551
0.0253517 -0.71216 1.04673
-0.0281296 -0.712862 1.0048
0.0601235 -0.713477 1.03421
0.145356 -0.715543 1.05393
0.0689505 -0.720349 1.52781
-0.0350115 -0.717815 1.47659
0.0378926 -0.716128 1.50974
0.0174625 -0.714457 1.4962
-0.0656238 -0.713299 1.44885
-0.0164068 -0.712008 1.46835
-0.146097 -0.710897 1.39754
-0.0486833 -0.710277 1.43788
-0.0592555 -0.709209 1.42648
-0.0339104 -0.708312 1.43222
-0.0047651 -0.707587 1.43902
-0.0924432 -0.706881 1.38734
-0.0840521 -0.706195 1.38361
-0.0253627 -0.705478 1.40521
-0.07234 -0.704826 1.37367
-0.0684367 -0.704197 1.36747
-0.0560983 -0.703593 1.36539
-0.12239 -0.703072 1.32358
-0.0996197 -0.702507 1.32655
-0.121722 -0.702119 1.30618
-0.0780282 -0.701607 1.31937
-0.0162417 -0.701137 1.3414
-0.00447915 -0.700818 1.33764
-0.0746722 -0.700371 1.29359
-0.0714305 -0.699932 1.28623
-0.0994481 -0.699524 1.26309
-0.105197 -0.699258 1.25035
-0.0988545 -0.698897 1.24416
-0.100891 -0.698567 1.23363
-0.0806514 -0.69834 1.2337
-0.0686576 -0.698059 1.22995
0.0170488 -0.69771 1.26342
-0.195228 -0.697478 1.14729
-0.0679366 -0.697301 1.20065
-0.142287 -0.697117 1.15322
-0.0557249 -0.696965 1.18609
-0.0794632 -0.696831 1.16372
-0.162776 -0.696704 1.11153
-0.0807969 -0.696619 1.14175
-0.0962394 -0.696516 1.12337
-0.0821439 -0.69648 1.11939
-0.0429909 -0.696402 1.12817
-0.139369 -0.696413 1.06869
-0.0267424 -0.696456 1.11354
-0.00149272 -0.696529 1.11453
0.029027 -0.696633 1.11798
-0.0688667 -0.696767 1.05706
-0.0147643 -0.696929 1.07196
-0.0211653 -0.69712 1.05645
0.0582326 -0.697527 1.08261
-0.118615 -0.697923 0.980694
-0.0101997 -0.698207 1.02204
-0.0186156 -0.699118 1.00138
0.0895948 -0.699724 1.04075
0.0128767 -0.700782 0.985034
0.127601 -0.703238 1.01697
0.103216 -0.709413 1.53176
0.10509 -0.705137 1.54234
0.00265584 -0.703139 1.48951
0.0174342 -0.70149 1.49361
0.0277794 -0.700191 1.49379
-0.0176355 -0.699062 1.46527
0.0255931 -0.698119 1.48017
-0.0302807 -0.69703 1.44629
0.0208806 -0.696119 1.46507
-0.0319708 -0.695083 1.43249
-0.0824689 -0.694494 1.39885
-0.0492424 -0.693632 1.40848
-0.0316145 -0.692829 1.41004
-0.00391703 -0.692269 1.41541
-0.0515344 -0.691619 1.3836
-0.0448719 -0.690991 1.37884
-0.0366015 -0.690387 1.37478
-0.0720818 -0.689869 1.34841
-0.0871032 -0.689303 1.33254
-0.0685596 -0.688762 1.33334
-0.101822 -0.688278 1.30795
-0.108236 -0.687926 1.2953
-0.039604 -0.687454 1.32083
-0.0193941 -0.687007 1.32203
-0.164655 -0.686567 1.24047
-0.0740972 -0.686283 1.27599
-0.156385 -0.685885 1.22572
-0.113702 -0.685518 1.23778
-0.143318 -0.685125 1.21383
-0.0479598 -0.684951 1.25121
-0.103441 -0.684583 1.21422
-0.0392152 -0.684309 1.23658
-0.0131289 -0.684112 1.23947
-0.0888646 -0.683886 1.1916
-0.191122 -0.683713 1.13019
-0.0521808 -0.683535 1.18942
-0.086441 -0.683386 1.16188
-0.0375025 -0.683114 1.17664
-0.0457174 -0.683132 1.16121
-0.0417265 -0.682908 1.15323
-0.113531 -0.682859 1.10639
-0.0750201 -0.682775 1.1149
-0.0269003 -0.682773 1.12775
-0.00431011 -0.682713 1.12817
-0.0262119 -0.682757 1.10575
-0.114577 -0.682832 1.04993
0.000802786 -0.682936 1.0958
-0.130406 -0.683069 1.01822
-0.10146 -0.68323 1.02054
-0.0188118 -0.683557 1.04876
-0.0076715 -0.683773 1.04185
0.0215847 -0.684015 1.04384
0.0430334 -0.684492 1.04055
0.0475078 -0.685158 1.02765
0.0562193 -0.685739 1.01736
0.0106571 -0.687029 0.975743
0.126091 -0.689444 1.00797
0.0984996 -0.69308 1.53141
0.0636877 -0.690976 1.51311
0.0944984 -0.689016 1.52695
0.028942 -0.687399 1.49092
0.0212247 -0.685955 1.48297
-0.0321864 -0.685019 1.44961
0.0131994 -0.683935 1.46643
-0.0475669 -0.683027 1.42931
-0.0922821 -0.681991 1.40091
-0.0147728 -0.681269 1.43201
0.0352961 -0.680415 1.45011
-0.127876 -0.679728 1.36074
-0.0774186 -0.67906 1.37811
-0.0575267 -0.678361 1.38038
-0.0512025 -0.677725 1.37555
-0.0981397 -0.677111 1.344
0.0337486 -0.67652 1.40176
-0.0368061 -0.676011 1.35788
-0.111802 -0.675605 1.31124
-0.0947087 -0.675077 1.31132
-0.0545394 -0.674574 1.32282
-0.144926 -0.674113 1.26883
-0.179914 -0.673659 1.24251
-0.13868 -0.673359 1.25348
-0.0895646 -0.672927 1.26913
-0.0722913 -0.672524 1.26871
-0.08741 -0.672115 1.25213
-0.0168275 -0.671902 1.27735
-0.0495026 -0.671517 1.25189
-0.0348772 -0.671204 1.24969
-0.0870438 -0.670987 1.21357
-0.0142504 -0.670721 1.24022
-0.0904314 -0.670384 1.19278
-0.0083939 -0.670308 1.223
-0.124047 -0.669996 1.15571
-0.132666 -0.669824 1.14115
-0.160372 -0.669679 1.1169
-0.0321243 -0.669542 1.17058
-0.0218992 -0.669434 1.1651
-0.052107 -0.669321 1.13943
-0.0754445 -0.669259 1.1169
-0.0527985 -0.66917 1.11753
-0.0653155 -0.669088 1.10053
-0.083043 -0.669119 1.08028
-0.12733 -0.669076 1.04718
-0.0707257 -0.669151 1.06384
-0.0758953 -0.669255 1.04943
0.0183934 -0.669387 1.0846
-0.0747872 -0.669533 1.02593
0.00437396 -0.669707 1.05327
-0.060074 -0.669907 1.00865
-0.0283822 -0.670324 1.0108
0.0784395 -0.670587 1.05141
0.0317535 -0.671318 1.01248
-0.0826229 -0.672023 0.939833
0.0536687 -0.673029 0.990684
0.0213793 -0.674667 0.953415
0.108075 -0.678724 1.52856
0.0797471 -0.676007 1.51697
0.0832358 -0.674414 1.51549
0.000954092 -0.673156 1.46942
0.0714973 -0.67206 1.49896
0.00349334 -0.670835 1.45994
-0.0191887 -0.669932 1.44192
-0.0462092 -0.668898 1.42246
-0.074649 -0.668176 1.40066
-0.0973951 -0.667321 1.38244
-0.0471181 -0.666631 1.39988
-0.0339042 -0.665811 1.39951
-0.0452891 -0.665158 1.38597
-0.0950691 -0.664525 1.35314
-0.0794318 -0.663913 1.35293
-0.138891 -0.663395 1.31468
-0.0547312 -0.662818 1.34858
-0.0681767 -0.662263 1.33357
-0.0161332 -0.661734 1.35119
-0.046669 -0.66126 1.32723
-0.15855 -0.660793 1.26258
-0.0570359 -0.660462 1.30389
-0.118106 -0.660012 1.26457
-0.139778 -0.659581 1.24487
-0.12571 -0.659157 1.24301
-0.0424625 -0.658885 1.2749
-0.0725037 -0.658506 1.25075
-0.100354 -0.658157 1.22755
-0.0948788 -0.657922 1.22038
-0.0625049 -0.657618 1.22705
-0.135556 -0.657263 1.18131
-0.108498 -0.657059 1.18478
-0.0589285 -0.656816 1.19974
-0.0668844 -0.656603 1.18576
-0.106974 -0.656438 1.15545
-0.135748 -0.656272 1.13081
-0.0698113 -0.65599 1.1542
-0.0686217 -0.655871 1.14428
-0.0472883 -0.655753 1.14443
-0.126182 -0.655643 1.09443
-0.105595 -0.655585 1.09386
-0.0754074 -0.655498 1.09826
-0.0960215 -0.655485 1.07683
-0.082497 -0.655421 1.07277
-0.0340702 -0.655454 1.08559
0.00547523 -0.655488 1.09396
-0.0745026 -0.655593 1.04215
-0.0220629 -0.655723 1.05639
-0.0258406 -0.655868 1.04242
0.0134056 -0.656041 1.0498
-0.00799032 -0.656239 1.02669
0.0680922 -0.656463 1.05216
0.0399274 -0.65691 1.02414
0.0611433 -0.657409 1.02048
-0.0231616 -0.658088 0.962943
0.06095 -0.65906 0.987791
0.0787766 -0.660646 0.975687
0.130409 -0.663614 1.5363
-0.0221237 -0.662047 1.45682
-0.0274242 -0.660172 1.45267
-0.0405581 -0.658942 1.44119
0.0176637 -0.658033 1.46372
-0.000632347 -0.656682 1.4504
-0.0585973 -0.655802 1.41473
-0.00685794 -0.655082 1.43309
-0.0629617 -0.654229 1.39827
-0.0978597 -0.653538 1.3732
-0.0673314 -0.652604 1.3822
-0.0721145 -0.652059 1.37143
0.0434317 -0.65142 1.42137
-0.0396398 -0.650801 1.37191
-0.103326 -0.650136 1.33241
-0.0751243 -0.649549 1.33845
-0.0967635 -0.649129 1.31866
-0.0881301 -0.648588 1.3147
-0.0204765 -0.64811 1.33991
-0.15395 -0.647606 1.26472
-0.0418353 -0.647127 1.3122
-0.003116 -0.646682 1.3228
-0.182931 -0.646245 1.22411
-0.032904 -0.645963 1.28947
-0.12795 -0.645547 1.23307
-0.185719 -0.645164 1.19514
-0.0690107 -0.644912 1.24369
-0.0987974 -0.644572 1.21953
-0.0986889 -0.644201 1.2105
-0.0704006 -0.643979 1.2147
-0.149652 -0.643698 1.16549
-0.0200482 -0.643447 1.22054
-0.0792745 -0.643123 1.18161
-0.0657552 -0.643056 1.17755
-0.0853331 -0.642756 1.15833
-0.0934724 -0.642602 1.14396
-0.0915469 -0.642457 1.13458
-0.12215 -0.642327 1.10886
-0.0291038 -0.64209 1.1456
-0.0268015 -0.64212 1.13537
-0.0839359 -0.641928 1.09676
-0.0195444 -0.641903 1.11792
-0.0461304 -0.641834 1.09385
-0.10143 -0.641853 1.05489
0.0279379 -0.641806 1.10867
-0.119141 -0.641869 1.02356
-0.0653547 -0.641843 1.03942
-0.0125406 -0.641948 1.054
-0.100266 -0.642079 0.998134
-0.0898282 -0.642237 0.991182
-0.00194847 -0.642421 1.02279
-0.0125143 -0.64263 1.00501
-0.03553 -0.643054 0.979654
-0.0232144 -0.64353 0.971633
0.0406001 -0.644183 0.988232
0.076738 -0.64475 0.991507
0.0697117 -0.646 0.968886
0.107439 -0.652536 1.51144
0.125837 -0.649637 1.52481
0.093258 -0.647646 1.50783
-0.0103919 -0.646266 1.45205
0.0278392 -0.645061 1.46629
-0.110098 -0.643872 1.3924
-0.0617774 -0.642848 1.41077
-0.110469 -0.641986 1.37977
-0.0223427 -0.641006 1.41787
-0.0924823 -0.640445 1.37452
-0.105896 -0.639508 1.36167
0.010586 -0.638856 1.41219
-0.056271 -0.638177 1.37123
-0.0564033 -0.637463 1.36384
-0.0487995 -0.636948 1.35922
-0.116153 -0.636364 1.31754
-0.0911476 -0.6358 1.32193
-0.0937644 -0.63526 1.31241
-0.0429407 -0.634785 1.32924
-0.0781897 -0.634316 1.30302
-0.0699984 -0.633966 1.29785
-0.0103189 -0.633498 1.31912
-0.0642045 -0.633063 1.28344
-0.154907 -0.632634 1.22932
-0.078878 -0.632353 1.25772
-0.0551965 -0.631952 1.26066
-0.022038 -0.631579 1.26819
-0.10229 -0.631193 1.21911
-0.00376253 -0.630954 1.25855
-0.0969447 -0.630638 1.20261
-0.0645199 -0.63035 1.20932
-0.0745493 -0.630148 1.19429
-0.0961328 -0.629815 1.17428
-0.185249 -0.629586 1.11989
-0.10984 -0.629413 1.14743
-0.10056 -0.629229 1.14198
-0.152849 -0.629074 1.10558
-0.0904191 -0.628937 1.12643
-0.105353 -0.628676 1.10937
-0.0368115 -0.628557 1.13318
-0.187285 -0.628476 1.04725
-0.0970716 -0.62838 1.08176
-0.19886 -0.62829 1.02024
-0.10686 -0.628201 1.0556
-0.0587876 -0.628223 1.06833
-0.085126 -0.628177 1.04426
-0.109589 -0.628241 1.02045
-0.0745043 -0.628216 1.02697
-0.108667 -0.628321 0.998047
-0.0589764 -0.628452 1.01088
-0.00594282 -0.628609 1.02522
0.068067 -0.628791 1.04989
-0.0156025 -0.628997 0.99555
0.0495089 -0.629227 1.01544
0.0245365 -0.629679 0.98887
0.0154943 -0.630307 0.969117
-0.0253552 -0.630851 0.933979
0.0542914 -0.632059 0.954794
0.1062 -0.633633 0.959329
0.0466846 -0.637476 1.47759
0.049555 -0.634924 1.48168
0.0248787 -0.633422 1.46621
0.0210191 -0.631932 1.46114
-0.0183767 -0.630899 1.43577
-0.0415291 -0.629741 1.41927
-0.0426366 -0.628886 1.41213
-0.0497929 -0.627909 1.40267
0.00696532 -0.627226 1.42354
-0.0135404 -0.626414 1.40653
-0.0619687 -0.625761 1.37469
-0.0155811 -0.624981 1.391
-0.0918276 -0.624362 1.34509
0.0332393 -0.623761 1.39976
-0.0904419 -0.623255 1.32952
-0.118417 -0.622684 1.30754
-0.063033 -0.622135 1.32713
-0.151081 -0.621657 1.2746
-0.0695413 -0.621141 1.30711
-0.0826058 -0.620648 1.2922
-0.0435511 -0.620202 1.30309
-0.141421 -0.619761 1.2455
-0.16279 -0.619458 1.22536
-0.144262 -0.619037 1.22588
-0.213475 -0.618634 1.18244
-0.159359 -0.618234 1.20066
-0.120626 -0.61798 1.21032
-0.101382 -0.617631 1.21082
-0.186905 -0.617397 1.15825
-0.117517 -0.617089 1.1836
-0.0969164 -0.616741 1.18481
-0.0833729 -0.616476 1.182
-0.173175 -0.616286 1.12706
-0.134094 -0.616064 1.13676
-0.171002 -0.61576 1.10899
-0.136233 -0.6156 1.11617
-0.144568 -0.615436 1.10183
0.00368123 -0.615298 1.16563
-0.123807 -0.615167 1.09152
-0.0515339 -0.615044 1.11725
-0.181944 -0.614852 1.04207
-0.111113 -0.614758 1.06691
-0.0628438 -0.614724 1.08008
-0.0621956 -0.614652 1.06968
-0.0871788 -0.614587 1.04643
-0.0869254 -0.614567 1.03552
-0.0913592 -0.614631 1.02172
-0.0578023 -0.614608 1.02747
-0.070726 -0.614712 1.00917
-0.0438314 -0.614709 1.01146
0.0348583 -0.614853 1.03871
-0.0627433 -0.615021 0.977638
-0.077489 -0.615213 0.957834
0.0159916 -0.615609 0.990807
-0.0276219 -0.615858 0.95618
-0.073583 -0.616462 0.918045
0.0307263 -0.616983 0.955569
-0.0632875 -0.617544 0.893639
0.133394 -0.618771 0.972641
0.101058 -0.623197 1.49727
-0.000227707 -0.620696 1.44937
0.0905204 -0.619227 1.49164
0.0573119 -0.618064 1.47023
-0.0151837 -0.616914 1.42915
0.00443094 -0.615921 1.43325
-0.0111548 -0.615084 1.41889
-0.0809127 -0.614129 1.37815
-0.118501 -0.613321 1.35268
-0.0978362 -0.612667 1.35546
-0.0611505 -0.611888 1.36701
-0.066963 -0.611266 1.35641
-0.0511675 -0.61066 1.35655
-0.118732 -0.610155 1.31443
-0.0775895 -0.609578 1.3271
-0.0253952 -0.609021 1.34521
-0.137906 -0.608484 1.28087
-0.0308728 -0.608016 1.3259
-0.0931734 -0.607512 1.2865
-0.0686689 -0.607032 1.29038
-0.0116 -0.606594 1.31029
-0.114877 -0.60615 1.2501
-0.127731 -0.605868 1.23413
-0.0416171 -0.605456 1.26846
-0.0852714 -0.605051 1.23788
0.0135062 -0.604672 1.27837
-0.145458 -0.604423 1.1892
-0.115493 -0.604083 1.19506
-0.132013 -0.60372 1.17784
-0.151103 -0.603499 1.15846
-0.0998525 -0.603215 1.17466
-0.129677 -0.602957 1.15016
-0.104849 -0.602638 1.15339
-0.122765 -0.60246 1.13436
-0.129067 -0.602259 1.12129
-0.124323 -0.602103 1.11347
-0.0705396 -0.601945 1.13019
-0.168675 -0.601678 1.07165
-0.0891442 -0.60155 1.10106
-0.0619214 -0.60145 1.10414
-0.126143 -0.601344 1.06154
-0.123756 -0.601155 1.05279
-0.045945 -0.601202 1.08023
-0.0608932 -0.601055 1.06254
-0.174794 -0.600992 0.994838
-0.132514 -0.601017 1.00465
-0.0450792 -0.600975 1.03748
-0.0560263 -0.601018 1.02056
-0.00176084 -0.601123 1.03584
-0.0334365 -0.601121 1.00886
-0.0835385 -0.601263 0.971699
-0.115505 -0.601429 0.943442
-0.0696974 -0.601619 0.953908
-0.0971496 -0.601832 0.927585
0.0198969 -0.602067 0.973356
-0.0308756 -0.602522 0.933733
0.00989495 -0.603144 0.93873
0.0273616 -0.603683 0.932619
0.060425 -0.604868 0.929906
0.00382611 -0.606403 0.879941
0.103654 -0.608518 1.49361
-0.0132781 -0.606787 1.43375
0.000853256 -0.60535 1.43775
0.0212409 -0.603928 1.44485
-0.0450432 -0.603087 1.40523
0.0232452 -0.601978 1.43451
-0.0323281 -0.60103 1.40095
-0.0199388 -0.600365 1.39971
-0.0378342 -0.599574 1.38411
-0.0311272 -0.598935 1.37992
0.00340533 -0.598173 1.39042
-0.0340083 -0.597565 1.36403
-0.0921003 -0.596974 1.32723
-0.0279943 -0.596341 1.35181
-0.0963285 -0.595779 1.30976
-0.104094 -0.595235 1.2979
-0.151091 -0.594766 1.26599
-0.0868486 -0.59439 1.28914
-0.105978 -0.593899 1.27133
-0.103297 -0.593458 1.26413
-0.0623953 -0.593002 1.27615
0.0376155 -0.592569 1.31761
-0.151199 -0.592159 1.21452
-0.0516039 -0.591891 1.25476
-0.0884489 -0.591494 1.2276
-0.108539 -0.591124 1.20866
-0.0871994 -0.590748 1.2105
-0.0809564 -0.590512 1.2039
-0.0373835 -0.590196 1.2165
-0.164807 -0.589905 1.14344
-0.0137988 -0.589704 1.20904
-0.135697 -0.589377 1.139
-0.0503213 -0.589141 1.17201
-0.0478433 -0.588968 1.16319
-0.137579 -0.588774 1.1084
-0.110141 -0.58849 1.11279
-0.0759326 -0.588345 1.11967
-0.0275817 -0.588207 1.13358
-0.0929161 -0.588077 1.0906
-0.0552314 -0.587967 1.099
-0.108475 -0.587755 1.06262
-0.0582707 -0.587659 1.07719
-0.118392 -0.587571 1.03656
-0.0621726 -0.587544 1.0537
-0.134315 -0.587416 1.00733
-0.100671 -0.587443 1.01282
-0.135197 -0.587403 0.984675
-0.0911673 -0.587369 0.995765
-0.101086 -0.587434 0.979215
-0.0092352 -0.587551 1.0132
0.0108954 -0.587556 1.01207
-0.102336 -0.587709 0.943258
-0.0867058 -0.587886 0.938708
0.0210387 -0.588085 0.980054
-0.0240956 -0.588306 0.944803
0.0387571 -0.588738 0.962082
0.0178791 -0.589133 0.937739
-0.0379092 -0.589636 0.895173
-0.0226323 -0.590178 0.887852
0.0435521 -0.591606 0.899789
0.156605 -0.597233 1.50671
0.0253889 -0.594303 1.44708
0.00683158 -0.592757 1.43557
0.093419 -0.591352 1.47584
-0.0958401 -0.590098 1.37732
-0.0494411 -0.589003 1.39572
0.0315743 -0.588191 1.42974
-0.0464554 -0.587265 1.38497
-0.123542 -0.586479 1.33984
-0.0852114 -0.585842 1.35154
-0.0649228 -0.585083 1.355
-0.0141817 -0.584474 1.37278
-0.0277576 -0.583881 1.35833
-0.167388 -0.583169 1.28162
-0.0596105 -0.58261 1.32768
-0.0489318 -0.582069 1.3251
-0.0514352 -0.581605 1.31547
-0.113551 -0.581094 1.27633
-0.113319 -0.580646 1.26801
-0.0601753 -0.580202 1.28612
-0.189597 -0.57987 1.21226
-0.0986448 -0.579425 1.24932
-0.0436482 -0.579004 1.26827
-0.12545 -0.578603 1.2187
-0.124025 -0.578337 1.2099
-0.179334 -0.577953 1.1735
-0.151015 -0.577593 1.17876
-0.0515722 -0.577225 1.21967
-0.068013 -0.576995 1.20174
-0.159345 -0.576687 1.14688
-0.150086 -0.576346 1.14255
-0.160666 -0.576143 1.12741
-0.126303 -0.575889 1.13508
-0.135008 -0.57566 1.12106
-0.0641554 -0.575491 1.14643
0.0548766 -0.5752 1.19672
-0.11102 -0.575026 1.10376
-0.148242 -0.574885 1.07493
-0.0793139 -0.574622 1.1
-0.0874023 -0.574504 1.08559
-0.0204202 -0.574391 1.10869
-0.0841273 -0.574284 1.06641
-0.155569 -0.574093 1.02084
-0.0789249 -0.574007 1.0486
-0.134178 -0.573983 1.00999
-0.0565569 -0.573918 1.0381
-0.144089 -0.573808 0.983949
-0.105973 -0.57385 0.991579
-0.0734412 -0.573817 0.996925
-0.024069 -0.573792 1.01065
-0.169555 -0.573877 0.926169
-0.107245 -0.574001 0.945323
0.00727315 -0.574141 0.990457
-0.0627833 -0.574181 0.944
0.0447714 -0.574367 0.985322
-0.0744233 -0.574574 0.91311
-0.0724749 -0.574803 0.901314
0.0512535 -0.575243 0.948898
0.0214457 -0.575845 0.918546
-0.0270811 -0.576365 0.879399
0.028067 -0.577387 0.888477
0.0921238 -0.579235 0.89605
0.152665 -0.58299 1.49725
0.0168552 -0.580259 1.43458
-0.00949331 -0.578604 1.4201
0.0209558 -0.577234 1.43233
-0.0227366 -0.576284 1.40492
0.0714076 -0.575214 1.44722
-0.0541112 -0.57442 1.378
-0.0211574 -0.573517 1.38874
-0.0365562 -0.572749 1.37448
-0.115206 -0.571888 1.32921
-0.0817504 -0.571384 1.33777
-0.00723823 -0.570791 1.36745
-0.0818636 -0.570078 1.32334
0.0299119 -0.569516 1.3715
-0.0493089 -0.568971 1.32407
-0.152677 -0.568506 1.26407
-0.126239 -0.56799 1.26933
-0.219503 -0.567493 1.21463
-0.135273 -0.567054 1.24833
-0.0548994 -0.566588 1.28028
-0.0458409 -0.566298 1.27545
-0.0121991 -0.565865 1.28386
-0.105392 -0.56546 1.22868
-0.155444 -0.565062 1.19505
-0.116631 -0.564676 1.20578
0.00107103 -0.564427 1.25507
-0.0826121 -0.564054 1.2045
-0.0531822 -0.563717 1.21025
-0.124245 -0.563493 1.16502
-0.134774 -0.563146 1.15089
-0.156987 -0.562861 1.13052
-0.0918568 -0.562663 1.15323
-0.132997 -0.562416 1.12316
-0.125245 -0.56211 1.11794
-0.208376 -0.56194 1.06637
-0.165793 -0.561746 1.07782
-0.0516985 -0.561468 1.12561
-0.118504 -0.561324 1.08204
-0.169239 -0.561184 1.04649
-0.12644 -0.561061 1.05759
-0.0752068 -0.560834 1.07363
-0.1365 -0.560731 1.03256
-0.0662162 -0.560635 1.05723
-0.140686 -0.560463 1.01006
-0.0296575 -0.560512 1.05409
-0.0606689 -0.560379 1.02838
-0.0810426 -0.560323 1.00746
-0.0554111 -0.560273 1.0095
-0.0563361 -0.560286 0.997814
-0.0999314 -0.560262 0.965057
-0.129874 -0.560354 0.938296
-0.029121 -0.560348 0.977582
-0.0569524 -0.560476 0.951617
-0.0788631 -0.560626 0.928444
-0.0266348 -0.560678 0.943045
-0.0573976 -0.560872 0.915119
-0.0581282 -0.561087 0.902052
-0.0463173 -0.561506 0.893763
-0.020899 -0.561769 0.893401
-0.0400073 -0.562373 0.868267
-0.0206477 -0.562895 0.862948
0.027496 -0.564268 0.865742
0.0299678 -0.56811 1.43266
0.0926593 -0.565827 1.46689
0.0737253 -0.564482 1.45445
-0.00431658 -0.563413 1.41075
-0.00632343 -0.562354 1.40505
-0.0257881 -0.561441 1.38973
-0.00711789 -0.560413 1.39425
-0.0663936 -0.559784 1.35727
-0.135266 -0.559034 1.3163
-0.070741 -0.558296 1.34198
-0.0184227 -0.557702 1.36065
-0.0040397 -0.557123 1.36028
0.0218889 -0.556428 1.36646
-0.0742032 -0.55588 1.3107
-0.107369 -0.555349 1.28631
-0.0818782 -0.554894 1.29076
-0.132176 -0.554391 1.25766
-0.078867 -0.553907 1.27626
-0.129501 -0.553478 1.24254
-0.113565 -0.553025 1.24228
-0.116655 -0.552741 1.23139
-0.124936 -0.552334 1.21875
-0.0745451 -0.551925 1.23547
-0.057259 -0.551535 1.23553
-0.127088 -0.551152 1.192
-0.140919 -0.550903 1.17557
-0.0941363 -0.550553 1.19015
-0.260549 -0.550226 1.09798
-0.148796 -0.550008 1.14417
-0.103077 -0.549669 1.15818
-0.214839 -0.549392 1.09303
-0.161688 -0.549199 1.10976
-0.154159 -0.548887 1.10453
-0.124424 -0.548661 1.10981
-0.152147 -0.548495 1.08595
-0.141741 -0.54821 1.082
-0.0808397 -0.548036 1.10252
-0.132308 -0.547772 1.0675
-0.176373 -0.547762 1.0344
-0.107833 -0.547518 1.05926
-0.154866 -0.547405 1.02541
-0.13891 -0.547298 1.02301
-0.0576063 -0.547106 1.05391
-0.199434 -0.547019 0.97249
-0.0974857 -0.546939 1.01291
-0.145062 -0.546866 0.978529
-0.105585 -0.546807 0.987574
-0.175624 -0.546759 0.941778
-0.0698289 -0.546682 0.984112
-0.0850604 -0.546774 0.964705
-0.0912358 -0.546734 0.950787
-0.0703619 -0.546724 0.950183
0.0121308 -0.546839 0.979455
-0.0508165 -0.546846 0.936809
-0.0973576 -0.546996 0.901309
-0.0504714 -0.5472 0.912104
-0.0943002 -0.547402 0.877556
0.0314748 -0.547624 0.927655
-0.00214306 -0.547864 0.897908
0.0732515 -0.548317 0.921066
0.0187805 -0.549015 0.877419
0.0258672 -0.549664 0.864897
0.0775991 -0.551046 0.869128
0.0524041 -0.554195 1.43484
0.0473904 -0.551966 1.43527
-0.0325409 -0.550653 1.39237
0.0374052 -0.54935 1.4244
-0.0175586 -0.548575 1.39055
-0.0311415 -0.547685 1.37819
0.0768156 -0.546682 1.42738
-0.0594076 -0.546068 1.35195
-0.0509236 -0.545335 1.34968
0.00466133 -0.544615 1.37091
-0.0840634 -0.544037 1.31907
-0.00092975 -0.543472 1.35309
-0.0393629 -0.542794 1.32711
-0.111905 -0.54226 1.28314
-0.0951757 -0.541807 1.28327
-0.0455939 -0.541299 1.30022
-0.049575 -0.540809 1.29029
-0.104269 -0.540379 1.25461
-0.0811644 -0.539918 1.25806
-0.0548908 -0.539477 1.26298
-0.12999 -0.539201 1.2161
-0.0645985 -0.538803 1.24031
-0.148683 -0.538405 1.1898
-0.169818 -0.538025 1.17066
-0.0887463 -0.53765 1.2026
-0.0275292 -0.537408 1.2237
-0.0924089 -0.537068 1.18246
-0.0970886 -0.536718 1.17139
-0.0834565 -0.5365 1.16856
-0.080115 -0.536207 1.16113
-0.071011 -0.535883 1.15681
-0.0865664 -0.53569 1.13924
-0.160098 -0.535447 1.09305
-0.152018 -0.535148 1.08807
-0.196515 -0.534981 1.05588
-0.126911 -0.534788 1.08092
-0.103733 -0.534621 1.08258
-0.112002 -0.534485 1.06829
-0.116709 -0.534234 1.05663
-0.146561 -0.534111 1.03146
-0.0957079 -0.533995 1.0466
-0.134827 -0.533783 1.01748
-0.108719 -0.533687 1.02012
-0.131423 -0.533513 0.998923
-0.0839468 -0.533436 1.01211
-0.069155 -0.533365 1.00892
-0.0764269 -0.533301 0.994649
-0.0820844 -0.533265 0.980976
-0.0343421 -0.533225 0.994032
-0.0772762 -0.533192 0.961706
-0.102972 -0.533164 0.937954
-0.0111103 -0.533236 0.972236
-0.13709 -0.533232 0.898165
-0.0517595 -0.533358 0.928761
-0.125382 -0.533371 0.880739
-0.031446 -0.53353 0.915384
0.0143052 -0.533709 0.925773
-0.0636882 -0.533956 0.873756
-0.0197021 -0.534184 0.882876
-0.0660636 -0.534429 0.846674
-0.0823155 -0.534885 0.823884
0.0245253 -0.535585 0.860733
0.119081 -0.536452 0.89011
0.110919 -0.538916 0.855655
0.0825187 -0.540296 1.44089
0.153158 -0.538121 1.47921
0.0301394 -0.53684 1.4148
0.0711376 -0.535569 1.43239
0.049573 -0.534812 1.41527
0.00450157 -0.533944 1.38719
-0.0276067 -0.532966 1.36637
-0.108602 -0.532241 1.31943
-0.0353972 -0.531654 1.34868
-0.051136 -0.530951 1.33428
-0.0838365 -0.530387 1.31046
-0.0501597 -0.529838 1.31976
-0.104477 -0.529176 1.28587
-0.0557293 -0.528657 1.30255
-0.143448 -0.528214 1.25048
-0.093928 -0.52772 1.26741
-0.115472 -0.527243 1.2487
-0.149323 -0.526823 1.22347
-0.133809 -0.526375 1.22313
-0.062426 -0.525971 1.25044
-0.134817 -0.525697 1.20495
-0.0652508 -0.525289 1.23141
-0.125985 -0.524902 1.19258
-0.141608 -0.524529 1.17623
-0.11163 -0.524283 1.18178
-0.0892382 -0.52393 1.18432
-0.160651 -0.523576 1.13998
-0.119565 -0.523258 1.15164
-0.164917 -0.523046 1.11933
-0.147472 -0.522717 1.11928
-0.102564 -0.522446 1.13255
-0.165831 -0.522258 1.09113
-0.158175 -0.522023 1.08553
-0.134734 -0.521732 1.08825
-0.155349 -0.521569 1.068
-0.114673 -0.521383 1.07858
-0.023198 -0.521118 1.11515
-0.175271 -0.520981 1.02901
-0.124409 -0.520845 1.04433
-0.137912 -0.520606 1.02824
-0.148592 -0.520494 1.01262
-0.087694 -0.520388 1.03275
-0.178163 -0.520196 0.977861
-0.10838 -0.520109 1.0023
-0.173968 -0.520028 0.959011
-0.162542 -0.519886 0.954703
-0.155248 -0.519824 0.947719
-0.0538288 -0.519768 0.987754
-0.0509171 -0.519718 0.978491
-0.0729936 -0.519722 0.956323
-0.0398437 -0.519696 0.961998
-0.114054 -0.519662 0.91406
-0.0498473 -0.519766 0.934256
-0.0655246 -0.519768 0.915298
-0.0288844 -0.519776 0.922454
-0.0904791 -0.519923 0.879406
-0.0519684 -0.52009 0.886246
-0.0200573 -0.520162 0.89052
-0.0183668 -0.520368 0.878631
-0.00393632 -0.520592 0.87296
0.0244285 -0.520833 0.874109
-0.051375 -0.521281 0.821514
-0.014102 -0.521967 0.823536
0.0767894 -0.523035 0.849274
-0.0116211 -0.526041 1.38741
0.0304457 -0.524293 1.40894
0.0342572 -0.523043 1.40799
0.0146287 -0.521804 1.39529
-0.0940355 -0.520824 1.33633
-0.00744758 -0.520096 1.37329
-0.063235 -0.519268 1.33979
-0.0356539 -0.51856 1.34717
-0.0602376 -0.517989 1.32754
-0.138041 -0.517303 1.28212
-0.0614943 -0.516755 1.31294
-0.0696426 -0.51622 1.30134
-0.104234 -0.515575 1.27733
-0.109711 -0.515135 1.26645
-0.0521272 -0.514638 1.28751
-0.110381 -0.514157 1.25057
-0.052579 -0.513738 1.27122
-0.0982775 -0.513284 1.2404
-0.127843 -0.512849 1.21753
-0.0668712 -0.512577 1.23876
-0.176668 -0.512188 1.17547
-0.127713 -0.511792 1.19163
-0.0753148 -0.511418 1.20936
-0.129372 -0.511051 1.17383
-0.0924581 -0.510811 1.18287
-0.138048 -0.510468 1.15141
-0.130469 -0.510124 1.14658
-0.100563 -0.509906 1.15198
-0.140621 -0.509609 1.123
-0.121236 -0.509288 1.12394
-0.0954153 -0.509094 1.12715
-0.0814004 -0.508843 1.12489
-0.204264 -0.508547 1.05455
-0.154832 -0.508377 1.06942
-0.126992 -0.508174 1.07375
-0.102561 -0.507903 1.07689
-0.089179 -0.507757 1.07357
-0.0376018 -0.507603 1.08942
-0.0856416 -0.507358 1.05617
-0.108566 -0.507237 1.03452
-0.0910717 -0.507122 1.03305
-0.0901145 -0.506911 1.02405
-0.116593 -0.506815 1.00045
-0.0546171 -0.506725 1.02104
-0.102226 -0.506564 0.987398
-0.0934241 -0.506492 0.981264
-0.182747 -0.506427 0.926022
-0.0516664 -0.506314 0.98136
-0.112978 -0.506266 0.939989
-0.0911185 -0.506189 0.940443
-0.128772 -0.506159 0.910766
-0.0800131 -0.506135 0.924251
-0.0916118 -0.506217 0.906708
-0.0407647 -0.506207 0.92112
-0.0596106 -0.506211 0.900582
-0.131382 -0.506346 0.852517
-0.0404616 -0.506365 0.886733
-0.06665 -0.506563 0.860935
-0.0505414 -0.506757 0.856322
-0.106353 -0.506968 0.815594
0.0492052 -0.507196 0.880403
0.0239593 -0.507441 0.854665
-0.0586997 -0.507891 0.79852
0.0389027 -0.508577 0.83055
-0.0395599 -0.509856 0.769616
0.0884755 -0.5117 1.43195
-0.0338338 -0.510481 1.36793
0.0941934 -0.509264 1.42911
0.0325015 -0.508057 1.39542
-0.057338 -0.507102 1.3459
0.098107 -0.506392 1.41732
-0.0562657 -0.505586 1.33454
-0.0512564 -0.505118 1.32906
-0.117071 -0.50434 1.29042
-0.0402897 -0.503673 1.32233
-0.0478253 -0.50314 1.31112
-0.0747744 -0.502695 1.28958
-0.136511 -0.501992 1.25257
-0.0535702 -0.501562 1.28591
-0.114483 -0.501079 1.24774
-0.0877608 -0.500612 1.25329
-0.139003 -0.500203 1.21945
-0.0996005 -0.499762 1.23118
-0.0678935 -0.499488 1.23784
-0.115467 -0.499099 1.20575
-0.21134 -0.498695 1.14962
-0.154018 -0.498311 1.16996
-0.0282496 -0.497947 1.22439
-0.161442 -0.497708 1.14841
-0.062899 -0.497355 1.18917
-0.0893305 -0.497008 1.16742
-0.0641263 -0.496688 1.1713
-0.139789 -0.496476 1.12392
-0.0966897 -0.496152 1.1368
-0.155686 -0.495876 1.09828
-0.153258 -0.495687 1.08981
-0.142952 -0.495387 1.08615
-0.225972 -0.495156 1.03529
-0.132485 -0.494991 1.07219
-0.122106 -0.494715 1.06841
-0.20902 -0.494531 1.01527
-0.119285 -0.49439 1.05013
-0.136775 -0.494139 1.03225
-0.0863414 -0.49401 1.04738
-0.0831338 -0.493886 1.03887
-0.17573 -0.49366 0.983263
-0.154664 -0.493555 0.983534
-0.150254 -0.493342 0.976351
-0.125374 -0.493249 0.978442
-0.168653 -0.493082 0.947057
-0.0752266 -0.493008 0.983286
-0.178008 -0.492939 0.921367
-0.201129 -0.492876 0.899232
-0.111605 -0.492836 0.933242
-0.112175 -0.492796 0.922201
-0.144365 -0.492762 0.895306
-0.10702 -0.492711 0.90332
-0.00141602 -0.492694 0.945187
-0.0127931 -0.492676 0.928572
-0.00786537 -0.492785 0.919051
-0.139039 -0.492799 0.842275
-0.174954 -0.492813 0.81312
-0.0525453 -0.492966 0.861965
-0.0117288 -0.493029 0.870766
-0.115942 -0.493219 0.805978
-0.0827282 -0.493427 0.809749
-0.0171803 -0.493652 0.829539
-0.0180343 -0.494071 0.814467
-0.125188 -0.494523 0.745954
0.181646 -0.495206 0.882449
0.0768718 -0.496471 0.80815
0.119309 -0.497874 1.43848
0.00628691 -0.496687 1.37914
0.0248183 -0.495501 1.38562
-0.0116859 -0.494326 1.36455
-0.00765081 -0.493397 1.362
-0.0283348 -0.492825 1.34449
-0.0478746 -0.491922 1.33004
-0.0568985 -0.491465 1.31756
-0.0793162 -0.49071 1.30064
0.016718 -0.490263 1.34067
-0.209117 -0.489541 1.22184
-0.0843754 -0.489108 1.27618
-0.208059 -0.488609 1.2068
-0.051866 -0.488125 1.27729
-0.0995106 -0.48771 1.24535
-0.11467 -0.487249 1.23002
-0.0977713 -0.486846 1.2303
-0.12693 -0.48641 1.20782
-0.146453 -0.485991 1.19005
-0.145707 -0.485611 1.18213
-0.115177 -0.48522 1.18921
-0.159268 -0.484855 1.15879
-0.12585 -0.484613 1.16618
-0.0281188 -0.484259 1.20663
-0.136741 -0.48391 1.14387
-0.197755 -0.483579 1.10478
-0.0900672 -0.483363 1.14916
-0.140793 -0.483036 1.11522
-0.0920373 -0.482748 1.13073
-0.125053 -0.482554 1.10462
-0.121348 -0.482249 1.09775
-0.0953619 -0.482005 1.10156
-0.149568 -0.481834 1.0647
-0.0527221 -0.481553 1.10425
-0.0706325 -0.481354 1.08578
-0.0902182 -0.481205 1.06608
-0.115859 -0.480949 1.04422
-0.150126 -0.480796 1.01723
-0.163512 -0.480671 1.00045
-0.0722312 -0.480439 1.03689
-0.122405 -0.480213 1.00256
-0.177043 -0.480106 0.965032
-0.100252 -0.480005 0.993174
-0.115364 -0.479821 0.976056
-0.0700701 -0.479738 0.988314
-0.125849 -0.479661 0.949991
-0.154345 -0.479523 0.925814
-0.104982 -0.479463 0.939926
-0.187401 -0.479409 0.888103
-0.059897 -0.479317 0.941558
-0.153013 -0.479279 0.884249
-0.0288292 -0.479221 0.93577
-0.0475974 -0.479199 0.9155
-0.0711303 -0.479184 0.892803
-0.140688 -0.479277 0.846167
-0.148783 -0.479276 0.831055
-0.0528421 -0.479291 0.867833
0.00653987 -0.479306 0.88633
-0.078991 -0.479458 0.83119
-0.0924133 -0.479521 0.812867
-0.111919 -0.479708 0.790418
0.0124417 -0.479912 0.839748
-0.0418031 -0.480196 0.799079
-0.0891318 -0.480618 0.760642
0.0757169 -0.48107 0.828011
0.065002 -0.481854 0.804669
0.0984707 -0.482574 0.803941
-0.0145621 -0.484066 1.3627
0.0197394 -0.48291 1.37706
-0.0249279 -0.481756 1.35197
0.000166783 -0.480613 1.36173
-0.0198387 -0.47993 1.34551
-0.0343715 -0.479253 1.33201
-0.139583 -0.478487 1.27389
-0.0763237 -0.477829 1.29921
-0.0818159 -0.477096 1.29076
0.0504389 -0.476661 1.34892
-0.0809167 -0.476152 1.27587
-0.0503791 -0.475538 1.2846
-0.0508794 -0.475054 1.27683
-0.13338 -0.474642 1.22753
-0.131065 -0.47418 1.22104
-0.0795101 -0.473732 1.23908
-0.0558327 -0.47334 1.24276
-0.129363 -0.472917 1.19811
-0.182788 -0.472538 1.16318
-0.108673 -0.472141 1.19218
-0.0681879 -0.471777 1.20412
-0.171462 -0.471532 1.14325
-0.155772 -0.471172 1.14279
-0.112341 -0.470827 1.1561
-0.116214 -0.470488 1.14573
-0.0741831 -0.470268 1.15736
-0.118257 -0.469958 1.12668
-0.182352 -0.46964 1.08607
-0.0741599 -0.469441 1.13064
-0.135035 -0.469173 1.09126
-0.127133 -0.468877 1.0865
-0.07983 -0.4687 1.10049
-0.0822358 -0.468415 1.09051
-0.146316 -0.468202 1.04912
-0.06082 -0.468047 1.08205
-0.10938 -0.467786 1.04883
-0.13377 -0.467617 1.02695
-0.216639 -0.467485 0.975523
-0.0880479 -0.467247 1.03072
-0.138121 -0.467016 0.996542
-0.16159 -0.466902 0.974691
-0.0969909 -0.466793 0.996831
-0.102879 -0.46669 0.983684
-0.145315 -0.466502 0.952998
-0.0821784 -0.466416 0.974228
-0.169921 -0.466261 0.920612
-0.183492 -0.466193 0.903353
-0.129307 -0.466129 0.919926
-0.0113237 -0.46602 0.968803
-0.0876724 -0.465973 0.919973
-0.0736256 -0.465932 0.916295
-0.126421 -0.465866 0.879415
-0.148542 -0.465841 0.857517
-0.124714 -0.465807 0.858676
-0.102346 -0.465797 0.858888
-0.0595618 -0.465793 0.869264
-0.0747726 -0.4658 0.850547
-0.0493391 -0.46581 0.852117
-0.0742778 -0.465951 0.827344
-0.0959923 -0.466005 0.804951
-0.10331 -0.466038 0.789933
-0.0638998 -0.466223 0.796927
-0.0185392 -0.466478 0.806256
0.017545 -0.466702 0.811215
-0.0181879 -0.46694 0.780128
0.0137966 -0.467373 0.781123
-0.0804635 -0.467833 0.718729
0.025573 -0.469232 0.747926
-0.00652888 -0.470497 1.35617
-0.0438848 -0.46915 1.33647
0.0227714 -0.468028 1.36708
-0.0292223 -0.467136 1.33662
0.000571199 -0.466253 1.34703
-0.00381499 -0.465595 1.33864
0.0104484 -0.464851 1.34027
-0.0132535 -0.464212 1.32213
-0.0649095 -0.463697 1.28905
-0.123675 -0.463077 1.25329
-0.0376382 -0.462583 1.28894
-0.101085 -0.461986 1.25071
-0.0880038 -0.461517 1.24974
0.00281424 -0.461116 1.28711
-0.0469625 -0.460667 1.25459
-0.1247 -0.460278 1.20764
-0.0741749 -0.459852 1.22512
-0.123989 -0.459442 1.19233
-0.115458 -0.459074 1.1884
-0.103194 -0.458689 1.18648
-0.0681866 -0.458447 1.19478
-0.153546 -0.458097 1.14379
-0.146427 -0.457749 1.13906
-0.186164 -0.457411 1.11081
-0.106833 -0.457189 1.14117
-0.231576 -0.45687 1.0703
-0.256329 -0.45655 1.04945
-0.1644 -0.456347 1.08597
-0.142087 -0.456068 1.08834
-0.0882267 -0.45577 1.10666
-0.0988895 -0.455588 1.09174
-0.158888 -0.45535 1.05264
-0.182038 -0.455074 1.03231
-0.142982 -0.454913 1.0421
-0.127314 -0.454648 1.0411
-0.0863438 -0.454464 1.05206
-0.139014 -0.454326 1.01583
-0.0756737 -0.454084 1.0385
-0.112794 -0.453957 1.00996
-0.116012 -0.453726 0.999269
-0.129236 -0.453608 0.98261
-0.106265 -0.4535 0.983969
-0.104991 -0.453297 0.975322
-0.106237 -0.453203 0.964456
-0.139947 -0.453115 0.937314
-0.080394 -0.452956 0.957439
-0.110739 -0.452777 0.932788
-0.131574 -0.452712 0.911903
-0.182705 -0.452651 0.875824
-0.168397 -0.452547 0.872861
-0.115893 -0.452503 0.888463
-0.108118 -0.452464 0.881654
-0.130097 -0.452402 0.860178
-0.0914824 -0.452379 0.868652
-0.0425184 -0.452348 0.882374
-0.10507 -0.45234 0.84013
-0.175373 -0.452337 0.793965
-0.188556 -0.452345 0.776257
-0.0781337 -0.452356 0.820324
-0.0521719 -0.452495 0.820986
-0.113799 -0.452549 0.77863
-0.0549059 -0.452583 0.796721
0.00250514 -0.452764 0.8127
-0.0842594 -0.453015 0.755941
-0.0362741 -0.453072 0.768343
0.0148215 -0.453467 0.77915
-0.0120331 -0.453891 0.750694
-0.0364888 -0.454529 0.721409
-0.0199391 -0.455206 0.712227
0.0435593 -0.456717 1.37243
0.0677017 -0.455408 1.38351
0.0178123 -0.454319 1.35589
-0.0824147 -0.453452 1.30135
0.0824554 -0.452594 1.37933
-0.0520696 -0.451955 1.30589
-0.0375081 -0.451233 1.30768
-0.0114833 -0.450612 1.31443
0.00383471 -0.450112 1.31486
-0.0271024 -0.44951 1.29303
-0.0820357 -0.449031 1.25821
-0.0710412 -0.448628 1.25576
-0.0344446 -0.448167 1.26661
-0.15204 -0.447719 1.20028
-0.104785 -0.447173 1.21721
-0.16628 -0.446794 1.1784
-0.0950855 -0.446382 1.20623
-0.0403156 -0.446126 1.22455
-0.110799 -0.445764 1.18116
-0.111381 -0.445383 1.17289
-0.100681 -0.445034 1.17001
-0.11424 -0.44468 1.15507
-0.00309811 -0.444454 1.20139
-0.183419 -0.444123 1.1029
-0.0941782 -0.443798 1.13916
-0.122388 -0.443477 1.11666
-0.129837 -0.443271 1.10358
-0.0618906 -0.442982 1.12891
-0.253283 -0.442682 1.0247
-0.212645 -0.442496 1.03552
-0.0922635 -0.442247 1.08677
-0.142579 -0.441968 1.05294
-0.139736 -0.441802 1.04472
-0.163345 -0.441534 1.02417
-0.174664 -0.441337 1.00916
-0.11043 -0.441193 1.03147
-0.0960602 -0.440947 1.02976
-0.140044 -0.440813 0.997877
-0.163837 -0.440579 0.977003
-0.109591 -0.440445 0.994252
-0.164519 -0.440334 0.956727
-0.135653 -0.440122 0.962008
-0.121386 -0.440021 0.958994
-0.097555 -0.439925 0.960718
-0.180453 -0.43973 0.909989
-0.193117 -0.439567 0.894096
-0.0683475 -0.439494 0.946109
-0.112744 -0.439425 0.913494
-0.156698 -0.439305 0.881584
-0.0911255 -0.439252 0.903815
-0.164231 -0.439102 0.857615
-0.10695 -0.43906 0.87561
-0.158255 -0.438992 0.839558
-0.125496 -0.438966 0.845154
-0.089849 -0.438944 0.852148
-0.019784 -0.438916 0.876415
-0.13065 -0.438909 0.810017
-0.0613636 -0.438907 0.83365
-0.0468132 -0.438917 0.829802
-0.0775798 -0.438929 0.803277
-0.0891389 -0.438967 0.786115
-0.0351675 -0.439121 0.800599
-0.0204356 -0.439155 0.796612
-0.129571 -0.439234 0.730252
-0.0217604 -0.439427 0.771261
-0.0186928 -0.439635 0.759751
-0.0226227 -0.439924 0.743959
-0.00990704 -0.440164 0.736935
-0.001926 -0.440596 0.725683
-0.0681949 -0.441718 0.670566
0.0131226 -0.442955 1.34845
0.0339609 -0.441894 1.35619
-0.0257424 -0.440835 1.3237
0.0515732 -0.439785 1.3597
-0.0808847 -0.439156 1.28735
-0.0673999 -0.438442 1.28871
-0.0450286 -0.437828 1.29371
-0.0874117 -0.437221 1.26631
-0.0172368 -0.436546 1.29579
-0.0213289 -0.436143 1.28586
-0.0853529 -0.435674 1.24656
-0.0885955 -0.435106 1.23851
-0.121872 -0.434659 1.21443
-0.115084 -0.434277 1.20986
-0.0751319 -0.43385 1.22227
-0.127502 -0.433479 1.18807
-0.137776 -0.433073 1.17523
-0.117104 -0.432681 1.17776
-0.177681 -0.43233 1.13934
-0.160814 -0.431962 1.13979
-0.117623 -0.431623 1.15318
-0.0901615 -0.431396 1.15774
-0.0906715 -0.431062 1.14926
-0.164003 -0.43074 1.10429
-0.172421 -0.430527 1.09082
-0.0706949 -0.43022 1.13327
-0.137855 -0.429914 1.09128
-0.0578499 -0.429636 1.12265
-0.19087 -0.429423 1.04693
-0.099059 -0.429164 1.08405
-0.159666 -0.428924 1.0448
-0.0629687 -0.428713 1.08396
-0.142417 -0.428493 1.03513
-0.148396 -0.428338 1.02246
-0.222836 -0.428084 0.976481
-0.232935 -0.427835 0.962633
-0.160399 -0.427696 0.989103
-0.243079 -0.427537 0.938152
-0.0825246 -0.42731 1.00946
-0.135009 -0.427192 0.973252
-0.200292 -0.426975 0.931562
-0.196896 -0.426868 0.923207
-0.110847 -0.426663 0.957098
-0.17144 -0.426566 0.916662
-0.174899 -0.426475 0.904748
-0.12822 -0.426308 0.918621
-0.200165 -0.426232 0.872327
-0.144712 -0.42606 0.890651
-0.160997 -0.425995 0.872097
-0.153862 -0.42588 0.865729
-0.131126 -0.42583 0.866546
-0.188695 -0.425785 0.827165
-0.198623 -0.425645 0.812524
-0.0997766 -0.425582 0.851543
-0.116488 -0.425557 0.832407
-0.185011 -0.425537 0.78732
-0.0568898 -0.425512 0.840608
-0.0963891 -0.425507 0.809896
-0.118231 -0.425506 0.787968
-0.04103 -0.425517 0.815438
-0.0462704 -0.42553 0.801679
-0.081298 -0.425568 0.772775
-0.124746 -0.425593 0.739783
-0.0574091 -0.425753 0.76085
-0.0838371 -0.425832 0.735836
-0.0949228 -0.425877 0.718822
-0.0726934 -0.42613 0.716393
-0.0753743 -0.426347 0.701851
-0.161714 -0.426576 0.645346
-0.0223254 -0.427163 0.698097
0.0464401 -0.427789 0.715116
0.0590366 -0.429925 1.35659
-0.00874232 -0.428182 1.32616
0.0503146 -0.427155 1.35308
-0.00391212 -0.426336 1.32162
-0.0398193 -0.425526 1.29929
0.0454492 -0.425028 1.33489
-0.0913407 -0.424239 1.26201
-0.121126 -0.423651 1.24093
-0.0242877 -0.423177 1.28219
-0.103533 -0.422606 1.23628
-0.03451 -0.422152 1.26351
0.00987508 -0.421769 1.27782
-0.115982 -0.421331 1.20751
-0.049563 -0.420799 1.2342
-0.0799405 -0.420386 1.21146
-0.13277 -0.420026 1.17705
-0.131331 -0.419633 1.17007
-0.0429139 -0.41939 1.20527
-0.138857 -0.419044 1.14922
-0.121918 -0.418682 1.14978
-0.197117 -0.418349 1.10403
-0.100416 -0.41801 1.1443
-0.135402 -0.41769 1.11856
-0.142847 -0.417479 1.10562
-0.134895 -0.417168 1.10131
-0.147619 -0.416861 1.08663
-0.195962 -0.416664 1.05315
-0.188076 -0.416387 1.04854
-0.158876 -0.4161 1.05469
-0.105106 -0.415921 1.07213
-0.139912 -0.415644 1.04622
-0.146093 -0.415414 1.03419
-0.16856 -0.415254 1.01336
-0.104195 -0.414998 1.03688
-0.0644232 -0.414806 1.04749
-0.268652 -0.414602 0.936239
-0.189152 -0.414431 0.966548
-0.129084 -0.414301 0.986749
-0.209014 -0.414076 0.937877
-0.107589 -0.413856 0.979643
-0.10849 -0.413743 0.969233
-0.125881 -0.413632 0.950563
-0.193275 -0.413431 0.907766
-0.190599 -0.413333 0.899015
-0.170805 -0.413152 0.899631
-0.132855 -0.41307 0.908381
-0.194358 -0.412893 0.868332
-0.10624 -0.41282 0.902075
-0.109138 -0.412753 0.890265
-0.0976171 -0.412634 0.886182
-0.0919276 -0.412483 0.879499
-0.125849 -0.412436 0.851992
-0.109581 -0.412394 0.849534
-0.138608 -0.412324 0.824705
-0.104182 -0.412199 0.832159
-0.171063 -0.412176 0.787941
-0.165235 -0.412158 0.780032
-0.0886041 -0.412136 0.807568
-0.0940144 -0.412132 0.793904
-0.0346068 -0.412132 0.812603
-0.0328968 -0.412145 0.802319
-0.0653156 -0.412158 0.774973
-0.0490633 -0.412197 0.7717
-0.167869 -0.412223 0.701032
-0.110604 -0.412285 0.718014
-0.0937605 -0.412323 0.715047
-0.119082 -0.412502 0.689529
-0.0225239 -0.412601 0.725769
0.0305379 -0.412808 0.739148
-0.0892176 -0.413093 0.665287
-0.0193623 -0.413328 0.686736
-0.0163764 -0.413746 0.672832
0.0819533 -0.415195 0.695786
0.0275163 -0.416177 1.33212
0.0232666 -0.414488 1.33351
-0.0343207 -0.413493 1.30215
-0.0232984 -0.4127 1.30334
-0.0297062 -0.412106 1.29409
-0.0476704 -0.411433 1.27979
-0.082074 -0.410669 1.25814
-0.063546 -0.410279 1.25961
-0.0801546 -0.409641 1.24578
-0.140441 -0.409259 1.20782
-0.0949961 -0.408816 1.22332
-0.0935072 -0.408278 1.21771
-0.0175053 -0.407855 1.24835
-0.0858856 -0.407492 1.20625
-0.114954 -0.407087 1.18423
-0.0919227 -0.406734 1.18779
-0.177943 -0.406349 1.13715
-0.0844113 -0.406006 1.17591
-0.0778811 -0.405642 1.17139
-0.114545 -0.405311 1.14498
-0.0988661 -0.404969 1.14486
-0.0987579 -0.404753 1.1358
-0.122613 -0.404438 1.11569
-0.131914 -0.404128 1.10283
-0.139593 -0.403925 1.08979
-0.203111 -0.403624 1.04977
-0.155975 -0.40334 1.06493
-0.170241 -0.403073 1.04924
-0.190717 -0.402871 1.02983
-0.124829 -0.402622 1.05407
-0.0797536 -0.402391 1.06775
-0.0750104 -0.402191 1.06098
-0.122844 -0.401932 1.02849
-0.0898676 -0.401779 1.0354
-0.0966194 -0.401531 1.02338
-0.139542 -0.401348 0.992646
-0.0932836 -0.401214 1.00603
-0.113286 -0.400986 0.987226
-0.0830753 -0.400862 0.992507
-0.0722408 -0.400644 0.989038
-0.187661 -0.400519 0.921527
-0.179085 -0.400323 0.916738
-0.16925 -0.400218 0.911672
-0.181062 -0.40012 0.895718
