ply
format ascii 1.0
comment Created by Open3D
element vertex 1669
property double x
property double y
property double z
end_header
-0.132102 -0.453297 0.961766
-0.129714 -0.453203 0.952718
-0.127206 -0.453115 0.943684
-0.126257 -0.452956 0.934508
-0.125718 -0.452777 0.925299
-0.122732 -0.452712 0.916324
-0.119627 -0.452651 0.907363
-0.117486 -0.452547 0.898317
-0.114032 -0.452503 0.889393
-0.110463 -0.452464 0.880481
-0.1074 -0.452402 0.871526
-0.10349 -0.452379 0.862648
-0.0997552 -0.452348 0.853755
-0.095515 -0.45234 0.844907
-0.0911669 -0.452337 0.836069
-0.0865691 -0.452345 0.827251
-0.0819056 -0.452356 0.818438
-0.0744359 -0.452495 0.809854
-0.0688328 -0.452549 0.801113
-0.0636779 -0.452583 0.792335
-0.0552712 -0.452764 0.783812
-0.0453431 -0.453015 0.775399
-0.0396599 -0.453072 0.76665
-0.0265509 -0.453467 0.758463
-0.0128046 -0.453891 0.750309
0.0056667 -0.454529 0.742487
0.0250149 -0.455206 0.734704
0.0465726 -0.456717 1.37393
0.02236 -0.455408 1.36084
0.00294919 -0.454319 1.34845
-0.0115788 -0.453452 1.33677
-0.0259152 -0.452594 1.32514
-0.0354739 -0.451955 1.31418
-0.0468446 -0.451233 1.30301
-0.0560184 -0.450612 1.29216
-0.0625217 -0.450112 1.28168
-0.0712957 -0.44951 1.27093
-0.077363 -0.449031 1.26055
-0.0817623 -0.448628 1.2504
-0.0874498 -0.448167 1.24011
-0.0928655 -0.447719 1.22987
-0.100452 -0.447173 1.21938
-0.104344 -0.446794 1.20936
-0.108988 -0.446382 1.19928
-0.110172 -0.446126 1.18962
-0.113726 -0.445764 1.17969
-0.117682 -0.445383 1.16973
-0.120959 -0.445034 1.15987
-0.124358 -0.44468 1.15001
-0.1249 -0.444454 1.14049
-0.127781 -0.444123 1.13072
-0.13056 -0.443798 1.12096
-0.133236 -0.443477 1.11124
-0.133366 -0.443271 1.10181
-0.135336 -0.442982 1.09219
-0.137574 -0.442682 1.08255
-0.137276 -0.442496 1.0732
-0.138379 -0.442247 1.06371
-0.140159 -0.441968 1.05415
-0.139413 -0.441802 1.04488
-0.140959 -0.441534 1.03537
-0.140924 -0.441337 1.02603
-0.139716 -0.441193 1.01683
-0.14078 -0.440947 1.0074
-0.139333 -0.440813 0.998233
-0.140152 -0.440579 0.988845
-0.138711 -0.440445 0.979692
-0.136789 -0.440334 0.970592
-0.137114 -0.440122 0.961277
-0.13495 -0.440021 0.952212
-0.132666 -0.439925 0.943163
-0.132619 -0.43973 0.933905
-0.131864 -0.439567 0.924723
-0.129099 -0.439494 0.915733
-0.126215 -0.439425 0.906758
-0.124509 -0.439305 0.897678
-0.121271 -0.439252 0.888742
-0.120241 -0.439102 0.879611
-0.116767 -0.43906 0.870701
-0.113888 -0.438992 0.861742
-0.110072 -0.438966 0.852866
-0.106144 -0.438944 0.844001
-0.102366 -0.438916 0.835124
-0.0981077 -0.438909 0.826288
-0.0937416 -0.438907 0.817461
-0.0891034 -0.438917 0.808657
-0.0844228 -0.438929 0.799856
-0.0791695 -0.438967 0.7911
-0.0712635 -0.439121 0.782551
-0.0660934 -0.439155 0.773783
-0.0598894 -0.439234 0.765093
-0.0510874 -0.439427 0.756597
-0.0419584 -0.439635 0.748118
-0.0310093 -0.439924 0.739765
-0.0211318 -0.440164 0.731322
-0.00692724 -0.440596 0.723182
0.022962 -0.441718 0.716144
0.043692 -0.442955 1.36374
0.0242249 -0.441894 1.35132
0.00476798 -0.440835 1.33895
-0.0145053 -0.439785 1.32666
-0.0242478 -0.439156 1.31566
-0.0359211 -0.438442 1.30444
-0.0453548 -0.437828 1.29355
-0.0546292 -0.437221 1.2827
-0.0654579 -0.436546 1.27168
-0.0701121 -0.436143 1.26147
-0.0762839 -0.435674 1.25109
-0.0847079 -0.435106 1.24045
-0.0903814 -0.434659 1.23018
-0.0945949 -0.434277 1.2201
-0.0998432 -0.43385 1.20991
-0.103832 -0.433479 1.1999
-0.108615 -0.433073 1.18981
-0.113074 -0.432681 1.17977
-0.116637 -0.43233 1.16986
-0.12057 -0.431962 1.15992
-0.123855 -0.431623 1.15007
-0.124584 -0.431396 1.14053
-0.127766 -0.431062 1.13072
-0.13067 -0.43074 1.12095
-0.131102 -0.430527 1.11148
-0.133668 -0.43022 1.10178
-0.136241 -0.429914 1.09209
-0.138181 -0.429636 1.08249
-0.138615 -0.429423 1.07306
-0.140115 -0.429164 1.06352
-0.141187 -0.428924 1.05404
-0.141599 -0.428713 1.04465
-0.142213 -0.428493 1.03524
-0.141343 -0.428338 1.02599
-0.142771 -0.428084 1.01651
-0.144077 -0.427835 1.00706
-0.142852 -0.427696 0.997877
-0.142078 -0.427537 0.988652
-0.142896 -0.42731 0.979276
-0.141198 -0.427192 0.970158
-0.141768 -0.426975 0.960824
-0.139827 -0.426868 0.951741
-0.140149 -0.426663 0.942447
-0.137965 -0.426566 0.933399
-0.135661 -0.426475 0.924367
-0.135111 -0.426308 0.915176
-0.132448 -0.426232 0.906185
-0.132024 -0.42606 0.896995
-0.12912 -0.425995 0.888036
-0.127368 -0.42588 0.878976
-0.12411 -0.42583 0.870054
-0.120737 -0.425785 0.861145
-0.119579 -0.425645 0.852046
-0.116655 -0.425582 0.843104
-0.112819 -0.425557 0.834242
-0.108871 -0.425537 0.82539
-0.105049 -0.425512 0.816528
-0.100772 -0.425507 0.807705
-0.0963866 -0.425506 0.798891
-0.0917066 -0.425517 0.7901
-0.087008 -0.42553 0.78131
-0.0817147 -0.425568 0.772566
-0.0767166 -0.425593 0.763798
-0.0685736 -0.425753 0.755268
-0.0623342 -0.425832 0.746588
-0.0568754 -0.425877 0.737846
-0.0465624 -0.42613 0.729458
-0.0370768 -0.426347 0.721
-0.0273 -0.426576 0.712553
-0.0091454 -0.427163 0.704687
0.00992816 -0.427789 0.69686
0.0574747 -0.429925 1.35581
0.021271 -0.428182 1.34116
0.00179953 -0.427155 1.32882
-0.0128086 -0.426336 1.31717
-0.0272394 -0.425526 1.30558
-0.0343724 -0.425028 1.29498
-0.0483477 -0.424239 1.28351
-0.0576312 -0.423651 1.27268
-0.0642167 -0.423177 1.26222
-0.0731118 -0.422606 1.25149
-0.0792728 -0.422152 1.24113
-0.0837727 -0.421769 1.231
-0.0895619 -0.421331 1.22072
-0.0975836 -0.420799 1.21019
-0.102815 -0.420386 1.20002
-0.106815 -0.420026 1.19002
-0.111579 -0.419633 1.17995
-0.112842 -0.41939 1.17031
-0.116509 -0.419044 1.16039
-0.120592 -0.418682 1.15045
-0.123983 -0.418349 1.1406
-0.127515 -0.41801 1.13075
-0.130614 -0.41769 1.12096
-0.131142 -0.417479 1.11148
-0.134039 -0.417168 1.10174
-0.136832 -0.416861 1.09203
-0.137051 -0.416664 1.08261
-0.139163 -0.416387 1.073
-0.141522 -0.4161 1.06337
-0.141314 -0.415921 1.05403
-0.143447 -0.415644 1.04445
-0.144466 -0.415414 1.035
-0.143812 -0.415254 1.02573
-0.145478 -0.414998 1.01623
-0.145594 -0.414806 1.00691
-0.146019 -0.414602 0.997556
-0.145664 -0.414431 0.988292
-0.14431 -0.414301 0.979136
-0.145249 -0.414076 0.969759
-0.146064 -0.413856 0.960405
-0.144347 -0.413743 0.951305
-0.142576 -0.413632 0.942215
-0.142953 -0.413431 0.932927
-0.140873 -0.413333 0.923878
-0.140766 -0.413152 0.914651
-0.138326 -0.41307 0.905646
-0.138143 -0.412893 0.896439
-0.13546 -0.41282 0.887465
-0.132658 -0.412753 0.878505
-0.131105 -0.412634 0.869438
-0.130304 -0.412483 0.860311
-0.127026 -0.412436 0.851404
-0.123631 -0.412394 0.842509
-0.120898 -0.412324 0.83356
-0.119493 -0.412199 0.824503
-0.115637 -0.412176 0.815655
-0.111668 -0.412158 0.806816
-0.107801 -0.412136 0.79797
-0.103504 -0.412132 0.789159
-0.099099 -0.412132 0.780357
-0.0943754 -0.412145 0.77158
-0.0896581 -0.412158 0.762802
-0.0843234 -0.412197 0.75407
-0.0793076 -0.412223 0.745312
-0.0733922 -0.412285 0.73662
-0.0680938 -0.412323 0.72788
-0.059365 -0.412502 0.719387
-0.0525653 -0.412601 0.710748
-0.043186 -0.412808 0.702286
-0.0318928 -0.413093 0.693949
-0.0218024 -0.413328 0.685516
-0.00729448 -0.413746 0.677373
0.0321346 -0.415195 0.670877
0.0545058 -0.416177 1.34561
0.0182681 -0.414488 1.33101
-0.00121736 -0.413493 1.3187
-0.0158388 -0.4127 1.30707
-0.0256662 -0.412106 1.29611
-0.0374106 -0.411433 1.28492
-0.0513867 -0.410669 1.27348
-0.0563253 -0.410279 1.26322
-0.0672567 -0.409641 1.25223
-0.0720056 -0.409259 1.24204
-0.0782683 -0.408816 1.23168
-0.086821 -0.408278 1.22106
-0.092596 -0.407855 1.2108
-0.096913 -0.407492 1.20074
-0.10227 -0.407087 1.19057
-0.106366 -0.406734 1.18057
-0.111265 -0.406349 1.17049
-0.115117 -0.406006 1.16056
-0.11952 -0.405642 1.15057
-0.123108 -0.405311 1.1407
-0.126978 -0.404969 1.13081
-0.127791 -0.404753 1.12128
-0.130999 -0.404438 1.11149
-0.13411 -0.404128 1.10173
-0.134626 -0.403925 1.09227
-0.137531 -0.403624 1.08256
-0.140021 -0.40334 1.0729
-0.142103 -0.403073 1.06331
-0.142602 -0.402871 1.05389
-0.144247 -0.402622 1.04436
-0.145465 -0.402391 1.03489
-0.14594 -0.402191 1.02551
-0.147842 -0.401932 1.01599
-0.147172 -0.401779 1.00675
-0.148838 -0.401531 0.997271
-0.148897 -0.401348 0.987968
-0.147764 -0.401214 0.978793
-0.148946 -0.400986 0.969396
-0.147574 -0.400862 0.960258
-0.14851 -0.400644 0.950903
-0.147161 -0.400519 0.941777
-0.147583 -0.400323 0.932489
-0.145751 -0.400218 0.923421
-0.143749 -0.40012 0.914374
-0.143846 -0.399937 0.905139
-0.143907 -0.399756 0.895915
-0.141445 -0.399677 0.886927
-0.138865 -0.399603 0.877953
-0.13855 -0.399437 0.868782
-0.135727 -0.399373 0.859838
-0.134125 -0.39926 0.850792
-0.132097 -0.399164 0.841787
-0.130014 -0.39907 0.832791
-0.126597 -0.399031 0.82391
-0.123816 -0.398965 0.81498
-0.12177 -0.39887 0.805992
-0.118523 -0.398824 0.797105
-0.114533 -0.398808 0.78828
-0.110619 -0.398788 0.779449
-0.108626 -0.398691 0.77047
-0.104196 -0.398693 0.761683
-0.0996618 -0.398698 0.752903
-0.0950234 -0.398708 0.744132
-0.0898363 -0.39874 0.7354
-0.0848956 -0.398762 0.726649
-0.07912 -0.398817 0.717957
-0.0729706 -0.398888 0.70929
-0.0641864 -0.399064 0.700805
-0.0586073 -0.399111 0.692089
-0.0479157 -0.399364 0.683722
-0.042018 -0.399424 0.675019
-0.0281957 -0.399801 0.666843
-0.0160457 -0.400112 0.658539
0.00319753 -0.400706 0.650683
0.0561928 -0.402635 1.33605
0.0247274 -0.401193 1.32212
0.000444707 -0.400039 1.30921
-0.0142392 -0.399269 1.29759
-0.0241311 -0.398692 1.28663
-0.0359517 -0.398038 1.27546
-0.05004 -0.397295 1.26402
-0.056883 -0.396841 1.25354
-0.0660946 -0.396293 1.24278
-0.0725654 -0.395855 1.23239
-0.081359 -0.395325 1.22173
-0.0859569 -0.394963 1.21161
-0.0918449 -0.394549 1.20135
-0.0974714 -0.394146 1.19115
-0.105342 -0.393654 1.18069
-0.106923 -0.393413 1.17101
-0.114328 -0.392941 1.16065
-0.11567 -0.39271 1.15102
-0.119446 -0.392382 1.14112
-0.123653 -0.392038 1.13119
-0.127157 -0.391721 1.12135
-0.130819 -0.391399 1.11151
-0.131531 -0.391194 1.10202
-0.134645 -0.390894 1.09227
-0.137657 -0.390599 1.08254
-0.140332 -0.390317 1.07287
-0.140872 -0.390119 1.06344
-0.143569 -0.389837 1.05379
-0.1456 -0.389581 1.04422
-0.145482 -0.38941 1.03489
-0.147732 -0.389146 1.02533
-0.147391 -0.388985 1.01604
-0.149411 -0.38873 1.00652
-0.150118 -0.388528 0.997141
-0.150626 -0.388333 0.987795
-0.150868 -0.388149 0.978484
-0.150663 -0.387983 0.969227
-0.151139 -0.38779 0.95991
-0.152317 -0.38757 0.950536
-0.150925 -0.387451 0.941417
-0.149764 -0.387323 0.932283
-0.150221 -0.387132 0.923002
-0.148577 -0.387023 0.913926
-0.149008 -0.386833 0.904665
-0.147026 -0.386738 0.895632
-0.147074 -0.386563 0.88642
-0.144715 -0.386483 0.877432
-0.144642 -0.386313 0.868245
-0.142039 -0.386243 0.859288
-0.141715 -0.386083 0.850137
-0.138869 -0.386023 0.841209
-0.137217 -0.385915 0.832183
-0.134015 -0.385869 0.823291
-0.133072 -0.385734 0.814216
-0.129633 -0.385696 0.80535
-0.128446 -0.385571 0.796305
-0.124771 -0.385543 0.787463
-0.121475 -0.3855 0.778594
-0.117463 -0.385486 0.769782
-0.115685 -0.385384 0.760799
-0.111449 -0.385378 0.752007
-0.107105 -0.385376 0.743224
-0.102488 -0.385385 0.734461
-0.0978291 -0.385395 0.725701
-0.0953872 -0.385319 0.71678
-0.0899464 -0.38536 0.708077
-0.0848851 -0.385386 0.699345
-0.0788695 -0.38545 0.690679
-0.0701997 -0.385616 0.682191
-0.0634803 -0.385706 0.673564
-0.0577983 -0.385756 0.664863
-0.048317 -0.385953 0.65641
-0.0408103 -0.386074 0.64782
-0.0267112 -0.38645 0.639647
-0.0100515 -0.386925 0.631618
0.0118901 -0.387603 0.623895
0.0531259 -0.388918 1.32587
0.0289366 -0.387806 1.31294
0.00679946 -0.386773 1.30033
-0.010115 -0.385944 1.28844
-0.0247115 -0.385205 1.27689
-0.039091 -0.384474 1.26541
-0.0487217 -0.383928 1.25457
-0.0556406 -0.383487 1.24409
-0.0692355 -0.382788 1.2328
-0.0740763 -0.382428 1.22263
-0.0804272 -0.38201 1.21229
-0.086552 -0.381601 1.202
-0.0949788 -0.381104 1.19145
-0.0993966 -0.380761 1.1814
-0.10486 -0.380379 1.17125
-0.10906 -0.380045 1.16127
-0.114072 -0.379681 1.15121
-0.118031 -0.379357 1.14128
-0.122554 -0.379012 1.13131
-0.123721 -0.378796 1.12174
-0.127328 -0.378486 1.11191
-0.131143 -0.378169 1.10206
-0.134463 -0.377871 1.09229
-0.137708 -0.377577 1.08254
-0.138288 -0.377384 1.07309
-0.141307 -0.377099 1.06339
-0.143934 -0.376828 1.05375
-0.144515 -0.376636 1.04434
-0.146718 -0.376383 1.03476
-0.148505 -0.376145 1.02524
-0.149062 -0.375955 1.01587
-0.151314 -0.3757 1.00632
-0.151313 -0.375531 0.99702
-0.151843 -0.375342 0.987673
-0.153625 -0.375106 0.97821
-0.152812 -0.374968 0.969015
-0.154354 -0.374742 0.959597
-0.153304 -0.374614 0.950441
-0.154601 -0.374396 0.941066
-0.153859 -0.374257 0.931895
-0.154361 -0.37407 0.922614
-0.153138 -0.373949 0.913503
-0.151371 -0.373849 0.904448
-0.151921 -0.373661 0.895187
-0.149958 -0.373569 0.886161
-0.150208 -0.373392 0.876943
-0.150378 -0.373219 0.86774
-0.147996 -0.373143 0.858769
-0.147914 -0.372979 0.849602
-0.145287 -0.372912 0.840661
-0.142542 -0.37285 0.831734
-0.142082 -0.372701 0.822618
-0.139094 -0.372648 0.813719
-0.137153 -0.372556 0.804737
-0.136197 -0.372426 0.795679
-0.132735 -0.372391 0.786828
-0.131534 -0.372271 0.777801
-0.127837 -0.372245 0.768974
-0.124488 -0.372206 0.760121
-0.122467 -0.372117 0.751169
-0.118662 -0.372095 0.742356
-0.114404 -0.37209 0.733577
-0.112384 -0.372001 0.724635
-0.107906 -0.372005 0.715874
-0.103023 -0.372023 0.707143
-0.0982361 -0.372039 0.698404
-0.0927485 -0.37208 0.689712
-0.090685 -0.371993 0.680784
-0.0848027 -0.372049 0.672119
-0.0795298 -0.372082 0.66341
-0.0730987 -0.372159 0.654776
-0.0640305 -0.372335 0.64631
-0.056934 -0.372436 0.637708
-0.0472504 -0.372634 0.629266
-0.0395592 -0.372758 0.620689
-0.0293317 -0.372976 0.612263
-0.0103227 -0.373523 0.604357
0.0139711 -0.374266 0.596739
0.0712125 -0.376011 1.31847
0.0305407 -0.374322 1.30341
0.0109512 -0.373421 1.29116
-0.00858355 -0.372523 1.27896
-0.0232507 -0.371807 1.26743
-0.0377196 -0.371099 1.25595
-0.0474323 -0.370569 1.24511
-0.0588307 -0.369976 1.23409
-0.0681504 -0.369461 1.22336
-0.0747039 -0.36905 1.21299
-0.0836168 -0.368551 1.20235
-0.0883099 -0.36821 1.19225
-0.0942942 -0.367821 1.18201
-0.0987979 -0.367487 1.17197
-0.104383 -0.367114 1.16182
-0.109684 -0.366751 1.15172
-0.113816 -0.366432 1.14177
-0.11865 -0.366087 1.13176
-0.122534 -0.365778 1.12188
-0.126331 -0.365472 1.11202
-0.130476 -0.365154 1.10214
-0.131457 -0.364952 1.09262
-0.134883 -0.364661 1.08285
-0.138286 -0.364371 1.07309
-0.141412 -0.364091 1.06338
-0.142033 -0.363904 1.05395
-0.144825 -0.363638 1.0443
-0.147216 -0.363386 1.03471
-0.147815 -0.3632 1.02532
-0.150407 -0.362941 1.01573
-0.150369 -0.362779 1.00642
-0.152736 -0.362529 0.996876
-0.154023 -0.362319 0.987454
-0.153542 -0.362174 0.978219
-0.155442 -0.361942 0.968756
-0.154729 -0.361806 0.959561
-0.156388 -0.361583 0.950143
-0.156307 -0.361424 0.940903
-0.156855 -0.361241 0.931611
-0.156298 -0.3611 0.922433
-0.156836 -0.360919 0.91316
-0.155798 -0.360796 0.904041
-0.154301 -0.360689 0.89497
-0.154802 -0.360509 0.885725
-0.155343 -0.360329 0.876485
-0.153399 -0.360239 0.867474
-0.153597 -0.360071 0.85828
-0.151317 -0.359994 0.849309
-0.151351 -0.359832 0.840144
-0.148825 -0.359764 0.831204
-0.148605 -0.359611 0.822074
-0.145836 -0.359552 0.813163
-0.145363 -0.35941 0.804067
-0.14235 -0.359359 0.795183
-0.141627 -0.359226 0.786119
-0.138374 -0.359185 0.777262
-0.135899 -0.359115 0.768346
-0.134684 -0.359 0.759336
-0.130963 -0.358976 0.750523
-0.129507 -0.35887 0.741541
-0.125554 -0.358854 0.73275
-0.123861 -0.358757 0.723793
-0.119683 -0.358749 0.715022
-0.115396 -0.358746 0.706259
-0.113231 -0.358666 0.697346
-0.108621 -0.358674 0.688607
-0.103909 -0.358686 0.679875
-0.0985604 -0.358721 0.671186
-0.095879 -0.35866 0.662316
-0.0907679 -0.358687 0.65361
-0.0846434 -0.35875 0.644969
-0.0792559 -0.358786 0.636277
-0.0725981 -0.358869 0.627663
-0.0669527 -0.358914 0.618982
-0.0598 -0.359014 0.610392
-0.050055 -0.359208 0.601953
-0.0382611 -0.359475 0.593627
-0.0320339 -0.359542 0.58496
-0.0108042 -0.360149 0.577157
0.0160526 -0.360958 0.569644
0.0273505 -0.360675 1.29327
0.00774142 -0.359806 1.28105
-0.0118046 -0.358939 1.26888
-0.0264823 -0.358249 1.25737
-0.0363811 -0.357731 1.2465
-0.0461722 -0.357217 1.23566
-0.0576681 -0.356642 1.22465
-0.0670864 -0.356143 1.21392
-0.0737287 -0.355743 1.20355
-0.0827557 -0.355259 1.19292
-0.0889716 -0.354875 1.18265
-0.0936189 -0.354548 1.17258
-0.0994612 -0.354178 1.1624
-0.107608 -0.353727 1.15196
-0.109335 -0.353505 1.14229
-0.11356 -0.353194 1.13234
-0.118528 -0.352857 1.12233
-0.122509 -0.352556 1.11245
-0.126981 -0.352237 1.10253
-0.130696 -0.351946 1.09271
-0.134636 -0.351646 1.08287
-0.135292 -0.351464 1.07342
-0.138851 -0.351179 1.06366
-0.142084 -0.350906 1.05395
-0.145057 -0.350642 1.04428
-0.145698 -0.350462 1.03487
-0.148618 -0.3502 1.02523
-0.148892 -0.350033 1.01588
-0.151596 -0.349779 1.00629
-0.153503 -0.349555 0.996798
-0.153347 -0.349403 0.987522
-0.155597 -0.349167 0.978014
-0.156628 -0.348973 0.96864
-0.157231 -0.348795 0.959317
-0.157801 -0.348619 0.950007
-0.158395 -0.348442 0.940703
-0.160049 -0.348227 0.931309
-0.15908 -0.348105 0.922172
-0.158706 -0.347963 0.912987
-0.159279 -0.347787 0.903721
-0.158426 -0.347662 0.894595
-0.159337 -0.347474 0.885317
-0.157651 -0.347378 0.87628
-0.158309 -0.3472 0.867041
-0.156384 -0.347113 0.858037
-0.156782 -0.346944 0.848838
-0.154851 -0.346857 0.839846
-0.154753 -0.346706 0.830703
-0.152816 -0.34662 0.821723
-0.152224 -0.346486 0.812635
-0.15199 -0.34634 0.803526
-0.149196 -0.346285 0.794631
-0.148709 -0.346148 0.785555
-0.145671 -0.3461 0.776687
-0.144932 -0.345973 0.767642
-0.141653 -0.345934 0.7588
-0.140666 -0.345815 0.749785
-0.137149 -0.345785 0.740967
-0.135916 -0.345675 0.731981
-0.132674 -0.345635 0.723148
-0.128696 -0.345621 0.71437
-0.126987 -0.345528 0.705431
-0.125159 -0.345439 0.696505
-0.120842 -0.345437 0.687757
-0.116419 -0.345439 0.679016
-0.114251 -0.345362 0.670122
-0.109613 -0.345371 0.661398
-0.10675 -0.345318 0.652556
-0.101805 -0.345338 0.643852
-0.0967624 -0.345362 0.635154
-0.0907648 -0.345419 0.626515
-0.0854419 -0.345452 0.61783
-0.0823504 -0.345407 0.609007
-0.0756291 -0.345489 0.600406
-0.0699565 -0.345534 0.591738
-0.0589157 -0.345766 0.583383
-0.052937 -0.345822 0.574723
-0.0451449 -0.34594 0.566163
-0.0348092 -0.346147 0.55774
-0.0178479 -0.346584 0.54967
0.0021283 -0.347125 0.541742
0.0409029 -0.347627 1.28529
0.00922655 -0.346373 1.27155
-0.0103672 -0.345538 1.2594
-0.0251111 -0.344871 1.24791
-0.0350762 -0.34437 1.23704
-0.046862 -0.343807 1.22598
-0.0565305 -0.343317 1.21521
-0.0660439 -0.342833 1.20448
-0.0727718 -0.342445 1.19412
-0.0819094 -0.341975 1.18349
-0.0882259 -0.341602 1.17322
-0.0929535 -0.341285 1.16316
-0.0989072 -0.340925 1.15297
-0.10719 -0.340486 1.14254
-0.108988 -0.34027 1.13287
-0.116832 -0.339847 1.12252
-0.118404 -0.339639 1.11291
-0.12248 -0.339346 1.10303
-0.127092 -0.339034 1.0931
-0.130907 -0.33875 1.08328
-0.134996 -0.338457 1.07345
-0.13853 -0.338184 1.06369
-0.139402 -0.338001 1.05423
-0.142741 -0.337735 1.04452
-0.145876 -0.337475 1.03485
-0.146553 -0.3373 1.02545
-0.149583 -0.337045 1.01581
-0.15209 -0.336808 1.00624
-0.152765 -0.336633 0.996873
-0.154842 -0.336411 0.987372
-0.1565 -0.336204 0.977925
-0.157147 -0.336031 0.968589
-0.158355 -0.335839 0.959207
-0.158994 -0.335666 0.949891
-0.161006 -0.335447 0.940454
-0.160373 -0.335319 0.931279
-0.162144 -0.335108 0.921885
-0.161275 -0.334988 0.912748
-0.1628 -0.334786 0.903398
-0.162364 -0.334651 0.894237
-0.161022 -0.334547 0.885165
-0.162051 -0.334363 0.875888
-0.160466 -0.334267 0.866851
-0.161242 -0.334092 0.857614
-0.159411 -0.334005 0.848611
-0.15998 -0.333837 0.839408
-0.15802 -0.333754 0.830428
-0.15841 -0.333593 0.821256
-0.156202 -0.333519 0.812307
-0.156337 -0.333366 0.803171
-0.155688 -0.333239 0.794107
-0.153761 -0.333156 0.785152
-0.152618 -0.333047 0.776139
-0.150684 -0.332964 0.767194
-0.149051 -0.332872 0.75823
-0.148296 -0.332749 0.749205
-0.144991 -0.332713 0.740378
-0.143987 -0.3326 0.731382
-0.140444 -0.332572 0.722578
-0.139193 -0.332467 0.71361
-0.137819 -0.332366 0.704657
-0.133923 -0.33235 0.695886
-0.132308 -0.332257 0.686958
-0.128184 -0.332249 0.678208
-0.126335 -0.332164 0.669303
-0.121988 -0.332163 0.660571
-0.119909 -0.332087 0.651688
-0.115345 -0.332093 0.642972
-0.112632 -0.332038 0.634136
-0.107757 -0.332055 0.62544
-0.102784 -0.332075 0.616749
-0.10006 -0.33202 0.60792
-0.0948893 -0.332047 0.599241
-0.0886367 -0.332111 0.590625
-0.0820296 -0.332186 0.582026
-0.0799879 -0.332108 0.57316
-0.0730335 -0.332195 0.564577
-0.0657601 -0.332292 0.556007
-0.0598257 -0.332344 0.547359
-0.0480411 -0.332592 0.539024
-0.037649 -0.332793 0.530602
-0.0249669 -0.333071 0.522289
-0.0140415 -0.333289 0.513871
0.0423368 -0.334153 1.27576
0.0180282 -0.333192 1.26298
-0.00425171 -0.3323 1.25052
-0.0190992 -0.331656 1.23902
-0.0311754 -0.331104 1.22791
-0.0456666 -0.330473 1.21654
-0.0554184 -0.33 1.20577
-0.0623978 -0.329618 1.19537
-0.0761091 -0.329014 1.18418
-0.0810783 -0.328701 1.17407
-0.0874923 -0.328339 1.1638
-0.0922982 -0.328032 1.15374
-0.102232 -0.327555 1.14311
-0.106776 -0.327256 1.13312
-0.112306 -0.326925 1.12304
-0.116631 -0.326635 1.11311
-0.121709 -0.32632 1.10311
-0.123198 -0.326123 1.09354
-0.127197 -0.325844 1.08369
-0.13111 -0.325568 1.07387
-0.135346 -0.325282 1.06404
-0.138982 -0.325015 1.05428
-0.142668 -0.324747 1.04453
-0.143384 -0.324578 1.03511
-0.146728 -0.324322 1.02543
-0.147391 -0.324154 1.01604
-0.150529 -0.323905 1.0064
-0.153202 -0.323672 0.996829
-0.153913 -0.323503 0.987465
-0.156159 -0.323284 0.977959
-0.15799 -0.323079 0.968506
-0.158673 -0.322911 0.959176
-0.160056 -0.322721 0.949789
-0.160731 -0.322555 0.94048
-0.162857 -0.32234 0.931043
-0.162323 -0.322214 0.921868
-0.164209 -0.322008 0.912476
-0.16344 -0.321889 0.903339
-0.165081 -0.321691 0.89399
-0.164827 -0.321556 0.884823
-0.165466 -0.321391 0.875584
-0.164732 -0.321272 0.866476
-0.165358 -0.321108 0.857255
-0.164141 -0.321004 0.848203
-0.164753 -0.320841 0.839001
-0.163048 -0.320754 0.830003
-0.163646 -0.320591 0.820819
-0.16166 -0.320513 0.811857
-0.162035 -0.320358 0.802706
-0.159802 -0.320289 0.793775
-0.15992 -0.320142 0.784661
-0.15744 -0.320081 0.775759
-0.157302 -0.319943 0.766679
-0.157033 -0.31981 0.757616
-0.154181 -0.31976 0.748757
-0.153658 -0.319635 0.739727
-0.150562 -0.319594 0.730894
-0.149786 -0.319477 0.721893
-0.146449 -0.319444 0.713085
-0.145423 -0.319336 0.704113
-0.144271 -0.319232 0.695157
-0.140575 -0.31921 0.686383
-0.139178 -0.319114 0.677452
-0.135249 -0.3191 0.668699
-0.133612 -0.319012 0.659793
-0.129551 -0.319002 0.651052
-0.127583 -0.318925 0.642176
-0.123205 -0.318926 0.633458
-0.121103 -0.318853 0.624596
-0.11854 -0.318795 0.615768
-0.113734 -0.318809 0.60708
-0.111192 -0.318751 0.598254
-0.106183 -0.318772 0.589579
-0.101079 -0.318796 0.580908
-0.0982283 -0.318747 0.572106
-0.0919027 -0.318811 0.563504
-0.0887624 -0.318772 0.55472
-0.0831969 -0.31881 0.546072
-0.0761748 -0.318896 0.5375
-0.0703643 -0.318943 0.52886
-0.062875 -0.319043 0.520304
-0.0550987 -0.319153 0.511758
-0.0470555 -0.319271 0.503219
-0.0364799 -0.31947 0.494799
-0.0235486 -0.319744 0.486483
-0.00793516 -0.320105 0.47828
0.0603063 -0.321215 1.26831
0.0194246 -0.319764 1.25348
-0.000253131 -0.318991 1.24136
-0.0198391 -0.318222 1.22931
-0.0345534 -0.317608 1.21789
-0.0445006 -0.317147 1.20709
-0.0516906 -0.316775 1.19666
-0.0657829 -0.316183 1.18541
-0.0709143 -0.315876 1.17527
-0.077626 -0.31552 1.16496
-0.0867713 -0.315086 1.15439
-0.093062 -0.314744 1.14417
-0.101739 -0.314326 1.1337
-0.106367 -0.314037 1.12371
-0.112015 -0.313716 1.11363
-0.116429 -0.313434 1.1037
-0.121637 -0.313128 1.09371
-0.123202 -0.312937 1.08413
-0.130541 -0.312563 1.07393
-0.131856 -0.312381 1.06441
-0.135685 -0.312119 1.05463
-0.139422 -0.31186 1.04488
-0.14326 -0.311598 1.03513
-0.144117 -0.311431 1.0257
-0.147462 -0.311185 1.01603
-0.148213 -0.311022 1.00664
-0.151457 -0.31078 0.997005
-0.154293 -0.310551 0.987427
-0.156727 -0.310335 0.977902
-0.157453 -0.310172 0.968558
-0.159454 -0.30997 0.9591
-0.160173 -0.309809 0.949778
-0.16173 -0.309621 0.940385
-0.16244 -0.30946 0.931083
-0.16468 -0.309251 0.921648
-0.164244 -0.309126 0.912473
-0.166244 -0.308925 0.903082
-0.165574 -0.308808 0.893946
-0.167331 -0.308615 0.884598
-0.167258 -0.308479 0.875425
-0.167931 -0.30832 0.866194
-0.16738 -0.3082 0.857079
-0.168039 -0.308042 0.847867
-0.167005 -0.307937 0.838809
-0.16765 -0.30778 0.829615
-0.166129 -0.30769 0.820612
-0.166759 -0.307533 0.811436
-0.164874 -0.307455 0.802475
-0.165364 -0.307303 0.793327
-0.165723 -0.307155 0.784198
-0.163463 -0.307089 0.775284
-0.163564 -0.30695 0.766191
-0.161057 -0.306892 0.757306
-0.1609 -0.30676 0.748246
-0.158146 -0.30671 0.739389
-0.157734 -0.306587 0.730362
-0.155832 -0.30651 0.72145
-0.154067 -0.306429 0.712534
-0.153272 -0.306318 0.703552
-0.151358 -0.306242 0.694657
-0.14886 -0.306184 0.685806
-0.146938 -0.306109 0.676919
-0.145761 -0.30601 0.667986
-0.142545 -0.305974 0.659196
-0.14061 -0.305899 0.650323
-0.139065 -0.305812 0.641429
-0.135151 -0.305798 0.632692
-0.133203 -0.305724 0.623831
-0.128899 -0.305722 0.615122
-0.126883 -0.30565 0.606272
-0.124751 -0.305581 0.597434
-0.120117 -0.30559 0.588749
-0.117762 -0.305528 0.579929
-0.114697 -0.305489 0.571154
-0.109653 -0.30551 0.562494
-0.106872 -0.305462 0.553706
-0.101633 -0.305489 0.545057
-0.0986515 -0.305447 0.536283
-0.0932258 -0.30548 0.527642
-0.0887994 -0.305482 0.518947
-0.0831133 -0.305524 0.510316
-0.0773462 -0.305567 0.501687
-0.0699306 -0.305661 0.493138
-0.062222 -0.305765 0.484597
-0.0560868 -0.30582 0.475975
-0.0479757 -0.305935 0.467443
-0.0396226 -0.306058 0.458914
-0.0287663 -0.306257 0.450492
-0.0108817 -0.306673 0.44237
0.0328637 -0.306712 1.24547
0.00107226 -0.305601 1.23188
-0.0185661 -0.304863 1.21985
-0.0287045 -0.304415 1.20901
-0.0407081 -0.303911 1.19798
-0.0506143 -0.303471 1.18722
-0.0648189 -0.3029 1.17599
-0.0700145 -0.302605 1.16585
-0.0810579 -0.302132 1.15505
-0.0860631 -0.301843 1.14498
-0.0924526 -0.301512 1.13476
-0.101252 -0.301108 1.12429
-0.10332 -0.300909 1.11461
-0.111727 -0.300517 1.10423
-0.113592 -0.300325 1.0946
-0.121561 -0.299948 1.08431
-0.123202 -0.299763 1.07473
-0.130693 -0.2994 1.06454
-0.132088 -0.299223 1.05502
-0.136014 -0.298969 1.04524
-0.139851 -0.298718 1.03548
-0.143838 -0.298463 1.02573
-0.144781 -0.298301 1.01631
-0.148231 -0.298062 1.00664
-0.149017 -0.297904 0.997252
-0.152366 -0.297669 0.98762
-0.155363 -0.297445 0.978038
-0.155801 -0.297299 0.968721
-0.158724 -0.297077 0.959171
-0.160895 -0.296878 0.949708
-0.161648 -0.296722 0.940392
-0.163378 -0.296537 0.930994
-0.164123 -0.296382 0.9217
-0.166475 -0.296179 0.912266
-0.166136 -0.296056 0.903092
-0.16825 -0.295861 0.893702
-0.167678 -0.295745 0.884567
-0.169549 -0.295557 0.875221
-0.16874 -0.295449 0.866122
-0.170364 -0.295269 0.856819
-0.169994 -0.295148 0.847698
-0.170687 -0.294996 0.838495
-0.169835 -0.29489 0.829431
-0.170512 -0.294738 0.820246
-0.169175 -0.294647 0.811237
-0.169836 -0.294496 0.80207
-0.168051 -0.294418 0.79311
-0.168656 -0.294269 0.783964
-0.166797 -0.294194 0.775022
-0.167267 -0.294049 0.765902
-0.165102 -0.293984 0.756995
-0.165314 -0.293847 0.747911
-0.165393 -0.293714 0.738845
-0.162853 -0.29366 0.729982
-0.162674 -0.293535 0.720949
-0.162364 -0.293414 0.711933
-0.15945 -0.293371 0.703111
-0.158883 -0.293258 0.694126
-0.158187 -0.293149 0.685157
-0.154905 -0.293117 0.676372
-0.153955 -0.293015 0.667431
-0.150433 -0.292991 0.658668
-0.149234 -0.292897 0.649754
-0.147909 -0.292807 0.640853
-0.145994 -0.292735 0.631996
-0.142463 -0.29271 0.623246
-0.140772 -0.292631 0.614382
-0.138843 -0.29256 0.605538
-0.134622 -0.292556 0.596837
-0.132683 -0.292485 0.588
-0.130635 -0.292417 0.579174
-0.128469 -0.292352 0.570359
-0.123797 -0.292362 0.56169
-0.121408 -0.292304 0.552893
-0.118908 -0.292249 0.544105
-0.113922 -0.292268 0.535456
-0.11121 -0.29222 0.526684
-0.105093 -0.292273 0.518094
-0.103111 -0.292203 0.509287
-0.0989681 -0.292197 0.500594
-0.093415 -0.292233 0.491972
-0.0901166 -0.292202 0.483237
-0.0843916 -0.292243 0.47462
-0.0793717 -0.292263 0.465968
-0.0734098 -0.292311 0.457358
-0.0656144 -0.292412 0.448828
-0.0594422 -0.292466 0.440219
-0.0512512 -0.292579 0.431695
-0.0428234 -0.292699 0.423175
-0.0363525 -0.292761 0.414565
-0.023067 -0.293024 0.40623
0.00222086 -0.293638 0.398356
0.0341491 -0.293281 1.23596
0.0144868 -0.292574 1.22389
-0.00523716 -0.291865 1.21186
-0.024849 -0.29116 1.19988
-0.0395864 -0.290598 1.18854
-0.0540925 -0.290044 1.17726
-0.0594219 -0.289757 1.1671
-0.0708398 -0.289293 1.15624
-0.0802926 -0.288887 1.14564
-0.0853681 -0.288609 1.13557
-0.0918533 -0.28829 1.12536
-0.0967665 -0.288016 1.11535
-0.106787 -0.287595 1.10478
-0.11144 -0.28733 1.09484
-0.113374 -0.287144 1.08521
-0.121484 -0.286779 1.07492
-0.123197 -0.2866 1.06535
-0.127477 -0.286347 1.05551
-0.132311 -0.286078 1.04563
-0.136334 -0.285833 1.03585
-0.137635 -0.285666 1.02638
-0.141477 -0.285427 1.01665
-0.14543 -0.285184 1.00692
-0.148983 -0.284953 0.997256
-0.149817 -0.284801 0.987876
-0.153257 -0.284574 0.978247
-0.156413 -0.284355 0.968661
-0.156942 -0.284212 0.959345
-0.159973 -0.283997 0.949797
-0.162311 -0.283802 0.940329
-0.163099 -0.283653 0.931021
-0.164999 -0.283471 0.921618
-0.165778 -0.283321 0.91233
-0.167231 -0.283153 0.902991
-0.168 -0.283004 0.893725
-0.168995 -0.282849 0.884448
-0.169752 -0.282701 0.875203
-0.171736 -0.282518 0.865859
-0.171026 -0.282412 0.856761
-0.172763 -0.282236 0.84746
-0.171813 -0.282138 0.838399
-0.173299 -0.281969 0.829139
-0.172107 -0.281878 0.820113
-0.173339 -0.281717 0.810893
-0.171901 -0.281633 0.801901
-0.172877 -0.281479 0.792721
-0.171234 -0.281401 0.783758
-0.17191 -0.281257 0.774619
-0.170069 -0.281185 0.765684
-0.170653 -0.281043 0.756568
-0.171104 -0.280905 0.74747
-0.168911 -0.280843 0.738581
-0.169102 -0.280713 0.729518
-0.169161 -0.280587 0.720473
-0.166592 -0.280536 0.711627
-0.166391 -0.280418 0.702615
-0.164528 -0.280347 0.693728
-0.164192 -0.280232 0.684739
-0.161244 -0.280192 0.675936
-0.160651 -0.280085 0.666977
-0.159927 -0.279982 0.658033
-0.159074 -0.279882 0.649105
-0.155632 -0.279857 0.640351
-0.154527 -0.279765 0.631449
-0.150847 -0.279746 0.622716
-0.149494 -0.279661 0.613839
-0.148015 -0.279579 0.604975
-0.146109 -0.27951 0.596142
-0.144502 -0.279433 0.587296
-0.142772 -0.279359 0.578462
-0.138501 -0.279357 0.569779
-0.136535 -0.27929 0.560965
-0.13445 -0.279226 0.552163
-0.132249 -0.279165 0.543371
-0.129933 -0.279108 0.534589
-0.125112 -0.279122 0.525944
-0.122576 -0.279071 0.517178
-0.11993 -0.279023 0.508422
-0.114803 -0.279046 0.499794
-0.112843 -0.278979 0.491007
-0.108992 -0.278965 0.482316
-0.105934 -0.278929 0.473589
-0.100425 -0.278962 0.464979
-0.097177 -0.278932 0.456263
-0.0938346 -0.278904 0.447553
-0.0880641 -0.278944 0.438952
-0.0845461 -0.278922 0.430251
-0.078615 -0.278967 0.421654
-0.0731838 -0.278997 0.413033
-0.0670339 -0.279048 0.40444
-0.0588729 -0.279156 0.395923
-0.0548303 -0.279148 0.387239
-0.0484267 -0.279206 0.378646
-0.0352882 -0.279452 0.370299
-0.0217545 -0.27971 0.361951
-0.0103435 -0.279908 0.353512
0.0566535 -0.280451 1.22904
0.0157273 -0.279183 1.2144
-0.00874001 -0.278374 1.20182
-0.0236868 -0.277832 1.19044
-0.0384956 -0.277294 1.17911
-0.0485426 -0.276889 1.16837
-0.0557908 -0.276562 1.15799
-0.0699931 -0.276042 1.14683
-0.0752278 -0.275772 1.13673
-0.0820062 -0.275459 1.12648
-0.0912644 -0.275077 1.11597
-0.0976271 -0.274777 1.1058
-0.106421 -0.274409 1.09539
-0.108489 -0.274228 1.08574
-0.116882 -0.273871 1.07542
-0.118743 -0.273696 1.06583
-0.123189 -0.27345 1.05597
-0.127558 -0.273206 1.04613
-0.132527 -0.272946 1.03625
-0.136644 -0.272709 1.02648
-0.141108 -0.272463 1.01669
-0.141964 -0.272317 1.00728
-0.146065 -0.272081 0.997551
-0.149718 -0.271858 0.987886
-0.150639 -0.271711 0.978507
-0.154093 -0.271494 0.968889
-0.15723 -0.271285 0.959317
-0.158061 -0.271141 0.949981
-0.161198 -0.270933 0.940435
-0.161606 -0.2708 0.931162
-0.164524 -0.270599 0.921662
-0.166594 -0.270421 0.912255
-0.167407 -0.270278 0.902975
-0.169032 -0.270112 0.893631
-0.169834 -0.269969 0.884373
-0.171004 -0.269817 0.875091
-0.171795 -0.269674 0.865853
-0.172501 -0.269535 0.856633
-0.173279 -0.269393 0.847415
-0.173514 -0.269267 0.838253
-0.174277 -0.269126 0.829056
-0.174036 -0.269012 0.819952
-0.174784 -0.268872 0.810774
-0.17406 -0.268772 0.801725
-0.174792 -0.268633 0.792566
-0.175533 -0.268493 0.783416
-0.176617 -0.268344 0.774248
-0.17502 -0.268268 0.765298
-0.175845 -0.268127 0.756168
-0.173999 -0.268058 0.74725
-0.174563 -0.267924 0.738156
-0.172737 -0.267855 0.729248
-0.172772 -0.267735 0.720209
-0.170937 -0.267666 0.711313
-0.171103 -0.267543 0.702278
-0.171137 -0.267424 0.693262
-0.168532 -0.267376 0.684437
-0.168305 -0.267264 0.675451
-0.167946 -0.267156 0.666483
-0.166094 -0.267088 0.657621
-0.164349 -0.267017 0.648757
-0.162487 -0.26695 0.639905
-0.161734 -0.266853 0.630987
-0.160851 -0.266759 0.622083
-0.159839 -0.266669 0.613194
-0.156238 -0.266649 0.60447
-0.154974 -0.266565 0.595606
-0.153091 -0.266499 0.586784
-0.151697 -0.266419 0.577938
-0.150176 -0.266343 0.569104
-0.148531 -0.26627 0.560283
-0.144332 -0.266267 0.55161
-0.142449 -0.266201 0.542809
-0.140542 -0.266135 0.534014
-0.138533 -0.266073 0.525229
-0.136405 -0.266013 0.516454
-0.13416 -0.265957 0.507689
-0.131799 -0.265904 0.498934
-0.129325 -0.265854 0.490188
-0.12435 -0.265872 0.481568
-0.122413 -0.265807 0.4728
-0.118863 -0.265786 0.464113
-0.11596 -0.265748 0.455397
-0.110589 -0.265776 0.446796
-0.10863 -0.265713 0.438041
-0.105523 -0.26568 0.429341
-0.102317 -0.26565 0.420646
-0.0990147 -0.265623 0.411958
-0.0932763 -0.265661 0.403371
-0.0897944 -0.265638 0.394691
-0.0862238 -0.265618 0.386017
-0.0808291 -0.265647 0.377413
-0.0746989 -0.265695 0.368835
-0.0708106 -0.265683 0.360172
-0.0645427 -0.265735 0.351594
-0.0605125 -0.265728 0.342935
-0.051992 -0.26584 0.334428
-0.0432579 -0.265957 0.32592
-0.0343326 -0.26608 0.317411
-0.0276399 -0.266143 0.308824
-0.00421229 -0.266653 0.300737
0.0290362 -0.266121 1.20637
0.00458216 -0.265352 1.19381
-0.0178657 -0.264636 1.18155
-0.0300907 -0.264193 1.17054
-0.0448478 -0.263682 1.15927
-0.0593617 -0.263179 1.14806
-0.0647334 -0.262918 1.13794
-0.0717652 -0.262613 1.12764
-0.0855778 -0.262129 1.11661
-0.0879956 -0.261947 1.10688
-0.0971459 -0.261587 1.09642
-0.102087 -0.261338 1.08645
-0.108191 -0.261059 1.07637
-0.11294 -0.260816 1.06645
-0.118645 -0.260548 1.05645
-0.123178 -0.260312 1.0466
-0.128441 -0.260056 1.03668
-0.132734 -0.259826 1.02689
-0.134279 -0.259668 1.01739
-0.141548 -0.25936 1.00732
-0.142835 -0.25921 0.997878
-0.146684 -0.258992 0.98819
-0.147787 -0.258847 0.97879
-0.151443 -0.258635 0.96915
-0.154999 -0.258426 0.959534
-0.158294 -0.258223 0.949959
-0.159158 -0.258085 0.94063
-0.162042 -0.257894 0.931121
-0.162899 -0.257756 0.921814
-0.16536 -0.257576 0.912369
-0.166208 -0.257439 0.903085
-0.169008 -0.25725 0.893633
-0.169071 -0.257134 0.884441
-0.171639 -0.256952 0.875035
-0.171475 -0.256841 0.865881
-0.173806 -0.256666 0.856519
-0.173411 -0.256561 0.847404
-0.175499 -0.256393 0.838084
-0.175913 -0.256267 0.828918
-0.176708 -0.256133 0.819729
-0.177514 -0.255997 0.810549
-0.177425 -0.255886 0.801451
-0.178215 -0.255751 0.79229
-0.177645 -0.255653 0.783247
-0.178418 -0.255519 0.774106
-0.177362 -0.255433 0.765116
-0.178117 -0.2553 0.755993
-0.176571 -0.255226 0.747055
-0.177307 -0.255094 0.73795
-0.178052 -0.254962 0.728854
-0.176173 -0.254897 0.71996
-0.176712 -0.25477 0.710895
-0.177118 -0.254647 0.701849
-0.17486 -0.254593 0.692999
-0.175003 -0.254476 0.683986
-0.17318 -0.254411 0.675116
-0.173186 -0.254298 0.666127
-0.173058 -0.254189 0.657155
-0.170289 -0.254149 0.648365
-0.1699 -0.254046 0.639423
-0.168062 -0.253982 0.630581
-0.167536 -0.253883 0.621661
-0.166878 -0.253788 0.612755
-0.166088 -0.253697 0.603865
-0.162688 -0.253673 0.595139
-0.161644 -0.253588 0.586274
-0.159784 -0.253524 0.577463
-0.158605 -0.253443 0.568617
-0.157297 -0.253365 0.559785
-0.155862 -0.253291 0.550964
-0.151854 -0.253283 0.542291
-0.150175 -0.253214 0.533492
-0.148373 -0.25315 0.524705
-0.148918 -0.253024 0.515799
-0.144552 -0.253026 0.507155
-0.142659 -0.252963 0.498385
-0.140603 -0.252905 0.489628
-0.138427 -0.25285 0.480881
-0.136135 -0.252798 0.472143
-0.133726 -0.252749 0.463415
-0.131204 -0.252703 0.454695
-0.12857 -0.25266 0.445983
-0.123442 -0.252681 0.437385
-0.123895 -0.252559 0.428543
-0.121037 -0.252522 0.419851
-0.118074 -0.252487 0.411165
-0.115008 -0.252455 0.402486
-0.109482 -0.252486 0.393907
-0.107528 -0.252426 0.385187
-0.104262 -0.252399 0.376521
-0.100901 -0.252375 0.367861
-0.0974452 -0.252353 0.359205
-0.0938987 -0.252334 0.350555
-0.0902638 -0.252316 0.341908
-0.0865431 -0.252301 0.333266
-0.0827394 -0.252288 0.324628
-0.0788556 -0.252278 0.315993
-0.0725911 -0.252327 0.307432
-0.0685615 -0.25232 0.298801
-0.0644605 -0.252315 0.290172
-0.0558054 -0.252425 0.281673
-0.053775 -0.252367 0.272984
-0.0449024 -0.252483 0.264482
-0.0405068 -0.252485 0.255856
-0.0313591 -0.252607 0.247347
-0.0172805 -0.252855 0.238949
0.0468685 -0.25315 1.19886
0.0057263 -0.251999 1.18434
-0.00934213 -0.251505 1.17298
-0.0290355 -0.250896 1.16111
-0.043866 -0.250409 1.14985
-0.0493831 -0.250158 1.13969
-0.0611865 -0.249748 1.12884
-0.0710021 -0.249389 1.11825
-0.0806537 -0.249034 1.1077
-0.087413 -0.248752 1.0975
-0.0966726 -0.248407 1.08704
-0.0989856 -0.248237 1.07737
-0.107897 -0.247902 1.067
-0.112725 -0.247669 1.05709
-0.118545 -0.247412 1.04709
-0.123163 -0.247185 1.03724
-0.128551 -0.246939 1.02732
-0.130252 -0.246785 1.01781
-0.134554 -0.246567 1.00803
-0.13877 -0.246351 0.99829
-0.143343 -0.246126 0.988525
-0.147289 -0.245917 0.97884
-0.148474 -0.245777 0.969442
-0.15223 -0.245573 0.959804
-0.153225 -0.245438 0.950448
-0.156803 -0.245239 0.940855
-0.160234 -0.245044 0.931292
-0.160928 -0.244917 0.921999
-0.164169 -0.244727 0.91248
-0.166793 -0.244552 0.903031
-0.167674 -0.244421 0.893755
-0.169866 -0.244257 0.88437
-0.170737 -0.244126 0.875115
-0.172486 -0.243974 0.865792
-0.173345 -0.243844 0.856559
-0.174641 -0.243703 0.847298
-0.175487 -0.243573 0.838085
-0.176344 -0.243443 0.828882
-0.177151 -0.243315 0.819692
-0.177994 -0.243186 0.810509
-0.17833 -0.243069 0.801377
-0.179157 -0.242941 0.792214
-0.180852 -0.242791 0.782991
-0.179826 -0.242708 0.773995
-0.181265 -0.242565 0.764812
-0.179993 -0.242488 0.755849
-0.181174 -0.242352 0.746705
-0.181968 -0.242224 0.7376
-0.180575 -0.242151 0.728667
-0.18135 -0.242025 0.71958
-0.179569 -0.241961 0.710688
-0.180219 -0.241838 0.701627
-0.178425 -0.241775 0.692748
-0.178937 -0.241656 0.683712
-0.179315 -0.24154 0.674695
-0.177021 -0.241489 0.665867
-0.177135 -0.24138 0.656883
-0.175327 -0.241317 0.648033
-0.175303 -0.241211 0.639072
-0.175144 -0.241109 0.630127
-0.174851 -0.24101 0.621198
-0.171916 -0.240975 0.612441
-0.171362 -0.240883 0.603541
-0.169532 -0.240821 0.594725
-0.168841 -0.240732 0.585845
-0.168017 -0.240647 0.57698
-0.16618 -0.240586 0.56818
-0.16522 -0.240503 0.559334
-0.164129 -0.240424 0.550502
-0.162908 -0.240348 0.541683
-0.159094 -0.240336 0.533009
-0.159702 -0.240216 0.524101
-0.158219 -0.240146 0.515312
-0.156609 -0.24008 0.506534
-0.15243 -0.240077 0.497891
-0.150578 -0.240017 0.489133
-0.151138 -0.239898 0.480261
-0.149151 -0.239841 0.47152
-0.144619 -0.239847 0.462903
-0.14273 -0.239788 0.454164
-0.142922 -0.239678 0.445335
-0.140571 -0.23963 0.436627
-0.1357 -0.239644 0.428031
-0.133795 -0.239586 0.419309
-0.133613 -0.239485 0.410519
-0.130914 -0.239446 0.401839
-0.128105 -0.23941 0.393166
-0.126183 -0.239352 0.384461
-0.12326 -0.239319 0.375799
-0.120232 -0.239288 0.367142
-0.1171 -0.23926 0.358492
-0.115159 -0.239202 0.349802
-0.11192 -0.239177 0.341161
-0.108583 -0.239153 0.332525
-0.10663 -0.239097 0.323846
-0.10319 -0.239076 0.315218
-0.10199 -0.239001 0.306522
-0.0983585 -0.238985 0.297905
-0.0946394 -0.238971 0.289291
-0.0908351 -0.238959 0.280681
-0.0888494 -0.238903 0.272022
-0.084956 -0.238894 0.263417
-0.0809831 -0.238886 0.254816
-0.0769337 -0.23888 0.246217
-0.0749285 -0.238825 0.237569
-0.0707989 -0.238821 0.228974
-0.0665987 -0.238818 0.220381
-0.0623311 -0.238818 0.21179
-0.0602625 -0.238764 0.203154
-0.055863 -0.238767 0.194567
-0.0514057 -0.238771 0.185982
-0.0446496 -0.23883 0.177437
-0.0400925 -0.238836 0.16885
-0.0354874 -0.238843 0.160264
-0.0286095 -0.238905 0.151712
-0.0190608 -0.239031 0.143193
0.0236911 -0.239056 1.17685
-0.000818907 -0.238364 1.16439
-0.0186324 -0.237831 1.15276
-0.0355546 -0.237321 1.14128
-0.0457465 -0.236971 1.1306
-0.0603589 -0.236516 1.11945
-0.0658103 -0.23628 1.10936
-0.0772763 -0.2359 1.09862
-0.0868418 -0.235567 1.08812
-0.0920367 -0.235337 1.07812
-0.0985772 -0.235076 1.068
-0.103608 -0.23485 1.05806
-0.1098 -0.234598 1.04801
-0.118444 -0.234287 1.03773
-0.120439 -0.234135 1.02817
-0.125067 -0.23392 1.01834
-0.130429 -0.233688 1.00846
-0.134819 -0.233479 0.99869
-0.139127 -0.233272 0.988948
-0.143837 -0.233056 0.979183
-0.145196 -0.232919 0.969765
-0.149145 -0.232721 0.960105
-0.150321 -0.232589 0.950729
-0.154078 -0.232396 0.941116
-0.157734 -0.232206 0.931528
-0.161145 -0.232022 0.921979
-0.162069 -0.231896 0.912675
-0.165072 -0.231721 0.90319
-0.165988 -0.231596 0.893908
-0.168568 -0.231432 0.884487
-0.169474 -0.231307 0.875227
-0.172375 -0.231136 0.865802
-0.17329 -0.231011 0.856564
-0.175185 -0.230864 0.847251
-0.176087 -0.230739 0.838034
-0.17753 -0.230603 0.828782
-0.178419 -0.230479 0.819586
-0.179401 -0.230353 0.810393
-0.180275 -0.23023 0.801218
-0.180788 -0.230116 0.792082
-0.181645 -0.229994 0.782928
-0.181682 -0.22989 0.773848
-0.182523 -0.229769 0.764714
-0.183373 -0.229647 0.755589
-0.1829 -0.229556 0.746573
-0.183731 -0.229435 0.737467
-0.182771 -0.229355 0.728504
-0.183583 -0.229235 0.719417
-0.182132 -0.229167 0.710503
-0.182924 -0.229047 0.701434
-0.183723 -0.228927 0.692374
-0.181906 -0.228868 0.683505
-0.182529 -0.228752 0.674474
-0.180749 -0.228692 0.665615
-0.181233 -0.22858 0.656609
-0.181581 -0.228471 0.64762
-0.179248 -0.228424 0.638815
-0.179332 -0.228322 0.629858
-0.17928 -0.228222 0.620918
-0.180014 -0.228104 0.611937
-0.177289 -0.228067 0.603177
-0.176962 -0.227974 0.594275
-0.175156 -0.227916 0.585469
-0.17469 -0.227826 0.576588
-0.17409 -0.22774 0.567723
-0.170855 -0.227715 0.559014
-0.171536 -0.227599 0.550087
-0.170664 -0.227519 0.541255
-0.16966 -0.227442 0.532437
-0.166044 -0.227426 0.523764
-0.166691 -0.227311 0.514868
-0.165419 -0.227241 0.506081
-0.16155 -0.227231 0.49743
-0.162174 -0.227117 0.488557
-0.160639 -0.227053 0.479798
-0.158977 -0.226991 0.47105
-0.157122 -0.226935 0.462316
-0.155328 -0.226877 0.453583
-0.15341 -0.226822 0.444861
-0.151544 -0.226766 0.436141
-0.149496 -0.226714 0.427432
-0.147327 -0.226665 0.418733
-0.14545 -0.226609 0.410026
-0.143155 -0.226563 0.40134
-0.143152 -0.226464 0.392566
-0.138214 -0.226479 0.383992
-0.13872 -0.226368 0.37521
-0.136063 -0.226331 0.366554
-0.133294 -0.226296 0.357905
-0.131385 -0.226241 0.349228
-0.130878 -0.226154 0.340507
-0.125505 -0.226179 0.331956
-0.125954 -0.22607 0.323213
-0.12284 -0.226043 0.314592
-0.120912 -0.225989 0.305936
-0.120042 -0.225911 0.297252
-0.116709 -0.225889 0.288646
-0.114767 -0.225835 0.280003
-0.111329 -0.225816 0.271405
-0.10938 -0.225763 0.262769
-0.108168 -0.225693 0.254117
-0.104526 -0.225678 0.245532
-0.102562 -0.225625 0.236907
-0.101134 -0.22556 0.228275
-0.0972989 -0.22555 0.2197
-0.0953197 -0.225497 0.211087
-0.0913929 -0.225489 0.202518
-0.0916988 -0.225385 0.193866
-0.0876751 -0.225379 0.185304
-0.0856802 -0.225327 0.176705
-0.0838445 -0.225272 0.168108
-0.0818409 -0.22522 0.159518
-0.0799034 -0.225167 0.150931
-0.0778909 -0.225116 0.142349
-0.0758544 -0.225065 0.133771
-0.0760817 -0.224963 0.125169
-0.0717003 -0.224965 0.116629
-0.0719067 -0.224864 0.108038
-0.0698739 -0.224813 0.0994775
-0.0676288 -0.224768 0.0909228
-0.0678079 -0.224667 0.0823516
-0.0657631 -0.224617 0.0738045
-0.0611976 -0.224624 0.0652779
-0.0613523 -0.224524 0.0567237
-0.0615003 -0.224424 0.0481772
-0.0616416 -0.224325 0.0396383
-0.0617758 -0.224226 0.031107
-0.0619028 -0.224127 0.0225833
-0.0620224 -0.224028 0.014067
-0.0621344 -0.22393 0.00555828
0.0414719 -0.226073 1.16932
0.00494929 -0.225149 1.15549
-0.0148868 -0.224601 1.14365
-0.0346024 -0.224056 1.13186
-0.0448526 -0.223725 1.12119
-0.0522704 -0.223457 1.11087
-0.062316 -0.223131 1.10028
-0.076622 -0.222709 1.08924
-0.0819751 -0.222488 1.07922
-0.0888083 -0.222235 1.06906
-0.0981755 -0.221925 1.05864
-0.100547 -0.221772 1.049
-0.109572 -0.22147 1.03866
-0.114491 -0.22126 1.02878
-0.120403 -0.221028 1.01882
-0.125113 -0.220824 1.009
-0.130598 -0.220602 0.999117
-0.135076 -0.220403 0.989354
-0.136764 -0.220266 0.979885
-0.141077 -0.220071 0.97017
-0.145756 -0.219868 0.960435
-0.1498 -0.219679 0.950779
-0.151057 -0.219553 0.941405
-0.154911 -0.219369 0.931795
-0.15598 -0.219246 0.922463
-0.159636 -0.219067 0.9129
-0.160606 -0.218947 0.9036
-0.164157 -0.218771 0.894074
-0.167297 -0.218603 0.884601
-0.17004 -0.218444 0.875177
-0.170977 -0.218326 0.865925
-0.171927 -0.218207 0.856683
-0.174216 -0.218059 0.847334
-0.175154 -0.217941 0.838114
-0.177001 -0.217803 0.828826
-0.177925 -0.217686 0.819627
-0.179318 -0.217558 0.8104
-0.180228 -0.217441 0.801222
-0.181159 -0.217324 0.792052
-0.182053 -0.217207 0.782896
-0.182957 -0.217091 0.773748
-0.18339 -0.216985 0.764646
-0.184277 -0.216869 0.755519
-0.184232 -0.216773 0.746472
-0.1851 -0.216658 0.737364
-0.184571 -0.216574 0.72837
-0.18542 -0.216459 0.719282
-0.186277 -0.216344 0.710203
-0.185231 -0.216271 0.701269
-0.186068 -0.216157 0.692208
-0.18453 -0.216095 0.683323
-0.185345 -0.215982 0.674281
-0.186167 -0.215868 0.665247
-0.184313 -0.215813 0.656403
-0.184906 -0.215705 0.647401
-0.183141 -0.215649 0.638562
-0.183593 -0.215544 0.629585
-0.183909 -0.215441 0.620625
-0.184088 -0.215343 0.611683
-0.182313 -0.215287 0.602869
-0.182351 -0.215191 0.593949
-0.182253 -0.215098 0.585046
-0.179488 -0.215064 0.576307
-0.180231 -0.214953 0.567368
-0.179857 -0.214867 0.558502
-0.176827 -0.214839 0.549791
-0.17619 -0.214758 0.540951
-0.176899 -0.214648 0.532045
-0.173609 -0.214626 0.523361
-0.172698 -0.214552 0.514554
-0.173384 -0.214443 0.505671
-0.172327 -0.214372 0.496885
-0.168654 -0.214358 0.488235
-0.169315 -0.214249 0.479375
-0.16799 -0.214184 0.470619
-0.166162 -0.21413 0.461891
-0.1647 -0.214069 0.453152
-0.163109 -0.21401 0.444423
-0.161391 -0.213953 0.435705
-0.162 -0.213847 0.42689
-0.157694 -0.213847 0.418293
-0.155843 -0.213794 0.409594
-0.1563 -0.21369 0.400805
-0.154186 -0.213643 0.392127
-0.152323 -0.21359 0.383443
-0.150081 -0.213546 0.374778
-0.148212 -0.213493 0.366103
-0.148257 -0.213399 0.357362
-0.145761 -0.213361 0.348719
-0.143879 -0.213309 0.340059
-0.14126 -0.213272 0.331427
-0.139371 -0.213221 0.322774
-0.139019 -0.213136 0.314077
-0.137123 -0.213084 0.305434
-0.136634 -0.213002 0.296753
-0.131276 -0.213025 0.288221
-0.131736 -0.212923 0.279522
-0.128634 -0.212898 0.27093
-0.129076 -0.212796 0.262245
-0.125852 -0.212773 0.253663
-0.126275 -0.212672 0.244992
-0.122932 -0.212652 0.23642
-0.123337 -0.212551 0.227763
-0.117546 -0.212584 0.219251
-0.117934 -0.212483 0.210605
-0.115991 -0.212433 0.202015
-0.114735 -0.212369 0.193416
-0.112783 -0.212319 0.184834
-0.111403 -0.212257 0.176247
-0.111746 -0.212158 0.167635
-0.107942 -0.212148 0.159099
-0.108263 -0.21205 0.1505
-0.106291 -0.212001 0.141942
-0.104319 -0.211952 0.133388
-0.102668 -0.211896 0.124834
-0.102961 -0.211798 0.116261
-0.100977 -0.21175 0.107722
-0.0991884 -0.211697 0.0991838
-0.0994519 -0.2116 0.0906315
-0.0997093 -0.211504 0.0820871
-0.0999607 -0.211408 0.0735505
-0.0979596 -0.21136 0.0650364
-0.0959894 -0.211311 0.0565261
-0.096209 -0.211216 0.048009
-0.0941937 -0.211168 0.0395085
-0.0944037 -0.211074 0.0310049
-0.0946063 -0.210979 0.022509
-0.0948014 -0.210884 0.0140206
-0.0949888 -0.21079 0.00553991
0.0181234 -0.212088 1.14743
-0.00172011 -0.211572 1.1356
-0.0215628 -0.211057 1.12382
-0.0365924 -0.210644 1.11262
-0.0514528 -0.210235 1.10148
-0.0615696 -0.209926 1.09089
-0.0688059 -0.209679 1.08065
-0.0786446 -0.209377 1.07015
-0.0883103 -0.209079 1.0597
-0.09084 -0.208931 1.05002
-0.100208 -0.20864 1.03965
