ply
format ascii 1.0
comment Created by Open3D
element vertex 1709
property double x
property double y
property double z
end_header
-0.367796 0 0.384816
-0.260687 0 0.429427
-0.17059 0 0.464897
-0.344931 0 0.368958
-0.417385 0 0.323978
-0.320508 0 0.363678
-0.389146 0 0.319761
-0.219473 0 0.395884
-0.146817 0 0.423514
-0.353375 0 0.311553
-0.354099 0 0.302438
-0.326591 0 0.306635
-0.414272 0 0.254154
-0.0246661 0 0.440333
0.0781104 0 0.483112
-0.124912 0 0.371994
-0.205004 0 0.323392
-0.183935 0 0.325359
-0.232243 0 0.292653
-0.15186 0 0.324211
-0.275689 0 0.252834
-0.128098 0 0.31812
-0.262304 0 0.242524
-0.326367 0 0.202016
-0.192722 0 0.259316
-0.369733 0 0.16236
-0.0311214 0 0.323232
-0.256866 0 0.201942
-0.316441 0 0.162671
-0.3573 0 0.133851
-0.391943 0 0.108155
-0.307972 0 0.141782
-0.221268 0 0.175689
-0.428387 0 0.063799
-0.293891 0 0.122733
-0.251738 0 0.135513
-0.0732729 0 0.21534
-0.142633 0 0.172392
-0.181079 0 0.144917
-0.416558 0 0.0189422
-0.231228 0 0.102241
-0.139412 0 0.139942
-0.210061 0 0.0964266
-0.0421722 0 0.172197
0.0290207 0 0.198467
-0.284736 0 0.0334426
0.149836 0 0.2426
-0.411289 0 -0.0472609
-0.494645 0 -0.0970395
-0.226446 0 0.0289761
-0.128332 0 0.0699662
-0.29089 0 -0.0205707
-0.323603 0 -0.0449658
-0.116989 0.0133454 1.86317
-0.381657 0.0133151 1.72646
-0.182185 0.0132863 1.82151
-0.0796916 0.0132698 1.86525
-0.342018 0.0132601 1.72502
-0.474398 0.0132453 1.65099
-0.360416 0.0132291 1.70048
-0.163647 0.0132196 1.78981
-0.2225 0.0132101 1.75135
-0.420673 0.0132021 1.64287
-0.4285 0.0131927 1.62992
-0.172288 0.0131834 1.74901
-0.535918 0.0131679 1.55966
-0.332112 0.0131648 1.65106
-0.476073 0.0131571 1.56969
-0.448185 0.013148 1.57462
-0.103982 0.0131389 1.73771
-0.324781 0.0131299 1.6183
-0.201096 0.0131267 1.6697
-0.270621 0.0131193 1.62555
-0.242677 0.0131104 1.63051
-0.3487 0.0131016 1.56849
-0.33642 0.0130984 1.56425
-0.50196 0.0130896 1.47248
-0.461394 0.0130826 1.48335
-0.276625 0.0130793 1.56539
-0.190147 0.0130707 1.59963
-0.199346 0.0130622 1.58602
-0.310545 0.0130588 1.52012
-0.489989 0.0130521 1.42097
-0.295379 0.0130487 1.50799
-0.254936 0.0130403 1.51921
-0.249248 0.013032 1.51305
-0.215974 0.0130286 1.51944
-0.267239 0.0130204 1.48481
-0.300624 0.0130187 1.45744
-0.519885 0.0130106 1.33881
-0.221035 0.0130071 1.47803
-0.213578 0.0129991 1.47276
-0.205135 0.0129955 1.46681
-0.266115 0.0129876 1.42732
-0.516468 0.0129858 1.29152
-0.428961 0.012978 1.32627
-0.0976697 0.0129744 1.48179
-0.275384 0.0129666 1.38392
-0.377566 0.012963 1.32273
-0.214939 0.0129594 1.39396
-0.322502 0.0129535 1.33068
0.130289 0.0129498 1.54701
-0.498098 0.0129423 1.22382
-0.42031 0.0129386 1.25267
-0.452646 0.0129311 1.2275
-0.282688 0.0129274 1.30246
-0.407619 0.0129236 1.22999
-0.132836 0.0129181 1.35786
-0.284741 0.0129143 1.27192
-0.353251 0.012907 1.22866
-0.294718 0.0129032 1.24797
-0.429757 0.012896 1.17144
-0.32224 0.0128941 1.21472
-0.10519 0.0128902 1.31332
-0.531206 0.0128831 1.0913
-0.530328 0.0128792 1.08185
-0.191542 0.0128753 1.24135
-0.233296 0.0128683 1.21147
-0.416271 0.0128644 1.11012
-0.386386 0.0128624 1.11465
-0.154134 0.0128555 1.22177
-0.261234 0.0128515 1.15839
-0.447781 0.0128447 1.0561
-0.265345 0.0128407 1.13752
-0.11616 0.0128366 1.20233
-0.201428 0.0128325 1.14992
-0.250993 0.0128279 1.11553
-0.333338 0.0128237 1.06461
-0.249697 0.0128172 1.09741
-0.501124 0.012813 0.961973
-0.341806 0.0128089 1.03192
-0.280037 0.0128047 1.05311
-0.547406 0.0128003 0.90979
-0.439743 0.0127961 0.953945
-0.31468 0.0127919 1.00681
-0.395912 0.0127855 0.957186
-0.0928383 0.0127812 1.09909
-0.257211 0.0127769 1.00728
-0.516158 0.0127747 0.867552
0.0113145 0.0127685 1.12227
-0.149321 0.0127642 1.03237
-0.492731 0.0127598 0.851086
-0.205921 0.0127536 0.985485
-0.566248 0.0127511 0.795218
-0.238887 0.0127467 0.949364
-0.0609115 0.0127427 1.0287
-0.38654 0.0127366 0.856888
-0.273409 0.0127321 0.903955
-0.157254 0.0127277 0.952547
-0.451013 0.0127232 0.796196
-0.123551 0.0127194 0.95023
-0.407983 0.0127149 0.798565
-0.458781 0.0127104 0.76373
-0.281367 0.0127059 0.843016
-0.228589 0.0127 0.860418
-0.124781 0.0126967 0.902507
-0.274754 0.0126931 0.817827
-0.277151 0.0126885 0.807257
-0.35911 0.0126827 0.757294
-0.378062 0.012678 0.738474
-0.368741 0.0126734 0.733805
-0.25755 0.0126699 0.779712
-0.105877 0.0126664 0.845858
-0.067561 0.0126606 0.856048
-0.392044 0.0126559 0.684528
-0.346701 0.0126512 0.697934
-0.218103 0.0126464 0.752983
-0.637017 0.0126426 0.533967
-0.356469 0.0126384 0.664826
-0.247079 0.0126336 0.710308
-0.295856 0.0126288 0.676721
-0.230267 0.0126239 0.700331
-0.284567 0.0126191 0.664011
-0.168611 0.012616 0.712242
-0.250414 0.0126111 0.662194
-0.222914 0.0126062 0.666811
-0.341665 0.0126013 0.598318
-0.30396 0.0125963 0.608067
-0.287554 0.012592 0.606964
-0.322056 0.0125884 0.580183
-0.339224 0.0125834 0.562534
-0.352825 0.0125784 0.546683
-0.233547 0.0125734 0.597286
-0.208441 0.0125688 0.600654
-0.0497779 0.0125658 0.670277
-0.478195 0.0125605 0.447184
-0.274163 0.0125554 0.540218
-0.254599 0.0125503 0.541033
-0.243261 0.0125455 0.53764
-0.152085 0.0125426 0.573508
-0.000467431 0.0125375 0.64039
-0.291158 0.0125321 0.486186
-0.175546 0.012527 0.535094
-0.450213 0.0125219 0.388825
-0.238472 0.0125192 0.484964
-0.0472298 0.012514 0.571726
-0.0863373 0.0125087 0.54333
-0.324664 0.0125035 0.415338
-0.377731 0.0124983 0.379946
-0.380614 0.0124955 0.368813
-0.327104 0.0124902 0.386781
-0.490716 0.0124849 0.296203
-0.162719 0.0124796 0.451446
-0.156459 0.0124743 0.445796
-0.180973 0.0124716 0.423887
-0.280186 0.0124662 0.365565
-0.115307 0.0124608 0.439306
-0.15016 0.0124554 0.413196
-0.0961509 0.0124526 0.430545
-0.449702 0.0124472 0.245112
-0.0321848 0.0124417 0.445229
-0.410156 0.0124363 0.247618
-0.0587742 0.0124308 0.414698
-0.251718 0.012428 0.308619
-0.206809 0.0124226 0.322462
-0.254097 0.012417 0.290249
-0.214644 0.0124115 0.301422
-0.28497 0.0124087 0.256687
-0.369943 0.0124031 0.205674
-0.193986 0.0123975 0.285142
-0.321638 0.0123919 0.21282
-0.0828554 0.0123891 0.322678
-0.0666208 0.0123834 0.322328
-0.525758 0.0123778 0.0843068
-0.221824 0.0123721 0.227838
-0.282777 0.0123664 0.188942
-0.188014 0.0123635 0.226839
-0.278414 0.0123578 0.173246
-0.254873 0.0123521 0.176641
-0.20641 0.0123463 0.192513
-0.102307 0.0123437 0.235011
-0.39344 0.012338 0.0811107
-0.319889 0.0123322 0.109568
-0.0919162 0.0123263 0.215253
-0.14385 0.0123234 0.179878
-0.340825 0.0123176 0.0731164
-0.243726 0.0123117 0.113408
-0.41843 0.0123059 0.0178158
-0.412372 0.0123029 0.0114758
-0.463744 0.012297 -0.0224235
-0.247211 0.0122911 0.0776466
-0.221639 0.0122852 0.0822532
-0.339445 0.0122822 0.0140203
-0.254642 0.0122763 0.0482702
-0.221194 0.0122703 0.0568591
-0.0511958 0.0122673 0.132557
-0.289716 0.0122613 0.00519021
-0.0516454 0.0122553 0.116136
-0.41958 0.0122492 -0.0759048
-0.273673 0.0122462 -0.0122122
-0.0494114 0.0122402 0.0918738
-0.459615 0.0266452 1.74265
-0.41311 0.026615 1.75796
-0.14319 0.0265685 1.88687
-0.316415 0.0265359 1.79265
-0.385614 0.0265197 1.74859
-0.480692 0.0264875 1.69345
-0.179541 0.0264687 1.8349
-0.352079 0.0264499 1.73952
-0.468685 0.0264311 1.67211
-0.395136 0.0264154 1.69944
-0.273588 0.0263844 1.75259
-0.398046 0.0263661 1.68125
-0.4048 0.0263479 1.66878
-0.181335 0.0263449 1.76961
-0.328812 0.0263268 1.68679
-0.584576 0.0263088 1.54982
-0.250697 0.0262909 1.70767
-0.209167 0.0262732 1.71935
-0.5537 0.026267 1.53661
-0.311133 0.0262525 1.64844
-0.499577 0.026235 1.54514
-0.437631 0.0262177 1.56702
-0.378782 0.0262006 1.58736
-0.310182 0.0261942 1.61125
-0.452027 0.0261804 1.53085
-0.573693 0.026174 1.45963
-0.527413 0.0261571 1.4737
-0.476456 0.0261404 1.49009
-0.186269 0.0261339 1.62484
-0.458941 0.0261207 1.47901
-0.269593 0.0261141 1.56336
-0.324262 0.0260977 1.52695
-0.281449 0.0260815 1.53927
-0.18219 0.0260748 1.57861
-0.162396 0.0260588 1.57942
-0.192363 0.0260554 1.55374
-0.374142 0.0260396 1.45376
-0.119639 0.0260328 1.57077
-0.426548 0.0260171 1.40823
-0.127729 0.0260102 1.54743
-0.187162 0.0259947 1.50863
-0.380055 0.0259912 1.40153
-0.620842 0.0259759 1.27205
-0.432909 0.0259689 1.35584
-0.225449 0.0259538 1.45048
-0.678117 0.0259467 1.214
-0.461956 0.0259318 1.31299
-0.502527 0.0259282 1.2821
-0.246098 0.0259135 1.40122
-0.469233 0.0259063 1.27955
-0.208782 0.0258991 1.39969
-0.331762 0.0258845 1.32911
-0.12285 0.0258772 1.4235
-0.206135 0.0258665 1.37226
-0.377856 0.0258592 1.27635
-0.32969 0.025845 1.29133
-0.188975 0.0258376 1.35167
-0.323251 0.0258301 1.27453
-0.244076 0.0258162 1.30501
-0.238633 0.0258086 1.29776
-0.27439 0.025801 1.26991
-0.21335 0.0257911 1.2908
-0.485037 0.0257834 1.14501
-0.340151 0.0257699 1.20834
-0.201594 0.0257621 1.2677
-0.0750607 0.0257544 1.32106
-0.341778 0.0257449 1.17804
-0.343164 0.0257371 1.16746
-0.505434 0.0257293 1.07645
-0.403944 0.0257161 1.11808
-0.319076 0.0257082 1.15067
-0.0244084 0.0256953 1.28888
-0.214534 0.0256873 1.184
-0.579107 0.0256833 0.991319
-0.327901 0.0256752 1.10712
-0.364296 0.0256625 1.07981
-0.393359 0.0256544 1.0555
-0.450591 0.0256419 1.01776
-0.253784 0.0256337 1.10641
-0.284814 0.0256296 1.08056
-0.260724 0.0256213 1.08287
-0.352869 0.025609 1.02768
-0.0536805 0.0256007 1.16757
-0.328166 0.0255923 1.02064
-0.254419 0.0255802 1.04839
-0.19722 0.0255718 1.06733
-0.241495 0.025567 1.03499
-0.552191 0.0255591 0.869916
-0.297684 0.0255472 0.988052
-0.309189 0.0255386 0.972685
-0.395249 0.02553 0.920054
-0.387379 0.0255183 0.914867
-0.280966 0.0255127 0.958034
-0.169452 0.0255053 1.00403
-0.0874036 0.0254966 1.0355
-0.268554 0.0254851 0.935806
0.0523227 0.0254763 1.08672
-0.237182 0.0254674 0.932454
-0.445687 0.0254586 0.818703
-0.501436 0.0254517 0.781023
-0.0746604 0.0254428 0.984934
-0.186597 0.0254338 0.919503
-0.396634 0.0254248 0.805035
-0.231439 0.0254137 0.878525
-0.248611 0.0254067 0.860189
-0.151263 0.0254001 0.899059
-0.213324 0.0253909 0.858629
-0.228237 0.02538 0.842066
-0.498058 0.0253708 0.697783
-0.366579 0.0253616 0.754164
-0.356776 0.0253523 0.749721
-0.343126 0.0253447 0.746938
-0.353179 0.0253369 0.732346
-0.246494 0.0253276 0.77638
-0.373567 0.0253182 0.70355
-0.208389 0.0253088 0.776859
-0.128339 0.0252993 0.807618
-0.118278 0.0252934 0.802796
-0.15463 0.0252839 0.775377
-0.488961 0.0252744 0.598982
-0.37374 0.0252648 0.647378
-0.161242 0.0252544 0.744552
-0.227421 0.0252465 0.701977
-0.41538 0.0252399 0.598317
-0.47828 0.0252302 0.557704
-0.16767 0.0252204 0.70386
-0.193609 0.0252102 0.681828
0.0477772 0.0252008 0.79333
-0.179794 0.0251917 0.67032
0.0492299 0.0251856 0.775094
-0.143602 0.0251757 0.669596
-0.18242 0.0251658 0.641119
-0.282352 0.0251557 0.582115
-0.294695 0.0251461 0.566827
-0.308497 0.0251407 0.55012
-0.124805 0.0251306 0.632952
-0.29133 0.0251205 0.540689
-0.213697 0.0251103 0.57052
-0.367627 0.0251002 0.484578
-0.251573 0.0250951 0.532773
-0.346501 0.0250848 0.476364
-0.270699 0.0250746 0.505335
0.00596522 0.0250643 0.634751
-0.234339 0.0250539 0.505699
0.0093159 0.0250487 0.617732
-0.0283961 0.0250383 0.590001
-0.347959 0.0250279 0.42136
-0.29747 0.0250175 0.43776
-0.291164 0.025007 0.432084
-0.420609 0.0250017 0.357613
-0.113386 0.0249911 0.502421
-0.536202 0.0249809 0.282163
-0.367822 0.0249703 0.357579
-0.381894 0.0249596 0.341784
-0.439074 0.0249543 0.303491
-0.520467 0.0249435 0.254061
-0.26532 0.0249328 0.372916
-0.225813 0.024922 0.383967
-0.305029 0.0249112 0.335673
-0.197505 0.0249058 0.379778
-0.434466 0.0248956 0.25251
-0.456199 0.0248847 0.232997
-0.293304 0.0248738 0.305814
-0.284134 0.0248683 0.300778
-0.222648 0.0248573 0.322916
-0.321397 0.0248463 0.264953
-0.228461 0.0248352 0.302847
-0.549331 0.0248241 0.133856
-0.0867616 0.0248186 0.355567
-0.317393 0.0248074 0.231721
-0.114512 0.0247963 0.324647
-0.399634 0.024785 0.173587
-0.342628 0.0247794 0.192555
-0.146727 0.0247692 0.281831
-0.194344 0.0247579 0.249565
-0.221372 0.0247466 0.22761
-0.031207 0.0247409 0.313193
-0.217426 0.0247295 0.211669
-0.361965 0.0247181 0.131001
-0.244044 0.0247067 0.18158
-0.146846 0.0247009 0.220719
-0.394455 0.0246894 0.0885594
-0.130959 0.0246779 0.211969
-0.287396 0.0246663 0.125428
-0.411006 0.0246547 0.0553179
-0.489814 0.0246489 0.00650318
-0.164764 0.0246372 0.16075
-0.282092 0.0246256 0.0938245
-0.326039 0.0246138 0.063606
-0.264196 0.024608 0.0851558
-0.0775445 0.0245962 0.170264
-0.239418 0.0245844 0.0811269
-0.272397 0.0245784 0.0552937
-0.272672 0.0245666 0.0469837
-0.300616 0.0245547 0.0248556
-0.28886 0.0245427 0.0225942
0.079061 0.0245368 0.197251
-0.272338 0.0245248 0.0134403
-0.219201 0.0245128 0.0319146
-0.297631 0.0245007 -0.0153778
-0.19584 0.0244947 0.0262538
-0.392178 0.0244826 -0.0799642
-0.154811 0.0400299 1.94734
-0.45104 0.0399805 1.79151
-0.292442 0.039915 1.86433
-0.308839 0.039846 1.84995
-0.257019 0.0398176 1.86666
-0.267833 0.0397935 1.85173
-0.493781 0.0397457 1.73106
-0.494837 0.0397178 1.72135
-0.441305 0.03969 1.73893
-0.40727 0.0396666 1.74645
-0.493245 0.039639 1.69429
-0.468416 0.0395931 1.69898
-0.318648 0.039566 1.76469
-0.542059 0.0395573 1.6424
-0.313177 0.0395348 1.74734
-0.642277 0.0395081 1.57363
-0.430991 0.0394816 1.67011
-0.444019 0.0394552 1.65444
-0.586786 0.0394463 1.57253
-0.319372 0.0394246 1.69673
-0.246306 0.0393987 1.72411
-0.214311 0.039373 1.73095
-0.346254 0.0393475 1.65582
-0.256335 0.0393383 1.69032
-0.458567 0.0393177 1.57968
-0.4477 0.0392927 1.57595
-0.445683 0.0392834 1.56653
-0.307738 0.0392586 1.62635
-0.131807 0.0392341 1.70515
-0.505523 0.0392245 1.50791
-0.456676 0.039205 1.52278
-0.385308 0.0391954 1.5481
-0.454396 0.0391714 1.5044
-0.310662 0.0391477 1.56709
-0.227105 0.0391379 1.59855
-0.149867 0.0391193 1.62758
-0.44361 0.0391095 1.47041
-0.266096 0.0390863 1.54999
-0.296907 0.0390763 1.52431
-0.197468 0.0390534 1.56486
-0.274851 0.0390433 1.51591
-0.399303 0.0390207 1.44451
-0.157467 0.0390156 1.55476
-0.195368 0.0389932 1.52663
-0.285664 0.0389829 1.47127
-0.259282 0.0389609 1.47529
-0.241793 0.0389505 1.47384
-0.303531 0.0389287 1.43379
-0.21172 0.0389235 1.46907
-0.240569 0.038902 1.44546
-0.0517615 0.0388914 1.52972
-0.200249 0.0388703 1.44628
-0.341088 0.0388596 1.36574
-0.410519 0.0388387 1.32183
-0.20927 0.0388333 1.41188
-0.351235 0.0388225 1.33081
-0.389652 0.038802 1.3024
-0.300275 0.038791 1.33703
-0.621123 0.0387708 1.1674
-0.14693 0.0387598 1.39446
-0.345425 0.0387487 1.28519
-0.749728 0.0387343 1.07332
-0.358469 0.0387231 1.25895
-0.245266 0.0387119 1.30556
-0.438375 0.0386922 1.1998
-0.220304 0.0386809 1.29887
-0.225139 0.0386615 1.28724
-0.321345 0.0386501 1.22919
-0.35386 0.0386443 1.20247
-0.0932659 0.0386253 1.32355
-0.317697 0.0386137 1.20142
-0.393747 0.0386021 1.1535
-0.0887748 0.0385834 1.29677
-0.0781361 0.0385716 1.29222
-0.218146 0.0385598 1.21236
-0.357641 0.0385473 1.13282
-0.0702199 0.0385354 1.2667
-0.480497 0.0385235 1.05174
-0.209856 0.0385054 1.17783
-0.277211 0.0384933 1.13436
-0.44456 0.0384756 1.04144
-0.113382 0.038469 1.19671
-0.431533 0.0384568 1.02788
-0.0932902 0.0384451 1.1872
-0.452917 0.0384276 0.998151
-0.473071 0.0384153 0.978348
-0.214622 0.0384029 1.09786
-0.175816 0.0383904 1.10756
-0.189104 0.0383779 1.09123
-0.504069 0.0383669 0.92391
-0.406988 0.0383543 0.962785
-0.218439 0.0383375 1.04783
-0.218314 0.0383248 1.03825
-0.23379 0.038312 1.02088
-0.269371 0.0382992 0.99348
-0.309236 0.038289 0.963668
-0.343081 0.0382761 0.937154
-0.178954 0.0382632 1.00964
-0.0760647 0.0382469 1.05185
-0.516358 0.0382339 0.822148
-0.169044 0.0382207 0.986266
-0.47752 0.0382108 0.822172
-0.330982 0.0381975 0.885929
-0.320102 0.038185 0.881792
-0.289605 0.0381717 0.88755
-0.170633 0.038156 0.937794
-0.628633 0.0381426 0.699329
-0.345671 0.0381314 0.831125
-0.324818 0.0381224 0.831638
-0.338694 0.0381089 0.815272
-0.349587 0.0380935 0.800596
-0.337122 0.0380798 0.797427
-0.163461 0.0380661 0.87487
-0.16222 0.0380523 0.866117
-0.157146 0.0380402 0.859111
-0.361554 0.0380303 0.747135
-0.357399 0.0380164 0.739874
-0.358432 0.0380025 0.730034
-0.353674 0.0379877 0.723187
-0.268216 0.0379744 0.756536
-0.140759 0.0379615 0.810852
-0.378794 0.0379524 0.682007
-0.187707 0.0379383 0.768292
-0.141738 0.0379237 0.782061
-0.336383 0.0379094 0.675506
-0.154734 0.0378953 0.757085
-0.247815 0.0378879 0.700574
-0.208093 0.0378734 0.711241
-0.41521 0.0378589 0.598502
-0.134689 0.0378444 0.729598
-0.254026 0.0378298 0.660778
-0.367574 0.0378151 0.594867
-0.306276 0.0378078 0.61557
-0.539932 0.037793 0.489629
-0.142198 0.0377782 0.679398
-0.190821 0.0377634 0.646004
-0.526845 0.0377485 0.468923
-0.094123 0.037741 0.675381
-0.308285 0.0377263 0.55922
-0.286831 0.0377113 0.560916
-0.0911795 0.0376962 0.649725
-0.414607 0.0376811 0.47901
-0.223527 0.0376659 0.565564
-0.308179 0.0376583 0.513388
-0.109663 0.0376438 0.603589
-0.0680739 0.0376285 0.615436
-0.305891 0.0376131 0.487594
-0.334226 0.0375977 0.464508
-0.0583283 0.0375899 0.592651
-0.233452 0.0375744 0.496196
-0.312159 0.0375589 0.447964
-0.509736 0.0375446 0.340156
-0.622771 0.0375289 0.274789
-0.232661 0.0375211 0.460083
-0.218811 0.0375053 0.458184
-0.376622 0.0374895 0.370469
-0.27471 0.0374737 0.412632
-0.449475 0.0374577 0.316472
-0.323188 0.0374498 0.369899
-0.134103 0.0374338 0.45569
-0.259535 0.0374196 0.384013
-0.144801 0.0374035 0.432657
-0.196793 0.0373874 0.397953
-0.056423 0.0373793 0.458468
-0.0861018 0.0373631 0.434946
0.0933271 0.0373468 0.515995
-0.294628 0.0373305 0.313367
-0.10969 0.0373141 0.397201
-0.274828 0.0373059 0.305008
-0.117967 0.0372894 0.37483
-0.626287 0.0372729 0.112078
0.0384686 0.0372588 0.435582
-0.240938 0.0372505 0.286291
-0.062607 0.0372339 0.366904
-0.390577 0.0372172 0.194382
-0.100294 0.0372004 0.331003
-0.268 0.0371837 0.238646
-0.244544 0.0371752 0.240834
-0.23128 0.0371584 0.238988
-0.211355 0.0371415 0.240489
-0.170544 0.0371245 0.252449
-0.23624 0.037116 0.210099
-0.301242 0.0370989 0.169179
-0.162791 0.0370818 0.230002
-0.262588 0.0370647 0.171717
-0.210183 0.0370561 0.188457
-0.186618 0.0370389 0.19188
-0.294147 0.0370246 0.12939
-0.303414 0.0370073 0.116428
0.0815285 0.0369986 0.299473
-0.207143 0.0369812 0.146836
-0.400195 0.0369637 0.0420245
-0.0346213 0.0369462 0.216543
-0.108283 0.0369374 0.170325
-0.321612 0.0369199 0.0554198
-0.178359 0.0369022 0.118822
-0.112421 0.0368845 0.143584
-0.30812 0.0368757 0.036386
-0.166815 0.0368579 0.0988588
-0.225969 0.0368401 0.0611187
-0.0832607 0.0368223 0.124326
-0.24295 0.0368133 0.0351731
-0.251159 0.0367954 0.0229502
-0.343971 0.0367774 -0.0315569
-0.147853 0.0367593 0.0584176
-0.254884 0.0367503 -0.00436676
-0.222523 0.0367322 0.00375723
-0.640964 0.0534815 1.75534
-0.287447 0.0533609 1.92729
-0.301723 0.0533009 1.91207
-0.344372 0.0532088 1.88445
-0.277836 0.0531445 1.90992
-0.161807 0.0531126 1.95837
-0.27887 0.0530754 1.89058
-0.33584 0.0530123 1.8543
-0.0585096 0.0529756 1.98371
-0.211402 0.052939 1.89802
-0.620762 0.0529082 1.68379
0.0766918 0.052872 2.02327
-0.427992 0.0528115 1.7631
-0.358958 0.0528003 1.78698
-0.398928 0.0527704 1.75745
-0.337119 0.0527352 1.77912
-0.454555 0.0527002 1.71117
-0.364467 0.0526654 1.74699
-0.357178 0.052631 1.7414
-0.198633 0.0526194 1.81011
-0.288471 0.052591 1.75563
-0.215023 0.0525571 1.78312
-0.488097 0.0525235 1.63736
-0.412556 0.0524902 1.66589
-0.19789 0.0524783 1.76273
-0.444737 0.0524513 1.62972
-0.456515 0.0524187 1.61459
-0.436295 0.0524066 1.61424
-0.216949 0.0523742 1.71468
-0.346196 0.052362 1.63961
-0.164747 0.0523361 1.72074
-0.598101 0.0523045 1.49482
-0.310002 0.052292 1.62846
-0.26274 0.0522607 1.64286
-0.111011 0.0522298 1.70947
-0.182779 0.0522171 1.66322
-0.214782 0.052193 1.63758
-0.642669 0.0521802 1.41329
-0.463686 0.05215 1.49353
-0.269131 0.0521371 1.58048
-0.185135 0.0521073 1.61323
-0.328066 0.0520942 1.53146
-0.402965 0.0520713 1.48434
-0.189103 0.0520581 1.581
-0.309842 0.0520291 1.51137
-0.197719 0.0520157 1.55718
-0.474923 0.0519871 1.40931
-0.358431 0.0519736 1.45733
-0.21899 0.0519521 1.51734
-0.623063 0.0519385 1.3051
-0.253181 0.0519107 1.48076
-0.292132 0.051897 1.4511
-0.202559 0.0518695 1.48661
-0.619235 0.0518557 1.26811
-0.395336 0.0518287 1.37077
-0.460419 0.0518216 1.32762
-0.123565 0.0518076 1.48592
-0.351194 0.051781 1.36282
-0.423359 0.0517667 1.31663
-0.513907 0.0517406 1.26206
-0.736857 0.0517262 1.14051
-0.0987395 0.0517117 1.4495
-0.152134 0.0516932 1.41301
-0.216415 0.0516786 1.37082
-0.345346 0.0516533 1.29705
-0.0412294 0.0516386 1.43908
-0.405692 0.0516238 1.24684
-0.302606 0.0515989 1.28908
-0.500159 0.051584 1.18031
-0.416717 0.051569 1.21206
-0.215186 0.051552 1.30299
-0.382289 0.0515369 1.20949
-0.337112 0.0515128 1.22275
-0.430865 0.0514975 1.16595
-0.237283 0.0514822 1.25282
-0.280432 0.0514586 1.22192
-0.25558 0.0514508 1.22391
-0.127827 0.0514353 1.2779
-0.304572 0.0514121 1.1802
-0.212287 0.0513964 1.21648
-0.458132 0.0513807 1.08371
-0.445074 0.0513579 1.08091
-0.352876 0.051342 1.11718
-0.506586 0.051333 1.03001
-0.233867 0.0513117 1.15696
-0.271825 0.0512956 1.12819
-0.243904 0.0512795 1.13237
-0.193427 0.0512575 1.14827
-0.188307 0.0512412 1.14108
-0.145034 0.0512249 1.15297
-0.148802 0.0512084 1.14136
-0.312607 0.0511951 1.04951
-0.292183 0.0511786 1.05002
-0.249428 0.051162 1.0617
-0.384337 0.0511408 0.984902
-0.408057 0.0511241 0.963376
-0.225345 0.0511072 1.04508
-0.450441 0.0510947 0.922561
-0.236389 0.0510777 1.01996
-0.170236 0.051061 1.04339
-0.211205 0.0510439 1.0133
-0.142847 0.0510236 1.03812
-0.16337 0.0510064 1.01828
-0.593057 0.0509891 0.793873
-0.27222 0.0509748 0.9445
-0.375597 0.0509605 0.883026
-0.466232 0.050943 0.828177
-0.298426 0.0509255 0.902561
-0.14224 0.050906 0.971291
-0.307419 0.0508883 0.879209
-0.324613 0.0508723 0.860992
-0.122607 0.0508616 0.95197
-0.226912 0.0508437 0.89036
-0.171152 0.0508246 0.90889
-0.430964 0.0508065 0.769553
-0.248855 0.0507884 0.851191
-0.0286833 0.0507703 0.951874
-0.275601 0.0507531 0.818937
-0.400605 0.0507423 0.746456
-0.201093 0.050724 0.836844
-0.169872 0.0507056 0.843101
-0.261531 0.0506871 0.787932
-0.390168 0.0506685 0.714287
-0.135209 0.0506592 0.831699
-0.0700381 0.0506405 0.854981
-0.235667 0.0506217 0.762878
-0.00250494 0.0506029 0.870184
-0.303003 0.0505839 0.710675
-0.552238 0.0505652 0.576792
-0.319935 0.0505557 0.682927
-0.0909307 0.0505366 0.788205
-0.167945 0.0505174 0.740487
-0.177875 0.0504982 0.726327
-0.364297 0.0504789 0.623935
-0.403382 0.0504604 0.59515
-0.301803 0.0504507 0.635973
-0.0725284 0.0504312 0.741466
-0.174908 0.0504117 0.681146
-0.319505 0.050392 0.599733
-0.154982 0.0503739 0.672762
-0.419679 0.0503541 0.531326
-0.286619 0.0503442 0.587941
-0.324915 0.0503244 0.55973
-0.222576 0.0503044 0.601851
-0.407182 0.0502844 0.500513
-0.313971 0.0502643 0.5381
-0.190437 0.0502565 0.589804
-0.369428 0.0502363 0.491312
-0.339587 0.050216 0.497251
-0.214133 0.0501957 0.551011
-0.347139 0.0501753 0.475556
-0.186804 0.0501548 0.546788
-0.143635 0.0501446 0.558554
-0.384243 0.0501269 0.429084
-0.01793 0.0501063 0.603342
-0.259364 0.0500855 0.473742
-0.304974 0.0500648 0.442069
-0.173119 0.0500543 0.498222
0.106833 0.0500334 0.629355
-0.329048 0.0500125 0.402587
-0.0260197 0.049995 0.544969
-0.292178 0.0499739 0.403091
-0.0517732 0.0499634 0.513564
-0.326148 0.0499422 0.367603
-0.260749 0.0499209 0.391544
-0.341131 0.0498995 0.342611
-0.401967 0.0498781 0.303465
-0.246193 0.0498674 0.371669
-0.0240275 0.0498459 0.47405
-0.272737 0.0498243 0.34101
-0.338886 0.0498069 0.298874
-0.196245 0.0497852 0.361538
-0.15675 0.0497743 0.371648
-0.279147 0.0497525 0.301818
-0.120602 0.0497306 0.372476
-0.165186 0.0497086 0.341584
-0.152282 0.0496866 0.339453
-0.227194 0.0496755 0.292407
-0.285166 0.0496534 0.254864
-0.238177 0.0496311 0.269817
-0.0846876 0.0496089 0.338037
-0.296101 0.0495977 0.222777
-0.314465 0.0495803 0.204627
-0.176746 0.0495579 0.265002
-0.120087 0.0495354 0.284863
-0.398272 0.0495128 0.137318
-0.141007 0.0495015 0.256444
-0.0287798 0.0494788 0.304132
-0.0395623 0.049456 0.290331
-0.218115 0.0494332 0.192661
-0.318469 0.0494217 0.133016
-0.157712 0.0493988 0.205028
-0.30416 0.0493758 0.123454
-0.266147 0.0493527 0.134127
-0.22805 0.0493412 0.143746
-0.135803 0.049318 0.181563
0.0388772 0.0492948 0.260613
-0.235176 0.0492715 0.115314
-0.504415 0.0492598 -0.0286969
-0.168525 0.0492364 0.131002
-0.16971 0.0492129 0.122181
-0.129861 0.0491893 0.133893
-0.156021 0.0491775 0.111461
-0.0483895 0.0491539 0.157092
-0.117526 0.0491302 0.114355
-0.466095 0.0491064 -0.0680802
-0.191128 0.0490945 0.060091
-0.283181 0.0490706 0.00594094
-0.131573 0.0490466 0.0736386
-0.396631 0.0490226 -0.0669804
-0.181142 0.0490106 0.0314921
-0.451528 0.0489865 -0.111762
-0.153504 0.0667998 2.047
-0.23 0.0667248 2.00058
-0.212345 0.0666097 2.003
-0.425237 0.0665294 1.88867
-0.481878 0.0664831 1.85101
-0.484468 0.0664102 1.84156
-0.256633 0.0663643 1.94615
-0.311743 0.0662863 1.91071
-0.395187 0.0662411 1.85967
-0.452125 0.0662027 1.8216
-0.208904 0.066158 1.9339
-0.218478 0.0661135 1.91981
-0.371178 0.0660693 1.83415
-0.263963 0.0660253 1.87846
-0.38797 0.0659885 1.80685
-0.365451 0.0659452 1.80881
-0.370889 0.0659023 1.79679
-0.296114 0.0658596 1.82488
-0.341342 0.0658457 1.79165
-0.403984 0.0658104 1.75072
-0.554802 0.0657684 1.66601
-0.33321 0.0657269 1.76751
-0.429183 0.0656858 1.71022
-0.324831 0.0656714 1.75185
-0.414741 0.0656378 1.69725
-0.47195 0.0655975 1.65934
-0.634884 0.0655829 1.56736
-0.195528 0.0655429 1.77774
-0.344231 0.0655034 1.69408
-0.43112 0.0654885 1.64016
-0.442362 0.0654568 1.62487
-0.365751 0.0654182 1.65386
-0.686416 0.0654031 1.48308
-0.305705 0.0653649 1.66412
-0.360462 0.0653496 1.62632
-0.328497 0.0653195 1.63262
-0.275458 0.0653041 1.64873
-0.551223 0.0652668 1.50154
-0.404739 0.06523 1.56545
-0.553435 0.0652143 1.48074
-0.299207 0.065178 1.59852
-0.388407 0.0651621 1.54358
-0.464807 0.0651343 1.49564
-0.296091 0.0651182 1.56968
-0.465298 0.0650829 1.47574
-0.272727 0.0650666 1.56173
-0.403219 0.0650318 1.48714
-0.377554 0.0650154 1.4897
-0.0502333 0.0649893 1.64358
-0.259557 0.0649728 1.52867
-0.479048 0.064939 1.40956
-0.272642 0.0649223 1.50254
-0.472035 0.064889 1.39348
-0.305394 0.0648721 1.46659
-0.528827 0.064855 1.34468
-0.389962 0.0648308 1.4043
-0.131621 0.0648136 1.5233
-0.436848 0.0647814 1.36131
-0.30949 0.0647641 1.41484
-0.346919 0.0647324 1.38675
-0.553384 0.0647148 1.27339
-0.358932 0.0646972 1.3605
-0.344754 0.0646749 1.35773
-0.534887 0.0646571 1.25257
-0.519683 0.0646265 1.25078
-0.553301 0.0646085 1.2239
-0.253003 0.0645905 1.36399
-0.499192 0.0645604 1.2315
-0.228762 0.0645421 1.35668
-0.372867 0.0645218 1.27472
-0.349373 0.0645034 1.27645
-0.149738 0.0644849 1.36627
-0.381624 0.0644559 1.24091
-0.226442 0.0644372 1.30853
-0.0163291 0.0644088 1.40416
-0.380895 0.06439 1.21192
-0.285511 0.0643711 1.24967
-0.51085 0.0643616 1.12654
-0.446783 0.0643336 1.14915
-0.388936 0.0643144 1.16817
-0.190602 0.0642871 1.25789
-0.305124 0.0642678 1.19075
-0.292803 0.0642483 1.18704
-0.451772 0.0642288 1.0977
-0.246229 0.0642091 1.19062
-0.364436 0.064192 1.12153
-0.0661447 0.0641658 1.26123
-0.145277 0.0641459 1.21185
-0.26507 0.064126 1.14215
-0.385859 0.0641002 1.0723
0.0453103 0.0640801 1.2781
-0.294611 0.0640655 1.09805
-0.429125 0.0640452 1.02104
-0.259076 0.0640245 1.09634
-0.332007 0.064004 1.05015
-0.370256 0.0639835 1.0213
-0.188425 0.0639588 1.10276
-0.12433 0.063938 1.12511
-0.384669 0.0639213 0.985022
-0.0630275 0.0639003 1.13618
-0.369997 0.0638826 0.972841
-0.537446 0.0638615 0.879471
-0.467244 0.0638404 0.904939
-0.488006 0.0638167 0.885086
-0.165664 0.0637954 1.03665
-0.150477 0.0637764 1.0345
-0.621333 0.0637632 0.788981
-0.260064 0.0637401 0.960143
-0.289286 0.0637184 0.935971
-0.514692 0.0636967 0.813722
-0.102958 0.063674 1.01011
-0.294535 0.0636529 0.904747
-0.147995 0.0636412 0.967874
-0.184156 0.0636191 0.940294
-0.360281 0.063597 0.842746
-0.201948 0.0635747 0.91244
-0.341833 0.0635524 0.833039
-0.242414 0.06353 0.873303
-0.393055 0.0635075 0.788552
-0.225996 0.0634849 0.862663
-0.300032 0.0634735 0.815519
-0.401902 0.0634509 0.755182
-0.161399 0.063428 0.866051
-0.0445684 0.0634051 0.915098
-0.325295 0.0633821 0.765379
-0.116609 0.0633706 0.859636
0.137356 0.0633483 0.977227
-0.20914 0.0633251 0.79466
-0.407169 0.0633018 0.68634
-0.151512 0.0632783 0.804877
-0.170494 0.0632566 0.785995
-0.280865 0.063233 0.721545
-0.341861 0.0632211 0.681019
-0.454104 0.0631974 0.615657
-0.357171 0.0631736 0.654896
-0.190055 0.0631522 0.729072
-0.320112 0.0631282 0.654843
-0.269751 0.0631042 0.670838
-0.344337 0.0630921 0.623568
-0.361184 0.0630679 0.605982
-0.302147 0.0630436 0.626353
-0.216217 0.0630225 0.659957
-0.28472 0.0629981 0.616585
-0.433047 0.0629735 0.533317
-0.169215 0.0629612 0.655306
-0.455521 0.0629365 0.503072
-0.283425 0.0629159 0.579766
-0.0147434 0.062891 0.705053
-0.540755 0.062866 0.433008
-0.142869 0.0628535 0.622068
-0.258077 0.0628284 0.555448
-0.316458 0.0628032 0.517258
-0.139887 0.0627779 0.596558
-0.356538 0.0627576 0.478913
-0.474595 0.0627321 0.410927
-0.272927 0.0627194 0.50193
-0.400731 0.0626938 0.429095
-0.372037 0.0626681 0.434525
-0.156922 0.0626423 0.533179
-0.0375774 0.0626165 0.583964
-0.150384 0.0626094 0.517362
-0.272806 0.0625834 0.447286
-0.391372 0.0625573 0.379153
-0.266141 0.0625312 0.432935
-0.124317 0.0625049 0.495028
-0.353824 0.0624786 0.371471
-0.237137 0.0624654 0.420083
-0.179054 0.0624389 0.440346
-0.0542475 0.0624191 0.493505
-0.430987 0.0623924 0.296385
-0.298289 0.0623791 0.353036
-0.158649 0.0623523 0.414133
-0.323305 0.0623255 0.323096
-0.0837456 0.0622985 0.434183
0.0230676 0.0622715 0.478913
-0.168381 0.062258 0.373537
-0.476291 0.0622308 0.210931
-0.285231 0.0622035 0.297825
-0.360819 0.0621762 0.251412
-0.303701 0.0621564 0.270809
-0.404512 0.0621426 0.210797
-0.326203 0.0621151 0.241371
-0.29686 0.0620874 0.247478
-0.390245 0.0620597 0.192237
-0.325212 0.0620319 0.216222
-0.251928 0.062018 0.243305
-0.185156 0.06199 0.268185
-0.025493 0.061962 0.339527
-0.293124 0.0619339 0.197238
-0.244827 0.0619198 0.211865
-0.135095 0.0618916 0.258284
-0.166583 0.0618633 0.234109
-0.172091 0.0618348 0.222941
-0.242787 0.0618063 0.179194
-0.158453 0.0617921 0.211889
-0.167502 0.0617719 0.198343
-0.0992338 0.0617432 0.22412
-0.24715 0.0617145 0.14182
-0.181783 0.0617 0.165068
-0.132986 0.0616711 0.181153
-0.187505 0.0616421 0.145595
-0.286427 0.061613 0.087853
-0.415224 0.0615985 0.0140575
-0.244794 0.0615692 0.0910188
-0.285388 0.06154 0.0624844
-0.239262 0.0615106 0.077327
-0.239983 0.0614958 0.0676089
-0.346174 0.0614663 0.00632038
-0.264156 0.0614367 0.0391527
-0.105092 0.0614071 0.110525
-0.447544 0.0613922 -0.0700189
-0.207829 0.0613624 0.0417067
0.022704 0.0613325 0.148859
-0.20745 0.0613025 0.0256835
-0.202896 0.0612875 0.018682
-0.0808504 0.0612574 0.071635
-0.360394 0.0803991 1.99221
-0.496142 0.0801778 1.9207
-0.454161 0.0800882 1.93345
-0.422122 0.0799509 1.94295
-0.481417 0.0798554 1.90534
0.00711283 0.0798079 2.13994
-0.336843 0.0797136 1.95999
-0.0734839 0.0796594 2.08228
-0.194721 0.0796054 2.01228
-0.252295 0.0795516 1.97412
-0.36714 0.0794679 1.90843
-0.625617 0.0794151 1.76982
-0.32906 0.0793626 1.90873
-0.300272 0.0793182 1.91346
-0.509574 0.0792665 1.79944
-0.190698 0.0792151 1.94951
-0.506196 0.0791641 1.78239
-0.51347 0.0791135 1.76938
-0.150456 0.0790974 1.94023
-0.141262 0.0790552 1.93516
-0.38008 0.0790055 1.80639
-0.2145 0.0789562 1.87981
-0.499556 0.0789073 1.72791
-0.350578 0.0788907 1.79181
-0.392006 0.0788507 1.7614
-0.273967 0.0788028 1.81105
-0.27096 0.0787859 1.80199
-0.629973 0.0787384 1.61312
-0.190213 0.0786916 1.82362
-0.290833 0.0786743 1.76278
-0.431812 0.0786366 1.68258
-0.293456 0.0785908 1.74237
-0.233545 0.0785732 1.76184
-0.483731 0.0785279 1.62736
-0.508718 0.0784833 1.60548
-0.377992 0.0784654 1.66038
-0.576921 0.0784302 1.55116
-0.694175 0.0784122 1.4821
-0.28193 0.0783686 1.67882
-0.528148 0.0783503 1.5453
-0.299186 0.0783073 1.65038
-0.19883 0.0782888 1.69017
-0.474493 0.0782556 1.54255
-0.449824 0.078237 1.54452
-0.384314 0.0781951 1.56787
-0.456763 0.078154 1.52222
-0.402789 0.078135 1.53887
-0.373651 0.0780944 1.54401
-0.324933 0.0780752 1.55806
-0.158453 0.0780559 1.631
-0.477351 0.0780256 1.46172
-0.525791 0.0780061 1.42721
-0.465646 0.0779667 1.44785
-0.42366 0.077947 1.45859
-0.448655 0.0779082 1.43665
-0.494859 0.0778883 1.40332
-0.173264 0.0778602 1.55423
-0.239787 0.0778401 1.51076
-0.415357 0.0778027 1.41351
-0.373589 0.0777824 1.4242
-0.381236 0.0777456 1.41091
-0.444803 0.0777251 1.36896
-0.196686 0.0777044 1.48286
-0.435863 0.0776787 1.35334
-0.263338 0.0776578 1.42947
-0.231822 0.0776224 1.43574
-0.129957 0.0776013 1.47656
-0.31197 0.0775666 1.37606
-0.197279 0.0775453 1.42331
-0.4014 0.0775239 1.31118
-0.380434 0.0775005 1.31168
-0.277402 0.077479 1.35313
-0.363772 0.0774573 1.2999
-0.0784593 0.0774238 1.43305
-0.332051 0.0774019 1.29624
-0.324959 0.0773691 1.29026
-0.29743 0.077347 1.29403
-0.355205 0.0773248 1.25515
-0.329851 0.0773024 1.25785
-0.446464 0.0772814 1.18952
-0.3602 0.0772589 1.22269
-0.455028 0.0772274 1.16575
-0.405163 0.0772046 1.18075
-0.167951 0.0771739 1.28981
-0.372408 0.0771509 1.17767
-0.190381 0.0771357 1.25842
-0.471053 0.0771125 1.1082
-0.216395 0.0770861 1.22581
-0.0470546 0.0770628 1.30062
-0.342497 0.0770393 1.14304
-0.278288 0.0770097 1.1656
-0.316819 0.0769861 1.13651
-0.278267 0.0769623 1.14597
-0.321167 0.0769443 1.11443
-0.429923 0.0769214 1.05021
-0.491862 0.0768973 1.00946
-0.274701 0.0768691 1.10847
-0.417492 0.0768448 1.02732
-0.175121 0.0768204 1.13876
-0.245777 0.0767959 1.0937
-0.250728 0.0767713 1.08151
-0.353845 0.0767559 1.01978
-0.355006 0.0767311 1.0095
-0.140252 0.0767041 1.1073
-0.564501 0.0766791 0.885504
-0.367408 0.076654 0.97439
-0.453432 0.0766288 0.92173
-0.684974 0.0766035 0.796326
-0.391802 0.0765896 0.932703
-0.222773 0.0765642 1.0076
-0.46601 0.0765384 0.876394
-0.477238 0.0765127 0.861192
-0.386673 0.0764869 0.896899
-0.0878236 0.076461 1.03676
-0.468181 0.0764349 0.837034
-0.23696 0.0764219 0.942435
-0.493771 0.0763957 0.804502
-0.203418 0.0763693 0.940165
-0.246201 0.0763429 0.909273
0.0276332 0.0763173 1.03666
-0.420203 0.0762906 0.803264
-0.358793 0.0762639 0.824508
-0.315875 0.0762504 0.835814
0.0830774 0.0762235 1.02585
-0.394555 0.0761984 0.77751
-0.509394 0.0761712 0.710679
-0.074195 0.076144 0.918879
-0.206527 0.0761166 0.843328
-0.216146 0.076092 0.828995
-0.374658 0.0760783 0.739641
-0.036583 0.0760506 0.899329
-0.231658 0.0760229 0.792455
-0.270984 0.0759951 0.76347
-0.387086 0.075971 0.695903
0.0608245 0.0759429 0.910562
-0.212245 0.0759288 0.763979
-0.505512 0.0759006 0.608073
-0.151761 0.0758771 0.775428
-0.347084 0.0758487 0.66852
-0.362767 0.0758202 0.651447
-0.12896 0.0757915 0.759133
-0.387186 0.0757628 0.620816
-0.170984 0.0757483 0.718928
-0.145131 0.0757252 0.722354
-0.226013 0.0756962 0.672745
-0.125719 0.0756671 0.713739
-0.207667 0.0756379 0.663627
-0.450024 0.0756085 0.533325
-0.0591763 0.0756006 0.718431
-0.208195 0.0755711 0.634819
-0.12974 0.0755415 0.664959
-0.207555 0.0755118 0.61698
-0.214035 0.075482 0.604681
-0.175502 0.075467 0.614052
-0.0812705 0.0754448 0.651692
-0.313645 0.0754147 0.526484
-0.355187 0.0753845 0.496707
-0.388001 0.0753542 0.471308
-0.22111 0.0753238 0.545777
-0.123077 0.0753086 0.584949
-0.00212959 0.075278 0.636471
-0.293757 0.0752561 0.481214
-0.260729 0.0752253 0.488805
-0.505524 0.0751944 0.357498
-0.0879837 0.075179 0.556467
-0.0707924 0.0751479 0.556178
-0.207199 0.0751168 0.479106
-0.226 0.0750856 0.460852
-0.206243 0.0750639 0.461319
-0.223552 0.0750482 0.442907
-0.222145 0.0750167 0.434794
-0.315786 0.0749851 0.379174
-0.0442231 0.0749534 0.50617
-0.194417 0.0749216 0.422303
-0.278029 0.0748896 0.371742
-0.148198 0.0748736 0.426956
-0.280696 0.0748416 0.351978
-0.0582717 0.0748201 0.453833
-0.296775 0.0747878 0.325881
-0.287601 0.0747554 0.321783
-0.333077 0.0747392 0.289388
-0.301776 0.0747066 0.29638
-0.183684 0.074674 0.346783
-0.313485 0.0746412 0.273255
-0.352259 0.0746084 0.245257
0.0992004 0.0745919 0.461376
-0.0502914 0.0745589 0.378045
-0.550405 0.0745258 0.119419
-0.0633027 0.0744925 0.354416
-0.113239 0.0744759 0.319875
-0.27012 0.0744542 0.232178
-0.269989 0.0744207 0.22373
-0.0884491 0.0743872 0.306002
-0.210255 0.0743535 0.236617
-0.333421 0.0743366 0.165507
-0.341504 0.0743028 0.153011
-0.154525 0.0742688 0.238061
-0.355847 0.0742348 0.128977
0.151668 0.0742177 0.373246
-0.0816527 0.0741835 0.248189
-0.142965 0.0741492 0.209153
-0.257181 0.0741148 0.143682
-0.161775 0.0740803 0.183038
-0.198245 0.074063 0.155363
-0.242735 0.0740284 0.124798
-0.183429 0.0739936 0.146148
-0.165175 0.0739588 0.146988
-0.111713 0.0739413 0.164318
-0.459931 0.0739063 -0.0180508
-0.0612469 0.0738711 0.173048
-0.177821 0.0738359 0.106535
-0.334314 0.0738183 0.0189262
-0.274684 0.0737829 0.0405426
-0.290202 0.0737474 0.0246013
-0.155673 0.0737118 0.0837006
-0.157529 0.073694 0.0734496
-0.350298 0.0736583 -0.0310721
-0.000180805 0.0736225 0.135866
-0.244799 0.0735865 0.00545242
-0.305123 0.0735685 -0.0339926
-0.383491 0.0735324 -0.0812521
-0.316767 0.0937688 2.06071
-0.349617 0.0935675 2.03883
-0.135125 0.0934073 2.13945
-0.396765 0.0932959 2.00057
-0.613413 0.0932405 1.88253
-0.184114 0.0931307 2.08913
-0.159032 0.0930221 2.0936
-0.251501 0.0929597 2.03792
-0.341848 0.0929061 1.98304
-0.62763 0.0928444 1.83071
-0.527003 0.092783 1.87159
-0.4697 0.0926786 1.89215
-0.283675 0.0926611 1.9744
-0.189401 0.0926096 2.01183
-0.410098 0.0925498 1.89206
-0.426972 0.0924903 1.8742
-0.389797 0.0924314 1.88336
-0.314149 0.0923729 1.91176
-0.408753 0.092324 1.85474
-0.416436 0.0922666 1.84147
-0.485164 0.0922097 1.79767
-0.348618 0.0921534 1.8565
-0.473731 0.0921347 1.7833
-0.356551 0.0920883 1.83216
-0.284084 0.0920331 1.85895
-0.198166 0.0920141 1.8913
-0.432302 0.0919593 1.7648
-0.352765 0.0919053 1.79512
-0.568031 0.0918859 1.67692
-0.557388 0.0918421 1.67248
-0.489196 0.0917893 1.69712
-0.403349 0.0917696 1.7295
-0.573259 0.0917174 1.6351
-0.469495 0.0916659 1.67752
-0.502708 0.0916457 1.65041
-0.506656 0.091605 1.63863
-0.321886 0.0915846 1.72053
-0.184213 0.0915344 1.77991
-0.416219 0.0914849 1.65443
-0.147149 0.0914642 1.77851
-0.47119 0.0914154 1.60701
-0.448342 0.0913944 1.60801
-0.484732 0.0913568 1.57997
-0.618616 0.0913357 1.50261
-0.272879 0.0912883 1.666
-0.405632 0.0912668 1.58923
-0.224694 0.0912201 1.67021
-0.406916 0.0911984 1.56873
-0.536409 0.0911633 1.4941
-0.576651 0.0911415 1.46364
-0.706191 0.0910962 1.38936
-0.644733 0.0910741 1.40977
-0.266538 0.0910296 1.58935
-0.485115 0.0910072 1.46976
-0.4144 0.0909634 1.4956
-0.337935 0.0909521 1.52314
-0.362039 0.0909092 1.50155
-0.459545 0.0908863 1.44254
-0.285881 0.0908442 1.51983
-0.502398 0.0908211 1.40134
-0.325618 0.0907797 1.48017
-0.267747 0.0907563 1.4989
-0.41394 0.0907328 1.4156
-0.391292 0.0907039 1.41693
-0.549219 0.0906802 1.32778
-0.305509 0.0906404 1.44007
-0.277689 0.0906164 1.44382
-0.369731 0.0905774 1.38822
-0.452313 0.0905531 1.33679
-0.36253 0.0905287 1.37156
-0.591582 0.0905027 1.24698
-0.465102 0.0904781 1.30011
-0.416545 0.0904534 1.3143
-0.251421 0.0904159 1.38727
-0.5373 0.0903909 1.23426
-0.498317 0.0903542 1.24415
-0.226492 0.090329 1.37002
-0.617526 0.0903036 1.16446
-0.228581 0.0902781 1.34891
-0.354834 0.0902548 1.27569
-0.308097 0.0902291 1.28905
-0.558194 0.0901939 1.15438
-0.397124 0.090168 1.22494
-0.0792973 0.0901336 1.37422
-0.446978 0.0901074 1.18042
-0.376504 0.0900811 1.20571
-0.288762 0.0900607 1.23941
-0.168532 0.0900342 1.2896
-0.430026 0.0900075 1.14894
-0.282942 0.0899747 1.21283
-0.11096 0.0899478 1.28893
-0.217197 0.0899207 1.22594
-0.105683 0.0898935 1.27183
-0.388296 0.0898662 1.12068
-0.227146 0.0898388 1.19141
-0.471889 0.0898163 1.059
-0.411645 0.0897887 1.07931
-0.383755 0.089761 1.08344
-0.216833 0.0897304 1.15722
0.00521429 0.0897024 1.25846
-0.35378 0.0896743 1.0692
-0.391189 0.0896486 1.04062
-0.231233 0.0896202 1.11086
-0.372133 0.0896019 1.03024
-0.401663 0.0895733 1.00575
-0.216914 0.0895442 1.08843
-0.267378 0.0895153 1.0535
-0.400674 0.0894863 0.977165
-0.331883 0.0894572 1.00189
-0.360248 0.0894283 0.978028
-0.173096 0.0894133 1.06134
-0.184966 0.0893839 1.04576
-0.26088 0.0893543 0.998175
-0.490723 0.0893246 0.873639
-0.202756 0.0892956 1.00798
-0.220932 0.0892657 0.989306
-0.203681 0.0892356 0.988355
-0.160419 0.0892205 0.999759
-0.25192 0.0891922 0.944366
-0.237432 0.0891618 0.942067
-0.232091 0.0891313 0.935209
-0.382115 0.0891037 0.850542
-0.0961529 0.089073 0.98402
-0.520326 0.089042 0.762443
-0.367076 0.0890265 0.828895
-0.459335 0.0889954 0.773297
-0.177123 0.0889685 0.904756
-0.0459588 0.0889371 0.960896
-0.15316 0.0889056 0.897866
-0.378762 0.0888794 0.775406
-0.424172 0.0888636 0.742575
-0.350191 0.0888318 0.770171
-0.283497 0.0887998 0.794137
-0.329217 0.0887678 0.76191
-0.348401 0.0887421 0.742666
-0.186161 0.0887098 0.814444
-0.198396 0.0886774 0.799
-0.214573 0.0886449 0.781598
-0.461587 0.0886285 0.648032
-0.17527 0.0886034 0.781544
-0.190775 0.0885706 0.764514
-0.23937 0.0885376 0.730953
-0.302215 0.0885045 0.69028
-0.121207 0.0884879 0.770765
-0.293984 0.0884633 0.674737
-0.0197427 0.0884299 0.802643
-0.0941713 0.0883964 0.756229
-0.336641 0.0883627 0.625809
-0.011359 0.0883289 0.779278
-0.269976 0.0883048 0.640341
-0.033895 0.0882878 0.74842
-0.0185912 0.0882537 0.746936
-0.231201 0.0882195 0.631511
-0.314838 0.0881851 0.580586
-0.206558 0.0881616 0.625103
-0.259923 0.088127 0.589341
-0.351258 0.0881097 0.533763
0.00318433 0.0880749 0.701929
-0.416722 0.08804 0.482936
-0.179539 0.0880049 0.592501
-0.0336881 0.0879697 0.656416
-0.209098 0.0879466 0.559118
-0.44956 0.0879289 0.429028
-0.127481 0.0878934 0.581093
-0.101398 0.0878578 0.585176
-0.175865 0.0878221 0.538999
-0.343638 0.0877862 0.446183
-0.210482 0.0877683 0.502946
-0.0831086 0.0877454 0.557066
0.119021 0.0877093 0.649239
-0.0436173 0.087673 0.559044
-0.303443 0.0876366 0.42027
-0.259989 0.0876001 0.43315
-0.152959 0.0875818 0.476904
-0.214129 0.0875451 0.437498
0.0406433 0.0875083 0.556078
-0.360195 0.0874857 0.346136
-0.258023 0.0874486 0.388445
-0.28474 0.08743 0.365368
-0.293486 0.0873928 0.352242
-0.0398998 0.0873554 0.470299
-0.110381 0.0873179 0.426337
-0.25067 0.0872803 0.347487
-0.286579 0.0872614 0.319861
-0.323057 0.0872236 0.292942
-0.320306 0.0872011 0.284847
-0.153248 0.0871631 0.359724
-0.0304882 0.087125 0.412469
-0.318831 0.0871058 0.25867
-0.195231 0.0870675 0.311861
-0.236755 0.087029 0.282505
-0.435207 0.0869905 0.174701
0.0128025 0.0869518 0.390144
-0.282219 0.0869324 0.233053
-0.421475 0.0868935 0.154889
-0.233511 0.0868545 0.240352
-0.30754 0.0868153 0.194834
-0.0132772 0.0867761 0.333478
-0.39468 0.0867564 0.133244
-0.0090484 0.0867336 0.316703
-0.222543 0.086694 0.201508
-0.078663 0.0866544 0.265016
-0.234157 0.0866345 0.177773
-0.361759 0.0865947 0.105567
0.0550515 0.0865547 0.305584
-0.152934 0.0865146 0.193219
-0.1604 0.0864945 0.180028
-0.0868082 0.0864543 0.208478
-0.189697 0.0864139 0.148705
-0.154351 0.0863734 0.158066
-0.160822 0.0863328 0.146534
-0.12968 0.0863124 0.152697
-0.209994 0.0862716 0.104271
-0.192193 0.0862307 0.10492
-0.0558787 0.0861897 0.164841
-0.248913 0.0861691 0.0589548
-0.279595 0.0861279 0.0354054
-0.156835 0.0860866 0.0885946
-0.0311011 0.0860451 0.143287
-0.047256 0.0860244 0.125879
-0.142222 0.0859827 0.0702492
-0.233867 0.085941 0.0162968
0.108062 0.0858991 0.179148
-0.0717797 0.0858782 0.0799369
-0.386215 0.0858361 -0.0853658
-0.228842 0.107481 2.15385
-0.455468 0.10714 2.03776
-0.51145 0.106956 2.00304
-0.481038 0.106827 2.01013
-0.369368 0.10671 2.0576
-0.536362 0.106583 1.96599
-0.522232 0.106458 1.96492
-0.31102 0.106387 2.06103
-0.0442096 0.106325 2.18469
-0.463971 0.106255 1.96532
-0.38901 0.106134 1.99464
-0.356671 0.106065 2.00131
-0.39312 0.105997 1.97359
-0.450102 0.105938 1.93535
-0.657072 0.105871 1.82237
-0.393385 0.105803 1.94473
-0.63264 0.105737 1.81561
-0.46568 0.105681 1.88933
-0.495421 0.105615 1.86496
-0.586417 0.105595 1.80873
-0.209595 0.10553 1.98766
-0.557922 0.105466 1.80401
-0.425045 0.105402 1.86096
-0.313311 0.105349 1.90704
-0.604549 0.105328 1.75075
-0.540655 0.105266 1.7732
-0.488515 0.105204 1.78977
-0.533665 0.105143 1.75769
-0.253651 0.105122 1.88708
-0.77883 0.105072 1.61468
-0.581375 0.105012 1.70389
-0.61586 0.104991 1.67606
-0.468277 0.104932 1.74034
-0.374849 0.104873 1.77753
-0.682443 0.104851 1.61318
-0.345351 0.104805 1.77188
-0.588502 0.104783 1.63976
-0.471614 0.104726 1.68868
-0.20008 0.10467 1.81491
-0.305377 0.104647 1.75176
-0.608599 0.104592 1.59061
-0.069133 0.104569 1.84986
-0.583108 0.104526 1.58298
-0.317372 0.104503 1.70539
-0.384425 0.104449 1.66231
-0.388312 0.104397 1.6508
-0.274108 0.104373 1.69748
-0.308384 0.104349 1.66993
-0.264099 0.104309 1.68214
-0.422438 0.104259 1.59339
-0.40641 0.104234 1.59102
-0.551613 0.104184 1.50883
-0.538032 0.10416 1.50526
-0.362669 0.10411 1.58334
-0.323733 0.104085 1.59247
-0.438835 0.10406 1.52459
-0.251528 0.104025 1.60826
-0.329812 0.103999 1.5588
-0.402736 0.103952 1.51274
-0.27152 0.103926 1.56806
-0.412206 0.10388 1.4881
-0.198568 0.103854 1.58465
-0.422787 0.103821 1.46249
-0.020692 0.103795 1.6533
-0.44926 0.10375 1.42937
-0.297142 0.103724 1.4952
-0.401101 0.10368 1.43357
-0.547434 0.103653 1.3502
-0.203569 0.103626 1.51194
-0.247138 0.103583 1.4805
-0.615611 0.103556 1.2861
-0.204776 0.103528 1.48139
-0.294002 0.1035 1.42663
-0.225722 0.103473 1.45064
-0.445834 0.103432 1.3309
-0.0892225 0.103404 1.49909
-0.380907 0.103363 1.34356
-0.4009 0.103335 1.32347
-0.249171 0.103307 1.38926
-0.403073 0.103282 1.30212
-0.350271 0.103253 1.31846
-0.276388 0.103215 1.34568
-0.270448 0.103186 1.33862
-0.413377 0.103157 1.25713
-0.407845 0.10312 1.25017
-0.108286 0.10309 1.38994
-0.198405 0.103061 1.33489
-0.110653 0.103039 1.36852
-0.511409 0.103009 1.15817
-0.383266 0.10298 1.21229
-0.398216 0.102944 1.19507
-0.0763977 0.102914 1.34604
-0.369582 0.102879 1.18968
-0.155366 0.102849 1.28688
0.0855011 0.102822 1.39725
-0.307925 0.102792 1.19065
-0.166184 0.102761 1.25165
-0.317345 0.102738 1.16592
-0.260005 0.102705 1.1848
-0.291911 0.102674 1.15901
-0.509167 0.102642 1.04054
-0.275089 0.102611 1.14776
-0.135311 0.102579 1.20784
-0.411233 0.102563 1.05953
-0.207408 0.102531 1.15165
-0.384103 0.102499 1.05353
-0.322013 0.102466 1.07481
-0.477538 0.102434 0.987298
-0.235187 0.102402 1.09874
-0.403948 0.102369 1.00463
0.0324677 0.102337 1.2131
-0.530903 0.102304 0.921709
-0.176355 0.102287 1.08868
-0.184575 0.102256 1.07481
-0.234307 0.102223 1.04027
-0.132973 0.10219 1.08129
-0.281855 0.102156 0.997201
-0.0857703 0.102126 1.08549
-0.201626 0.102092 1.01794
-0.617408 0.102075 0.799795
-0.509134 0.102041 0.844336
-0.383039 0.102011 0.897622
-0.289293 0.101977 0.934923
-0.357129 0.101942 0.891447
-0.0765031 0.101913 1.02199
-0.0706307 0.101879 1.01539
-0.478731 0.101844 0.801818
-0.246235 0.101826 0.907874
-0.171776 0.101798 0.935324
-0.14931 0.101763 0.93707
-0.288665 0.101727 0.85792
-0.490418 0.101692 0.747584
-0.183138 0.101664 0.891444
-0.287548 0.101646 0.829092
-0.425152 0.10161 0.750865
-0.229984 0.101574 0.839037
-0.273065 0.101538 0.808099
-0.303881 0.101511 0.782915
-0.210303 0.101475 0.820332
-0.270055 0.101438 0.781097
-0.220601 0.101401 0.796479
-0.228254 0.101394 0.782127
-0.300525 0.101357 0.736667
-0.250471 0.101319 0.752384
-0.0367132 0.101282 0.849967
-0.264952 0.101245 0.726566
0.00867229 0.101219 0.853606
-0.205022 0.1012 0.736726
-0.233244 0.101162 0.713368
0.0481532 0.101124 0.844834
-0.21337 0.101086 0.704854
-0.397433 0.101062 0.603056
-0.296907 0.101023 0.644127
-0.142861 0.101004 0.711166
-0.233761 0.100965 0.656547
-0.0415204 0.100926 0.743513
-0.120704 0.100902 0.69416
-0.27564 0.100863 0.607564
-0.418489 0.100824 0.527027
-0.185824 0.100785 0.634261
-0.199919 0.100765 0.617289
-0.136755 0.100725 0.639796
-0.263392 0.100702 0.566734
-0.151905 0.100662 0.613429
-0.264886 0.100622 0.547906
-0.251857 0.100582 0.545402
-0.215051 0.100562 0.553932
-0.422025 0.100521 0.441451
-0.143871 0.100498 0.570801
-0.333172 0.100457 0.467184
-0.204263 0.100417 0.522687
-0.0619069 0.100396 0.584034
-0.193825 0.100355 0.509148
-0.273714 0.100314 0.460291
-0.355297 0.100273 0.410603
