ply
format ascii 1.0
comment Created by Open3D
element vertex 1927
property double x
property double y
property double z
end_header
0.146274 1.423 1.28841
0.084546 1.42211 1.24847
-0.0023278 1.42127 1.19582
0.132427 1.42048 1.25386
0.0530655 1.41975 1.2047
0.11025 1.41908 1.22366
0.0848639 1.41846 1.20119
0.010558 1.41791 1.1541
-0.0037904 1.41742 1.13683
0.195034 1.417 1.22598
0.0581525 1.41677 1.14675
0.0929914 1.41647 1.15357
0.133227 1.41624 1.16291
0.145358 1.41607 1.15801
0.129831 1.41598 1.13911
0.138652 1.41607 1.13184
0.186729 1.41608 1.14444
0.106712 1.41615 1.09283
0.143021 1.41641 1.09883
0.158502 1.41661 1.09459
0.195746 1.41701 1.10068
0.0399162 1.41734 1.0104
0.0907129 1.41809 1.02226
0.171257 1.41858 1.0497
0.144474 1.41952 1.02219
0.252711 1.42034 1.06253
0.231292 1.42154 1.03691
0.172795 1.42301 0.991994
0.256643 1.42481 1.01726
0.263094 1.4272 1.0021
0.272012 1.43054 0.985356
0.150816 1.46548 1.37795
0.213867 1.46079 1.40963
0.185822 1.45687 1.3939
0.230602 1.45471 1.41017
0.127701 1.45163 1.35498
0.0843738 1.44957 1.32701
0.157816 1.44744 1.35763
0.128268 1.44614 1.33464
0.100603 1.44413 1.31445
0.0469356 1.44293 1.27922
0.166497 1.44163 1.33085
0.0644543 1.43997 1.27267
0.0372596 1.43891 1.25034
0.116368 1.43777 1.28139
0.113681 1.43682 1.27109
0.0924626 1.43591 1.2514
0.173273 1.43506 1.2826
0.100028 1.43427 1.23663
0.107446 1.43353 1.23085
0.0938207 1.43285 1.21441
0.134865 1.43223 1.22515
0.1855 1.43168 1.24052
0.0907757 1.43118 1.18306
0.0154505 1.43076 1.13513
0.119676 1.43056 1.17634
0.103284 1.43023 1.15763
0.184172 1.43009 1.18704
0.133793 1.4299 1.15096
0.0552936 1.42976 1.10066
0.10103 1.4297 1.11229
0.110978 1.42982 1.10551
0.0676795 1.42986 1.07235
0.171274 1.42996 1.11244
0.074874 1.43037 1.05169
0.189364 1.43064 1.09676
0.101129 1.4311 1.03991
0.100299 1.4315 1.02695
0.214119 1.43235 1.07003
0.201501 1.43304 1.05033
0.127413 1.434 0.999145
0.265124 1.43522 1.05309
0.236578 1.43657 1.02351
0.221214 1.43864 0.998426
0.235668 1.44079 0.988006
0.251524 1.44397 0.975294
0.318943 1.4508 0.977797
0.173629 1.48031 1.38651
0.291366 1.47558 1.44553
0.158904 1.47175 1.37728
0.196349 1.46857 1.39238
0.0982407 1.46642 1.33714
0.148379 1.46419 1.35627
0.248696 1.46202 1.40037
0.148501 1.45992 1.34408
0.0416235 1.45865 1.28236
0.183582 1.45668 1.34687
0.0949585 1.4555 1.29407
0.0869228 1.45437 1.28147
0.130785 1.45262 1.29642
0.118591 1.4516 1.28148
0.124022 1.45064 1.27524
0.179925 1.44972 1.2941
0.107299 1.44887 1.24858
0.0837731 1.44806 1.22746
0.0629546 1.44732 1.20757
0.128459 1.44664 1.23068
0.0230276 1.44632 1.16737
0.138448 1.44572 1.21522
0.167553 1.44519 1.21975
0.0656402 1.44473 1.15861
0.0946458 1.44433 1.16277
0.106853 1.44399 1.15835
0.0640197 1.44372 1.12623
0.123019 1.44362 1.14461
0.199526 1.44352 1.1717
0.17892 1.44346 1.15016
0.162312 1.44345 1.13046
0.0842717 1.44362 1.07956
0.187871 1.44372 1.11966
0.168234 1.44389 1.09794
0.17532 1.44426 1.08904
0.170456 1.44487 1.07348
0.207768 1.44528 1.07958
0.216419 1.44588 1.07079
0.255867 1.4467 1.07678
0.285116 1.4478 1.07688
0.255544 1.44891 1.0475
0.187749 1.45039 0.997975
0.272528 1.45187 1.02468
0.167211 1.45413 0.954145
0.254468 1.45728 0.977291
0.274615 1.46328 0.958695
0.297519 1.49517 1.44561
0.262936 1.48964 1.43032
0.174156 1.48564 1.38424
0.119282 1.48343 1.35069
0.197481 1.48027 1.38609
0.172736 1.47815 1.36745
0.163891 1.47596 1.35697
0.189261 1.47383 1.36346
0.193054 1.47255 1.35706
0.114989 1.47117 1.31001
0.0760446 1.46937 1.28359
0.12456 1.46823 1.29927
0.0721467 1.467 1.26472
0.112846 1.46595 1.27628
0.0901591 1.46495 1.25603
0.10523 1.464 1.25455
0.139842 1.46311 1.2627
0.122419 1.46227 1.24471
0.179723 1.46135 1.26429
0.0857072 1.46063 1.20772
0.198893 1.45997 1.25461
0.151719 1.45938 1.22116
0.0960107 1.45897 1.18293
0.165805 1.4585 1.20764
0.122858 1.4581 1.17581
0.180996 1.45776 1.19435
0.128972 1.45749 1.15764
0.0617798 1.45729 1.11317
0.157987 1.45729 1.14985
0.0683795 1.45722 1.09381
0.171337 1.45721 1.13389
0.166665 1.45725 1.12003
0.212834 1.45749 1.13105
0.13526 1.45766 1.08036
0.124801 1.45803 1.06268
0.173943 1.45834 1.07498
0.175068 1.45906 1.06212
0.136217 1.45953 1.02995
0.100243 1.4605 0.997852
0.235728 1.46126 1.05201
0.327303 1.46246 1.08301
0.192926 1.46379 1.00063
0.228697 1.46572 1.00164
0.323307 1.46786 1.03144
0.311928 1.47091 1.00564
0.281683 1.47592 0.964815
0.312718 1.51093 1.4482
0.197541 1.50447 1.39477
0.220357 1.50056 1.40416
0.163724 1.4973 1.37225
0.13299 1.49511 1.35072
0.150858 1.49282 1.35374
0.164295 1.49059 1.35445
0.161828 1.48842 1.34707
0.132884 1.48646 1.32597
0.14091 1.48507 1.32195
0.201526 1.48385 1.34381
0.105248 1.4821 1.28859
0.119212 1.48086 1.28723
0.160188 1.4798 1.29892
0.133043 1.47879 1.27644
0.0528093 1.47783 1.2273
0.082458 1.4768 1.23332
0.167255 1.47595 1.26643
0.109466 1.47516 1.22812
0.0931808 1.47444 1.21041
0.0152793 1.47377 1.16175
0.0473176 1.47317 1.1679
0.0830557 1.47263 1.17574
0.0286255 1.47215 1.13834
0.085043 1.47188 1.15584
0.0411737 1.47154 1.12337
0.0324961 1.47127 1.10833
-0.00208767 1.47106 1.08016
0.221876 1.47093 1.18108
0.132492 1.47099 1.12478
0.1802 1.47099 1.13723
0.127139 1.47102 1.09918
0.198695 1.47126 1.12288
0.0931149 1.47144 1.05819
0.194538 1.47168 1.09682
0.171049 1.47213 1.07243
0.0973954 1.47264 1.02276
0.18839 1.47333 1.05493
0.248819 1.47401 1.07183
0.147658 1.47508 1.00686
0.217263 1.47629 1.02686
0.180485 1.47749 0.99366
0.214947 1.4791 0.994945
0.227737 1.48121 0.983976
0.347583 1.48423 1.02396
0.324712 1.48894 0.987778
0.307545 1.52583 1.44278
0.160921 1.51946 1.37326
0.186878 1.51537 1.38456
0.184796 1.51132 1.38178
0.232289 1.50897 1.3997
0.229777 1.5068 1.39219
0.199622 1.50455 1.3711
0.0903052 1.50236 1.3103
0.129465 1.50103 1.32162
0.125226 1.49898 1.31309
0.145088 1.49775 1.31457
0.14106 1.49642 1.30436
0.132387 1.49473 1.29278
0.145208 1.49366 1.2904
0.170643 1.49264 1.29421
0.0898879 1.49154 1.24515
0.130646 1.49063 1.25637
0.0207796 1.48978 1.19215
0.109786 1.48898 1.22723
0.109175 1.48825 1.21736
0.130511 1.48758 1.21831
0.137289 1.48697 1.21183
0.0562121 1.48642 1.16126
0.144127 1.48595 1.19502
0.0962871 1.48553 1.16074
0.104013 1.48535 1.15365
0.0765466 1.48518 1.12894
0.0224553 1.48494 1.0911
0.0672237 1.48477 1.10251
0.0967535 1.48466 1.10612
0.115301 1.48477 1.10369
0.105008 1.48478 1.08709
0.0809851 1.48485 1.06346
0.169925 1.48513 1.09576
0.128593 1.48547 1.06274
0.12599 1.48592 1.04879
0.189845 1.4863 1.06824
0.187108 1.48702 1.05347
0.168303 1.48782 1.03046
0.248277 1.48876 1.05642
0.196363 1.48974 1.01631
0.200623 1.49119 1.003
0.275588 1.49282 1.02451
0.287901 1.49509 1.01292
0.290142 1.4977 0.995307
0.299408 1.5021 0.976164
0.341988 1.54164 1.45502
0.191435 1.53343 1.38785
0.24635 1.52943 1.41329
0.144762 1.52611 1.35892
0.23485 1.52298 1.39997
0.122906 1.52065 1.33808
0.113154 1.51851 1.32685
0.188041 1.51699 1.35647
0.191406 1.51497 1.35157
0.143253 1.51289 1.32108
0.106925 1.51165 1.29446
0.120613 1.51032 1.29311
0.149484 1.50917 1.2989
0.14958 1.50806 1.29021
0.124658 1.50636 1.27052
0.0804795 1.50539 1.2394
0.0537418 1.50447 1.21687
0.0379084 1.50361 1.19967
0.100672 1.50281 1.22162
0.172643 1.50207 1.24804
0.100015 1.50139 1.202
0.199247 1.50108 1.24098
0.152279 1.50049 1.20754
0.0613105 1.49998 1.15195
0.122942 1.49953 1.17248
0.063345 1.49915 1.13224
0.078252 1.49884 1.12907
0.143976 1.49873 1.15078
0.0972355 1.49856 1.11643
0.166411 1.49845 1.13986
0.193917 1.49843 1.14225
0.127407 1.49857 1.09719
0.149259 1.49864 1.0965
0.0680126 1.49878 1.04406
0.206044 1.49913 1.10071
0.15344 1.49969 1.06147
0.268286 1.50011 1.10635
0.232477 1.5007 1.07541
0.206562 1.5015 1.04883
0.149241 1.50226 1.00667
0.234892 1.50344 1.03482
0.261048 1.50477 1.03283
0.231586 1.50636 1.00226
0.23434 1.50831 0.986801
0.256103 1.51133 0.977903
0.228215 1.51541 0.941191
0.157219 1.54923 1.36567
0.2891 1.54428 1.4318
0.18867 1.54015 1.37987
0.185334 1.53774 1.37239
0.173685 1.53551 1.36035
0.258588 1.5332 1.39682
0.201503 1.53095 1.36218
0.227135 1.52877 1.36875
0.096816 1.52746 1.29526
0.10219 1.52543 1.29141
0.16858 1.52422 1.31606
0.0960956 1.52306 1.27117
0.0982141 1.52195 1.26349
0.0824406 1.52074 1.24709
0.16209 1.51973 1.27795
0.0725398 1.51878 1.22408
0.184993 1.51788 1.27108
0.0832433 1.51704 1.21085
0.0321061 1.51626 1.17578
0.102571 1.51555 1.20137
0.135044 1.5149 1.20781
0.0358803 1.51431 1.14827
0.136287 1.51379 1.18836
0.0534956 1.51334 1.13668
0.107555 1.51295 1.15326
0.0920504 1.51264 1.13489
0.142619 1.51239 1.14937
0.0572179 1.51236 1.09533
0.169678 1.51225 1.1404
0.217189 1.51222 1.15281
0.124084 1.51223 1.0948
0.095276 1.51244 1.0684
0.126482 1.51259 1.07219
0.226931 1.51294 1.11004
0.224731 1.51322 1.09675
0.246854 1.51392 1.09451
0.211862 1.51438 1.06435
0.255673 1.51518 1.07265
0.189527 1.51609 1.02568
0.182869 1.51729 1.00767
0.313977 1.51862 1.05815
0.27916 1.52009 1.02528
0.230079 1.52221 0.983521
0.331586 1.52467 1.01606
0.359356 1.52858 1.00774
0.310538 1.56337 1.44132
0.202531 1.55916 1.38563
0.157975 1.55512 1.36133
0.181122 1.55177 1.36927
0.210511 1.54938 1.37808
0.158993 1.54719 1.346
0.114366 1.54492 1.31759
0.19726 1.5434 1.35115
0.176615 1.5414 1.33413
0.152 1.53998 1.31375
0.193047 1.53813 1.32725
0.113626 1.53696 1.2789
0.120169 1.5357 1.27377
0.111702 1.53462 1.26068
0.139602 1.53361 1.26565
0.159368 1.53264 1.26644
0.144194 1.53174 1.24963
0.166164 1.53089 1.25125
0.102655 1.53011 1.20999
0.143045 1.52924 1.2209
0.0769183 1.52873 1.17768
0.12474 1.52814 1.19163
0.176522 1.52761 1.2074
0.122142 1.52715 1.16993
0.123855 1.52677 1.16033
0.133071 1.52645 1.15431
0.210085 1.5262 1.18202
0.128982 1.5261 1.13028
0.0840186 1.52606 1.09647
0.0739934 1.52603 1.08011
0.190515 1.52604 1.12691
0.237079 1.52625 1.13819
0.116677 1.5264 1.06617
0.25458 1.52661 1.12312
0.208832 1.52704 1.08768
0.153374 1.5274 1.04756
0.23077 1.52821 1.07268
0.118242 1.52888 1.00318
0.214908 1.52994 1.03724
0.263768 1.53077 1.04797
0.279265 1.53207 1.04077
0.259322 1.53383 1.0146
0.314568 1.53559 1.026
0.224717 1.53817 0.962615
0.260471 1.5419 0.958861
0.298984 1.5783 1.43266
0.22782 1.57326 1.39727
0.252021 1.56905 1.40767
0.259586 1.56672 1.40532
0.110771 1.5634 1.32719
0.181069 1.56119 1.35601
0.16915 1.55961 1.34225
0.189182 1.55737 1.34608
0.105401 1.55535 1.29749
0.170219 1.55391 1.32182
0.0716459 1.55266 1.26403
0.150721 1.55146 1.29498
0.17008 1.54959 1.29768
0.18624 1.54851 1.2969
0.150751 1.54749 1.27018
0.117524 1.54651 1.24446
0.147615 1.5456 1.25028
0.217575 1.54461 1.27625
0.123224 1.54381 1.21957
0.0210649 1.54309 1.15884
0.167502 1.54242 1.22225
0.108961 1.54183 1.18302
0.106031 1.5413 1.17144
0.144751 1.54106 1.17995
0.102393 1.54077 1.14804
0.155094 1.54042 1.16385
0.114101 1.54013 1.13263
0.204323 1.53992 1.16685
0.178963 1.53978 1.1431
0.104905 1.53985 1.09444
0.116905 1.53984 1.08902
0.235278 1.53988 1.13667
0.196574 1.54013 1.10522
0.161065 1.54043 1.07524
0.199004 1.54087 1.08164
0.15694 1.54123 1.04822
0.175747 1.5418 1.04467
0.177831 1.54258 1.03222
0.154868 1.54346 1.00694
0.250861 1.54449 1.04076
0.169617 1.5458 0.985178
0.246209 1.54725 1.00813
0.214178 1.54935 0.975039
0.274911 1.5518 0.987324
0.291198 1.55572 0.973446
0.392033 1.56345 0.991519
0.393727 1.59326 1.47716
0.223263 1.58818 1.3921
0.207471 1.58406 1.38219
0.211069 1.58064 1.38038
0.216977 1.57833 1.37714
0.250227 1.57594 1.38782
0.0913056 1.5736 1.3023
0.128695 1.57134 1.3148
0.198628 1.56998 1.34146
0.173745 1.56786 1.32255
0.160357 1.5666 1.30735
0.18903 1.56538 1.31308
0.163204 1.56407 1.29182
0.208286 1.56241 1.30687
0.105957 1.56138 1.24672
0.142442 1.56025 1.25622
0.0955959 1.55933 1.22356
0.142754 1.55847 1.23777
0.134288 1.55767 1.22403
0.194532 1.55694 1.2445
0.138009 1.55627 1.20643
0.169406 1.55596 1.21144
0.0372083 1.55539 1.1353
0.178623 1.55489 1.1958
0.10122 1.55446 1.14673
0.127313 1.55425 1.14886
0.0898001 1.55396 1.11939
0.0867852 1.55374 1.10698
0.0936861 1.5536 1.09935
0.0645882 1.55356 1.07348
0.119768 1.55367 1.08934
0.13605 1.55371 1.08594
0.126455 1.55382 1.06941
0.218567 1.55415 1.10318
0.152098 1.55455 1.05746
0.227813 1.55507 1.08253
0.171705 1.5555 1.04189
0.252413 1.55643 1.06837
0.230407 1.55718 1.04394
0.268685 1.55836 1.04852
0.224629 1.55968 1.01153
0.191166 1.56115 0.979453
0.296403 1.56289 1.01596
0.296715 1.56532 0.998174
0.245827 1.5689 0.951677
0.332475 1.57574 0.96522
0.26757 1.60919 1.40901
0.250239 1.60231 1.40457
0.166093 1.59895 1.35862
0.137025 1.59563 1.34016
0.165464 1.59223 1.35069
0.208625 1.58996 1.36598
0.139307 1.58761 1.32527
0.180754 1.58603 1.33813
0.13158 1.58395 1.3069
0.218366 1.58247 1.34226
0.111439 1.58054 1.28184
0.13875 1.57917 1.28724
0.137935 1.57799 1.27814
0.11407 1.57686 1.2574
0.169397 1.57579 1.27614
0.118459 1.57463 1.24198
0.0943842 1.57367 1.22078
0.102371 1.57277 1.21547
0.128425 1.57193 1.21906
0.0856543 1.57116 1.18809
0.118077 1.57045 1.19457
0.160813 1.56981 1.20606
0.109976 1.56924 1.17059
0.0788156 1.56873 1.14481
0.179963 1.5683 1.185
0.104389 1.56794 1.13667
0.0805615 1.56779 1.11369
0.192607 1.56758 1.15879
0.147689 1.56743 1.12525
0.103526 1.56736 1.0919
0.147555 1.5675 1.10212
0.181652 1.56754 1.10762
0.0703355 1.56765 1.04023
0.174219 1.56798 1.07988
0.140161 1.56824 1.05074
0.173538 1.56887 1.05437
0.100932 1.56935 1.00537
0.223157 1.57001 1.05333
0.179322 1.57104 1.01725
0.210758 1.57187 1.01935
0.315076 1.57316 1.05668
0.281438 1.57474 1.02424
0.267353 1.57666 1.00066
0.305548 1.57896 1.0022
0.265198 1.58224 0.961856
0.293883 1.58833 0.948531
0.295456 1.62419 1.42009
0.208568 1.61726 1.38084
0.212335 1.61306 1.38071
0.232128 1.60956 1.38703
0.220118 1.60721 1.37484
0.221622 1.60385 1.37179
0.132768 1.60236 1.31924
0.144206 1.60003 1.31882
0.196214 1.59778 1.33852
0.103765 1.59644 1.28391
0.165424 1.59513 1.30628
0.154569 1.59311 1.2941
0.103015 1.59192 1.25962
0.0713529 1.59078 1.23498
0.149391 1.58955 1.26543
0.160444 1.58853 1.26191
0.137132 1.58756 1.24108
0.131027 1.58666 1.22873
0.0935764 1.58581 1.20056
0.169099 1.58503 1.22874
0.106012 1.58432 1.18746
0.0854812 1.58367 1.1673
0.134336 1.58309 1.18168
0.134725 1.58259 1.17167
0.145668 1.58215 1.16676
0.187626 1.58178 1.17719
0.168406 1.58149 1.15685
0.188547 1.58142 1.15565
0.117256 1.58128 1.10892
0.100792 1.5812 1.08942
0.142838 1.5812 1.09901
0.140681 1.58138 1.08601
0.142242 1.5815 1.07506
0.201738 1.58168 1.09288
0.181404 1.58209 1.07023
0.172125 1.58243 1.05328
0.0943469 1.58313 1.00114
0.207849 1.58387 1.04453
0.234031 1.5846 1.04427
0.254417 1.5856 1.04041
0.280664 1.5869 1.0387
0.248797 1.58835 1.00753
0.320689 1.59023 1.02709
0.287733 1.59249 0.993196
0.277219 1.59574 0.967932
0.368011 1.60135 0.98706
0.327611 1.64017 1.43112
0.21004 1.63239 1.37833
0.284487 1.62799 1.41389
0.217124 1.6246 1.37631
0.201445 1.62113 1.36482
0.225109 1.6188 1.37039
0.24395 1.61638 1.37379
0.126 1.61404 1.30867
0.172092 1.61262 1.32344
0.149579 1.61041 1.30577
0.1273 1.6091 1.28616
0.181828 1.60767 1.30522
0.0428274 1.60586 1.22847
0.154604 1.60456 1.27589
0.160354 1.60347 1.26984
0.186916 1.60244 1.27408
0.139487 1.60146 1.24119
0.179251 1.60055 1.25176
0.175439 1.5997 1.24041
0.138346 1.59891 1.21228
0.126689 1.59819 1.19671
0.12494 1.59754 1.18594
0.110726 1.59696 1.16879
0.135716 1.59645 1.17107
0.129906 1.59622 1.15726
0.0849565 1.59581 1.12432
0.150895 1.59548 1.14665
0.172253 1.59522 1.14651
0.0805554 1.59512 1.08946
0.170678 1.59508 1.12318
0.0732968 1.59505 1.06312
0.174016 1.59506 1.102
0.114153 1.59528 1.06005
0.189325 1.59554 1.08554
0.221444 1.59595 1.08911
0.222588 1.59629 1.07737
0.204471 1.59685 1.05544
0.203169 1.5976 1.04142
0.150949 1.59833 1.00196
0.165606 1.59949 0.99485
0.232479 1.6008 1.01344
0.214127 1.60226 0.989031
0.280919 1.60386 1.00681
0.313598 1.60614 1.00574
0.267935 1.60941 0.962896
0.348711 1.61452 0.978454
0.266046 1.65522 1.39749
0.279026 1.64739 1.40992
0.212042 1.64213 1.37664
0.248644 1.63871 1.39103
0.177072 1.63521 1.35159
0.127856 1.63271 1.32107
0.0914193 1.63042 1.29648
0.263083 1.62879 1.37448
0.163519 1.62647 1.31845
0.118276 1.62508 1.28749
0.150802 1.62292 1.29721
0.172243 1.62164 1.29937
0.19104 1.62041 1.30011
0.0824786 1.6185 1.23877
0.140451 1.6174 1.25882
0.0746558 1.61636 1.21687
0.142481 1.61538 1.24161
0.162165 1.61446 1.24214
0.153827 1.61345 1.22888
0.159144 1.61265 1.22195
0.153401 1.61193 1.20934
0.239547 1.61127 1.24252
0.169934 1.61097 1.19697
0.162056 1.61057 1.18253
0.220527 1.61009 1.20147
0.0983816 1.60968 1.12992
0.171982 1.60935 1.15608
0.222698 1.60909 1.17062
0.143089 1.6089 1.11981
0.193799 1.60894 1.13361
0.106883 1.60891 1.07879
0.115319 1.60892 1.07153
0.0419389 1.60899 1.02319
0.168522 1.6093 1.07427
0.154033 1.60968 1.05461
0.175024 1.61016 1.05245
0.189219 1.61057 1.04704
0.205122 1.61121 1.04192
0.215582 1.61222 1.03312
0.134834 1.61319 0.978817
0.266391 1.61416 1.03066
0.265612 1.61573 1.01476
0.22211 1.61779 0.976232
0.279725 1.61985 0.988265
0.286508 1.62277 0.972603
0.42353 1.62769 1.01688
0.279583 1.66241 1.40729
0.168476 1.6571 1.35195
0.201785 1.65365 1.36471
0.179899 1.65009 1.35015
0.247522 1.64771 1.37773
0.225156 1.64523 1.36057
0.169067 1.64282 1.32642
0.140065 1.64049 1.30567
0.160952 1.63908 1.30777
0.181653 1.6369 1.31157
0.118291 1.63561 1.27133
0.201469 1.63437 1.30426
0.168785 1.63302 1.27951
0.19766 1.63189 1.28507
0.149339 1.63081 1.25192
0.25264 1.62979 1.29446
0.0745326 1.62867 1.19652
0.189631 1.62777 1.2447
0.152105 1.62694 1.21641
0.100532 1.62618 1.18096
0.215488 1.62548 1.22862
0.16894 1.62485 1.19537
0.146162 1.6243 1.17385
0.0990655 1.62381 1.14
0.158637 1.62355 1.15894
0.130712 1.62322 1.13433
0.251079 1.62295 1.18369
0.130221 1.62277 1.11226
0.157084 1.62266 1.11451
0.155653 1.62277 1.10204
0.198018 1.62278 1.11174
0.252859 1.62286 1.12751
0.150192 1.62317 1.06396
0.214384 1.6234 1.08403
0.23601 1.62386 1.08224
0.138838 1.62446 1.0207
0.212091 1.6251 1.04425
0.22392 1.62597 1.03651
0.194778 1.62679 1.0084
0.266824 1.62807 1.0297
0.288859 1.6295 1.0256
0.261929 1.63108 0.996635
0.29535 1.6335 0.995683
0.371003 1.6363 1.01484
0.274276 1.64102 0.942844
0.373675 1.67661 1.4533
0.265558 1.6721 1.39758
0.171018 1.66778 1.34829
0.208091 1.66419 1.3632
0.143488 1.66164 1.32501
0.185592 1.65929 1.33973
0.131273 1.65686 1.30647
0.129029 1.65523 1.29745
0.185664 1.65309 1.31906
0.183048 1.65157 1.30968
0.142305 1.64959 1.28227
0.113084 1.64818 1.25935
0.16774 1.64698 1.27791
0.132436 1.64584 1.25138
0.238767 1.64475 1.29556
0.245469 1.64356 1.29015
0.170696 1.6426 1.24352
0.12299 1.64169 1.21029
0.136357 1.64085 1.20745
0.121989 1.64008 1.19059
0.142807 1.63938 1.19118
0.157098 1.63875 1.18835
0.167357 1.63819 1.18334
0.0355057 1.6377 1.10711
0.203386 1.63728 1.18057
0.226159 1.6371 1.18094
0.120394 1.63683 1.11723
0.125733 1.63664 1.10889
0.112807 1.63653 1.09124
0.0941914 1.6365 1.07054
0.132796 1.63666 1.07799
0.0911679 1.63674 1.04553
0.266407 1.63705 1.12092
0.179877 1.63728 1.06562
0.167316 1.63759 1.04712
0.225165 1.63813 1.06325
0.163389 1.639 1.01874
0.233757 1.63956 1.04104
0.233078 1.6407 1.02638
0.24381 1.64191 1.01723
0.163261 1.64344 0.961627
0.299261 1.64503 1.01412
0.27331 1.64731 0.983872
0.307962 1.64998 0.98292
0.294302 1.65421 0.953816
0.322053 1.69268 1.42236
0.294088 1.68628 1.4108
0.23345 1.68275 1.3766
0.279113 1.67928 1.39549
0.213576 1.67573 1.35901
0.13256 1.67336 1.31216
0.113008 1.67167 1.29458
0.157435 1.66927 1.3106
0.212799 1.66711 1.33157
0.123584 1.66557 1.27888
0.102479 1.66423 1.2598
0.166976 1.66216 1.28522
0.198234 1.66095 1.29208
0.133542 1.6598 1.25086
0.173371 1.65854 1.26214
0.181145 1.65751 1.2569
0.148752 1.65653 1.23146
0.145833 1.65562 1.22061
0.157682 1.65477 1.21701
0.178939 1.65399 1.21797
0.0698205 1.65329 1.15358
0.182307 1.65265 1.19985
0.121586 1.65208 1.15934
0.0745267 1.65159 1.1255
0.193577 1.65117 1.17455
0.125959 1.65099 1.1297
0.234518 1.65069 1.17324
0.200301 1.65062 1.14484
0.184908 1.65046 1.12604
0.146215 1.65039 1.09541
0.155564 1.65038 1.08864
0.188568 1.65058 1.0932
0.264965 1.65079 1.11944
0.113984 1.65118 1.03153
0.201203 1.65149 1.06291
0.27828 1.65203 1.08865
0.144732 1.65275 1.00863
0.220501 1.65347 1.03324
0.251284 1.65462 1.03431
0.170587 1.65553 0.980226
0.269272 1.65678 1.01496
0.282516 1.65865 1.00541
0.324171 1.66073 1.00951
0.298852 1.66353 0.978309
0.29761 1.66756 0.955999
0.253285 1.70691 1.38693
0.279904 1.70148 1.40044
0.213005 1.69691 1.36533
0.281388 1.69325 1.39593
0.287007 1.69079 1.39252
0.155038 1.68823 1.32059
0.303512 1.68573 1.38877
0.236365 1.68331 1.349
0.175808 1.68186 1.3104
0.239742 1.67959 1.33589
0.152436 1.67824 1.28371
0.124628 1.67678 1.26155
0.185729 1.67554 1.28338
0.121962 1.67377 1.24398
0.133106 1.6725 1.24092
0.244483 1.67146 1.28748
0.133143 1.67047 1.22256
0.169552 1.66955 1.23138
0.170889 1.6687 1.22252
0.145344 1.66792 1.20007
0.14041 1.6672 1.18777
0.117041 1.66687 1.16537
0.13833 1.66627 1.16595
0.212051 1.66573 1.19259
0.071332 1.66527 1.11183
0.140163 1.66489 1.13568
0.142314 1.66458 1.12601
0.194749 1.66446 1.14106
0.226902 1.66436 1.1459
0.209975 1.66428 1.12615
0.150219 1.66428 1.08483
0.110134 1.66448 1.05284
0.129812 1.6646 1.05092
0.223272 1.66495 1.08532
0.237376 1.66539 1.07984
0.218176 1.66594 1.05743
0.21761 1.6664 1.04454
0.159218 1.6674 1.00143
0.311648 1.66804 1.06457
0.238684 1.66931 1.01349
0.265241 1.67073 1.01176
0.286577 1.6723 1.00704
0.298058 1.67472 0.995259
0.274527 1.67721 0.965747
0.378395 1.68108 0.996484
0.461292 1.68995 1.00415
0.338109 1.72303 1.42423
0.239933 1.71654 1.37752
0.212195 1.71193 1.36201
0.309474 1.70838 1.40673
0.232396 1.70475 1.36451
0.135175 1.70233 1.3096
0.203803 1.69981 1.33785
0.160784 1.69812 1.30847
0.218226 1.6959 1.33054
0.135706 1.69431 1.28124
0.056543 1.69209 1.23504
0.0933905 1.69079 1.24485
0.139666 1.68953 1.25926
0.24585 1.68833 1.30353
0.114432 1.68702 1.22924
0.158828 1.68594 1.24238
0.246021 1.68491 1.27679
0.138224 1.68395 1.21357
0.182913 1.68306 1.22646
0.176003 1.68224 1.2134
0.129206 1.68148 1.18025
0.0267425 1.6808 1.11911
0.149521 1.68019 1.17043
0.0847413 1.67965 1.12781
0.156349 1.67919 1.15321
0.239915 1.6788 1.18443
0.169833 1.67849 1.13864
0.131097 1.67826 1.10835
0.223043 1.67817 1.14305
0.137698 1.67819 1.08887
0.166721 1.67818 1.09193
0.204634 1.67822 1.09932
0.172134 1.6785 1.07093
0.196129 1.6787 1.07098
0.216699 1.67914 1.06874
0.280973 1.6797 1.08805
0.237609 1.68033 1.05337
0.291195 1.68103 1.06697
0.232536 1.68198 1.02384
0.253258 1.68326 1.01959
0.233622 1.68457 0.995051
0.221662 1.68627 0.973392
0.287951 1.68816 0.990366
0.317432 1.69078 0.987101
0.24319 1.69445 0.929342
0.392079 1.70218 0.973021
0.39562 1.73817 1.45008
0.18827 1.73076 1.35064
0.220953 1.72611 1.36533
0.150711 1.72254 1.32629
0.2248 1.71986 1.35749
0.207739 1.71627 1.34517
0.274509 1.71468 1.37041
0.186032 1.71219 1.32003
0.186601 1.70979 1.31401
0.241328 1.70835 1.33297
0.199735 1.70696 1.30369
0.157206 1.7048 1.27567
0.222441 1.70353 1.29956
0.188456 1.70216 1.2741
0.151289 1.701 1.24658
0.204875 1.69991 1.26431
0.136907 1.69888 1.22113
0.216892 1.69791 1.2518
0.209806 1.69685 1.23916
0.096234 1.69602 1.17277
0.126807 1.69526 1.1783
0.181875 1.69457 1.19593
0.14341 1.69395 1.16663
0.161148 1.69357 1.16489
0.13873 1.69311 1.14328
0.205779 1.69272 1.16623
0.242599 1.6924 1.17389
0.206866 1.69217 1.14509
0.223068 1.69202 1.14208
0.221112 1.6921 1.12943
0.206037 1.69209 1.11044
0.201706 1.69214 1.0967
0.193751 1.69242 1.08058
0.262364 1.69262 1.10293
0.243811 1.6929 1.08152
0.236079 1.69342 1.06493
0.210054 1.69426 1.03842
0.269501 1.6948 1.05534
0.146689 1.69593 0.979731
0.273974 1.69682 1.02971
0.334147 1.69821 1.04492
0.214912 1.69976 0.970023
0.340441 1.70199 1.01581
0.259976 1.70463 0.957569
0.360479 1.70817 0.987583
0.312318 1.71459 0.936123
0.356775 1.75332 1.42776
0.314851 1.74586 1.41099
0.21347 1.74117 1.35866
0.236179 1.73755 1.36611
0.272399 1.734 1.38023
0.308194 1.73136 1.39221
0.150952 1.72878 1.30756
0.18485 1.72627 1.31836
0.127677 1.72459 1.28184
0.235836 1.7224 1.32914
0.171415 1.72083 1.28881
0.15919 1.71948 1.27412
0.173368 1.71754 1.27394
0.166945 1.71616 1.26226
0.212289 1.71499 1.27598
0.28438 1.71389 1.30296
0.143346 1.71285 1.22325
0.201273 1.71171 1.24325
0.152917 1.71081 1.20961
0.115337 1.70997 1.18121
0.132343 1.7092 1.17995
0.177426 1.70851 1.19258
0.177467 1.70789 1.18253
0.0962757 1.70734 1.1317
0.178081 1.70687 1.1622
0.165125 1.70683 1.14433
0.199268 1.70648 1.15074
0.220667 1.7062 1.1506
0.137094 1.70601 1.09779
0.160994 1.70589 1.09854
0.249322 1.70602 1.13093
0.22239 1.70603 1.10596
0.196739 1.70618 1.0813
0.260726 1.70655 1.10095
0.180337 1.70683 1.04861
0.234653 1.70735 1.06304
0.259373 1.70795 1.06248
0.20395 1.70875 1.02138
0.275807 1.70954 1.04392
0.225447 1.71078 1.00426
0.195643 1.71219 0.974468
0.220734 1.71374 0.971734
0.313413 1.71562 1.00201
0.235235 1.71805 0.945458
0.286449 1.72155 0.950991
0.375258 1.72777 0.968642
0.32214 1.77037 1.40354
0.272948 1.76099 1.3871
0.345325 1.75538 1.42352
0.239524 1.75173 1.36672
0.191011 1.74799 1.33882
0.245577 1.74549 1.35983
0.19115 1.74289 1.32659
0.153228 1.74114 1.29979
0.11773 1.73867 1.27579
0.291907 1.73719 1.35451
0.176326 1.73488 1.29017
0.180341 1.73351 1.2836
0.115109 1.7322 1.24231
0.189985 1.73017 1.27268
0.131516 1.72899 1.23449
0.128329 1.72788 1.22383
0.153425 1.72667 1.22755
0.107239 1.72569 1.19512
0.119231 1.72478 1.19165
0.174453 1.72393 1.20965
0.129945 1.72316 1.17763
0.158379 1.72246 1.18193
0.207742 1.72183 1.19654
0.104274 1.72155 1.13396
0.143138 1.72104 1.14307
0.187628 1.7206 1.15482
0.189638 1.72041 1.14478
0.154741 1.72013 1.11649
0.232792 1.71994 1.14449
0.22445 1.71982 1.12911
0.152423 1.71979 1.08168
0.195786 1.71996 1.09149
0.210674 1.72004 1.08726
0.147713 1.72037 1.04353
0.233644 1.72077 1.07409
0.215012 1.72129 1.05204
0.259744 1.72173 1.06188
0.26019 1.72259 1.0486
0.200596 1.72334 1.00552
0.271409 1.72459 1.02644
0.202268 1.7259 0.977216
0.18105 1.72757 0.95109
0.29778 1.72929 0.993791
0.272328 1.73192 0.963196
0.379997 1.73544 0.996953
0.325377 1.74095 0.944723
0.327602 1.77525 1.41337
0.237958 1.77048 1.3669
0.196901 1.76679 1.34248
0.234385 1.76317 1.35726
0.197957 1.76046 1.33316
0.231718 1.75782 1.34405
0.19903 1.75524 1.32161
0.160325 1.75276 1.296
0.219682 1.75126 1.31731
0.137039 1.74894 1.26944
0.176466 1.74756 1.28057
0.17573 1.74607 1.27189
0.209024 1.7448 1.27975
0.166912 1.74359 1.2498
0.17024 1.74172 1.24405
0.161054 1.74066 1.23025
0.0678232 1.73967 1.1743
0.247049 1.7392 1.25344
0.113956 1.73832 1.17735
0.217181 1.7375 1.21928
0.163206 1.73676 1.18245
0.177057 1.73609 1.17938
0.256029 1.7355 1.2087
0.122963 1.73498 1.13184
0.213902 1.73455 1.16682
0.108304 1.73419 1.10335
0.178309 1.73404 1.12721
0.190592 1.73388 1.12223
0.220853 1.73376 1.12615
0.190304 1.73372 1.09948
0.130765 1.7339 1.05782
0.126689 1.73398 1.0441
0.163411 1.73415 1.0506
0.246227 1.73456 1.07956
0.28566 1.73508 1.08658
0.269224 1.73569 1.06544
0.274419 1.73621 1.05532
0.206673 1.73731 1.00737
0.171809 1.73835 0.975949
0.337888 1.73956 1.04462
0.274899 1.74109 0.997969
0.37338 1.74331 1.03038
0.292785 1.74553 0.973236
0.357237 1.74867 0.986366
0.324084 1.75373 0.946039
0.296645 1.79059 1.39459
0.282176 1.78471 1.38794
0.266604 1.781 1.37626
0.240493 1.77734 1.35924
0.217651 1.77462 1.34193
0.179223 1.77195 1.31673
0.150602 1.76936 1.29631
0.282148 1.76762 1.35418
0.170385 1.76534 1.29157
0.226146 1.76371 1.31136
0.122304 1.76161 1.25239
0.194044 1.76011 1.27995
0.254887 1.75883 1.30158
0.218152 1.75761 1.27432
0.24637 1.75628 1.27978
0.227584 1.75519 1.26125
0.212979 1.75416 1.24468
0.179672 1.75319 1.21863
0.145988 1.7523 1.19224
0.189597 1.75148 1.20436
0.0900931 1.75073 1.14476
0.0951507 1.75006 1.13729
0.134161 1.74946 1.14663
0.242344 1.74894 1.19039
0.194696 1.7485 1.15607
0.158455 1.74814 1.12727
0.162821 1.74786 1.11861
0.226553 1.74783 1.13906
0.208461 1.74771 1.1188
0.164049 1.74767 1.08519
0.119069 1.74768 1.05119
0.173308 1.74794 1.06624
0.224805 1.7481 1.08012
0.285578 1.74852 1.09805
0.215823 1.74885 1.05093
0.20247 1.74966 1.03087
0.31013 1.75018 1.07198
0.215702 1.75113 1.01105
0.36183 1.75217 1.07016
0.245615 1.75355 0.997282
0.280653 1.7551 0.999635
0.274576 1.7568 0.981046
0.388296 1.75923 1.02059
0.316308 1.76242 0.965433
0.422529 1.7675 0.994851
0.304827 1.80578 1.39573
0.327807 1.80003 1.40745
0.250244 1.7961 1.36514
0.290389 1.7924 1.38128
0.187607 1.78878 1.32582
0.207409 1.78609 1.32973
0.254447 1.78429 1.34544
0.205967 1.78173 1.315
0.226321 1.77944 1.31844
0.170047 1.77779 1.28222
0.250537 1.77637 1.31392
0.207416 1.77416 1.28553
0.182713 1.77287 1.26439
0.104025 1.77164 1.21614
0.270802 1.77031 1.29088
0.24251 1.7692 1.2676
0.0911148 1.76816 1.18263
0.163668 1.76719 1.2095
0.123328 1.76629 1.17978
0.217455 1.76547 1.21715
0.171371 1.76471 1.18426
0.107216 1.76403 1.14218
0.107641 1.76343 1.13223
0.12602 1.76291 1.13108
0.186582 1.76247 1.15086
0.156411 1.7621 1.1251
0.147234 1.76182 1.10966
0.254143 1.76162 1.15208
0.242391 1.76172 1.13448
0.261139 1.76163 1.13257
0.205031 1.76164 1.093
0.247694 1.7619 1.10225
0.196565 1.76207 1.06482
0.310273 1.76231 1.10961
0.250861 1.76282 1.06726
0.31284 1.76323 1.0858
0.278253 1.76416 1.05484
0.353743 1.76494 1.07927
0.29358 1.76617 1.03483
0.278029 1.76756 1.01228
0.359514 1.76881 1.03857
0.368135 1.77083 1.02661
0.394667 1.77304 1.02313
0.290868 1.77615 0.952304
0.281096 1.7807 0.925071
0.366559 1.82099 1.42365
0.24019 1.8152 1.36068
0.273297 1.81033 1.37559
0.202813 1.8066 1.33641
0.252606 1.80381 1.35544
0.168606 1.80109 1.30749
0.162804 1.79843 1.29852
0.265629 1.79585 1.34373
0.117351 1.7943 1.26125
0.172461 1.79188 1.28232
0.162412 1.79045 1.26875
0.233282 1.78889 1.29592
0.122589 1.78757 1.23184
0.185547 1.78551 1.25616
0.205586 1.78434 1.25716
0.239045 1.78323 1.26474
0.194105 1.78218 1.233
0.133052 1.7812 1.19306
0.127288 1.7803 1.18063
0.179402 1.77929 1.19737
0.189672 1.77853 1.19265
0.234639 1.77785 1.20513
0.246514 1.77724 1.2009
0.127235 1.77714 1.12998
0.149774 1.77665 1.13083
0.228856 1.77625 1.15978
0.297592 1.77592 1.18338
0.218682 1.77567 1.13298
0.254375 1.77551 1.1397
0.28453 1.77561 1.14307
0.235966 1.7756 1.10732
0.185489 1.77564 1.07049
0.211823 1.77594 1.07148
0.194168 1.77629 1.05037
0.322834 1.77679 1.10205
0.245587 1.77721 1.05098
0.242756 1.77787 1.03653
0.26337 1.77894 1.03288
0.216393 1.77997 0.995481
0.256789 1.78097 1.00184
0.335128 1.78249 1.02597
0.323157 1.78451 1.00373
0.347803 1.78675 0.999286
0.353594 1.78976 0.983563
0.425722 1.79408 0.997878
0.336005 1.8364 1.40507
0.358433 1.82947 1.41872
0.331276 1.82548 1.40163
0.278792 1.8217 1.37147
0.239853 1.81801 1.34797
0.240519 1.81525 1.34235
0.285005 1.81258 1.35853
0.237932 1.81078 1.32712
0.165834 1.80842 1.28439
0.207751 1.80672 1.2973
0.166235 1.80436 1.26993
0.161257 1.80297 1.2588
0.210171 1.80163 1.27451
0.212668 1.80018 1.26729
0.137483 1.79896 1.22074
0.118729 1.79726 1.20346
0.186526 1.79621 1.22808
0.165893 1.79505 1.20873
0.202533 1.79413 1.2175
0.19655 1.79329 1.2048
0.201854 1.7929 1.19679
0.13468 1.79217 1.15327
0.242182 1.79153 1.19694
0.124438 1.79095 1.12781
0.177545 1.79046 1.14394
0.227486 1.79023 1.15793
0.150984 1.7899 1.10891
0.257538 1.78965 1.15124
0.107172 1.78949 1.06492
0.205796 1.78944 1.10285
0.202464 1.78958 1.08939
0.19588 1.78962 1.0745
0.187963 1.78975 1.05876
0.222577 1.79013 1.06369
0.240801 1.79078 1.05984
0.192673 1.7912 1.02332
0.307785 1.79187 1.06784
0.2197 1.79277 1.01024
0.249025 1.79364 1.01139
0.279088 1.795 1.01178
0.231367 1.79652 0.972865
0.305259 1.79821 0.994371
0.369023 1.80064 1.00908
0.373077 1.80349 0.992893
0.331949 1.80766 0.951037
0.370759 1.81719 0.936532
0.27712 1.85274 1.37047
0.258809 1.84468 1.36595
0.343492 1.83973 1.40665
0.249865 1.83593 1.35592
0.263284 1.83308 1.35678
0.216099 1.82943 1.32904
0.232535 1.82757 1.32947
0.166412 1.82492 1.29025
0.21001 1.82237 1.30574
0.19875 1.82084 1.29169
0.189782 1.81846 1.28059
0.164748 1.81706 1.25943
0.157484 1.81571 1.24705
0.187855 1.81425 1.25376
0.183868 1.81302 1.2428
0.190572 1.81186 1.23707
0.174055 1.81076 1.2196
0.123192 1.80956 1.1852
0.163692 1.8086 1.19597
0.169885 1.80772 1.18944
0.181652 1.80691 1.18554
0.206203 1.80618 1.18789
0.179985 1.80553 1.16468
0.0963091 1.80495 1.11259
0.21074 1.80446 1.15938
0.195478 1.80404 1.14115
0.194145 1.80389 1.12932
0.198366 1.80364 1.12048
0.27675 1.80348 1.14854
0.210731 1.80339 1.10421
0.199667 1.80356 1.0868
0.252374 1.80361 1.10156
0.197233 1.80374 1.0622
0.199954 1.80413 1.05118
0.247385 1.80442 1.06273
0.241335 1.8052 1.04645
0.205661 1.8057 1.01597
0.28323 1.80646 1.04152
0.217818 1.80766 0.994574
0.277884 1.80903 1.00995
0.388589 1.81057 1.05025
0.353107 1.81226 1.01707
0.265929 1.81412 0.957656
0.360794 1.81712 0.986605
0.278139 1.82143 0.923717
0.461916 1.82936 0.98558
0.395132 1.86802 1.42654
0.305465 1.86009 1.38594
0.21204 1.8551 1.3376
0.266519 1.85108 1.3613
0.296518 1.8473 1.37231
0.236978 1.84449 1.33661
0.242607 1.84174 1.3334
0.192061 1.83908 1.30197
0.267647 1.83747 1.33145
0.16625 1.83496 1.27433
0.199251 1.83329 1.2827
0.213502 1.83115 1.28269
0.131966 1.82962 1.23355
0.185418 1.82832 1.25142
0.0885666 1.82709 1.19402
0.138851 1.82592 1.21008
0.223261 1.82463 1.24345
0.253462 1.8236 1.2492
0.202136 1.82264 1.21405
0.183562 1.82175 1.19513
0.0900021 1.82093 1.13857
0.108294 1.82019 1.13778
0.213852 1.81954 1.18046
0.182787 1.81896 1.15467
0.198017 1.81846 1.15185
0.190868 1.81804 1.13768
0.211342 1.81771 1.13714
0.110721 1.81764 1.07548
0.171903 1.81747 1.09493
0.245295 1.81739 1.12031
0.220486 1.81738 1.09642
0.217038 1.81761 1.0827
0.307738 1.81774 1.11626
0.200093 1.81813 1.05006
0.26922 1.81843 1.07245
0.126601 1.81881 0.988776
0.282172 1.81971 1.05302
0.314492 1.82048 1.05594
0.230124 1.82169 0.999507
0.310681 1.82247 1.02649
0.296655 1.82396 1.00454
0.371457 1.8258 1.02621
0.346301 1.8282 0.996604
0.301829 1.83086 0.956708
0.335536 1.83465 0.953256
0.349877 1.84191 0.932105
0.324075 1.88442 1.38588
0.310041 1.87535 1.38526
0.250536 1.86939 1.35575
0.257424 1.86533 1.35566
0.272428 1.86153 1.35916
0.236145 1.85869 1.33509
0.250169 1.85593 1.33608
0.233458 1.85324 1.32156
0.222404 1.85144 1.30809
0.173419 1.8491 1.2768
0.157446 1.84741 1.26068
0.179291 1.84596 1.263
0.19932 1.84371 1.2661
0.218818 1.84241 1.26699
0.143023 1.84116 1.22012
0.158591 1.83998 1.21881
0.218718 1.83869 1.24004
0.209865 1.83765 1.22626
0.218995 1.83668 1.22133
0.181521 1.83578 1.19296
0.153393 1.83496 1.16911
0.124614 1.83422 1.14478
0.189103 1.83356 1.16693
0.15569 1.83297 1.13996
0.252675 1.83247 1.17802
0.196972 1.83225 1.13913
0.13806 1.83187 1.09898
0.212907 1.83158 1.12554
0.168498 1.83155 1.09189
0.205068 1.83143 1.09894
0.278763 1.83139 1.12437
0.169784 1.8314 1.05835
0.202707 1.83174 1.06254
0.268471 1.83196 1.08344
0.235143 1.83244 1.0542
0.133705 1.83283 0.991118
0.321878 1.83347 1.07224
0.162954 1.83451 0.978949
0.243451 1.83518 1.00617
0.181831 1.83651 0.960834
0.363379 1.83802 1.03667
0.324527 1.83969 1.00192
0.382218 1.84189 1.01423
0.329991 1.84469 0.970183
0.35952 1.84844 0.964802
0.370511 1.85492 0.943868
0.318473 1.90174 1.37619
0.446438 1.88969 1.45236
0.223231 1.88462 1.33913
0.346499 1.87959 1.39909
0.170107 1.87667 1.30507
0.247131 1.87379 1.33769
0.245802 1.87098 1.33104
0.195033 1.86824 1.29955
0.224334 1.8656 1.30794
0.214549 1.86401 1.29466
0.120492 1.86154 1.24108
0.23159 1.86008 1.28802
0.244423 1.8585 1.28612
0.209163 1.85715 1.25968
0.233606 1.85586 1.26299
0.0797393 1.85388 1.17863
0.184982 1.85276 1.22203
0.17961 1.85171 1.20999
0.214458 1.85073 1.21791
0.20699 1.84983 1.20454
0.188893 1.84941 1.18485
0.209311 1.84862 1.1852
0.177897 1.84791 1.15947
0.221621 1.84728 1.17115
0.252477 1.84673 1.17623
0.116543 1.84627 1.09774
0.163814 1.84589 1.11068
0.236629 1.84559 1.13622
0.199323 1.84548 1.1063
0.16571 1.84544 1.07807
0.179152 1.8454 1.07337
0.15701 1.84541 1.05076
0.219361 1.84569 1.06984
0.293078 1.84586 1.0948
0.23334 1.84647 1.05209
0.25684 1.84685 1.05147
0.34387 1.84751 1.08202
0.303679 1.84843 1.04836
0.353364 1.84922 1.0599
0.266912 1.85057 1.00214
0.317283 1.85199 1.0126
0.31348 1.85377 0.995157
0.359775 1.85562 1.00259
0.359721 1.85843 0.984631
0.354827 1.86222 0.962036
0.437021 1.86812 0.978123
0.346405 1.90499 1.39936
0.341616 1.89893 1.39722
0.308204 1.8948 1.37699
0.333043 1.89092 1.38544
0.285162 1.88802 1.3556
0.303143 1.88519 1.3586
0.263503 1.88243 1.33267
0.149278 1.87977 1.2693
0.256826 1.87817 1.31468
0.302402 1.87644 1.32937
0.171472 1.87421 1.25684
0.256863 1.87261 1.29121
0.160869 1.87126 1.2344
0.179989 1.86996 1.23504
0.276994 1.86855 1.27489
0.195312 1.86739 1.22489
0.201197 1.8663 1.21855
0.235035 1.86528 1.22604
0.203176 1.86433 1.20055
0.214036 1.86346 1.19626
0.137746 1.86266 1.14825
0.18224 1.86195 1.16047
0.317667 1.86132 1.218
0.164386 1.86077 1.13101
0.162527 1.8603 1.11955
0.199321 1.85992 1.12725
0.312582 1.85962 1.17301
0.194576 1.85941 1.10295
0.120631 1.85947 1.05434
0.208756 1.85943 1.08697
0.253838 1.85944 1.09798
0.308325 1.85953 1.11351
0.23246 1.85989 1.06328
0.273603 1.86015 1.07177
0.221992 1.86089 1.03283
0.320598 1.86155 1.06916
0.217652 1.8621 1.00494
0.239807 1.86328 1.00189
0.343998 1.86422 1.04036
0.32301 1.8657 1.01505
0.354138 1.86734 1.01541
0.328469 1.86972 0.98569
0.380294 1.87211 0.994681
0.329321 1.87565 0.949634
0.380544 1.88151 0.950436
0.28219 1.92049 1.36391
0.301729 1.9142 1.37429
0.286731 1.90909 1.36514
0.280222 1.9061 1.35608
0.179743 1.90226 1.30178
0.210156 1.89941 1.31099
0.226451 1.89663 1.31302
0.263275 1.89477 1.32352
0.238622 1.89234 1.30445
0.220173 1.89059 1.28713
0.185764 1.88909 1.26136
0.176896 1.88674 1.25009
0.160424 1.88538 1.23304
0.173269 1.88407 1.23054
0.170129 1.88265 1.22031
0.067069 1.88148 1.15962
0.197383 1.88038 1.21549
0.252179 1.87935 1.23346
0.195842 1.8784 1.19572
0.160824 1.87733 1.16888
0.20048 1.87653 1.17884
0.112718 1.87582 1.12493
0.23545 1.87518 1.17611
0.215282 1.87481 1.15527
0.226778 1.87434 1.15049
0.202618 1.87395 1.12771
0.154394 1.87365 1.09272
0.18426 1.87344 1.0966
0.191862 1.87337 1.08904
0.283606 1.87346 1.1232
0.261347 1.87347 1.10053
0.194292 1.87356 1.05529
0.198589 1.87393 1.04513
0.21477 1.87419 1.04113
0.249558 1.87473 1.04584
0.180687 1.87541 0.998391
0.277614 1.87616 1.03369
0.295023 1.87718 1.02863
0.309821 1.87811 1.02244
0.356101 1.87959 1.03077
0.396614 1.88125 1.03581
0.309468 1.88325 0.976222
0.349586 1.88586 0.978907
0.398517 1.88962 0.98339
0.405134 1.89472 0.963674
0.358839 1.93584 1.39925
0.292591 1.92854 1.36861
0.298642 1.92453 1.36775
0.271708 1.92038 1.35071
0.256697 1.91742 1.33734
0.239012 1.91452 1.32254
0.280167 1.9117 1.33705
0.198473 1.90897 1.28999
0.259312 1.90732 1.31205
0.205274 1.90476 1.27854
0.185975 1.90324 1.26033
0.220092 1.90159 1.26911
0.193148 1.8995 1.24826
0.233694 1.898 1.25999
0.27478 1.89676 1.27149
0.231132 1.89558 1.2405
0.245293 1.89447 1.23829
0.201462 1.89344 1.20694
0.192103 1.89229 1.19307
0.277089 1.8914 1.22585
0.174188 1.8906 1.16452
0.189153 1.88988 1.16197
0.166812 1.88923 1.14061
0.296097 1.88868 1.19489
0.218455 1.88839 1.14515
0.231323 1.88818 1.14049
0.268334 1.88784 1.1482
0.267333 1.88758 1.13673
0.211652 1.88736 1.09785
0.176786 1.88751 1.06856
0.206353 1.8875 1.07185
0.200894 1.88761 1.05738
0.261592 1.88798 1.07542
0.301983 1.88824 1.08352
0.158257 1.88878 0.998965
0.276442 1.88922 1.04558
0.29524 1.89023 1.04127
0.313673 1.89087 1.03754
0.279228 1.89219 1.00591
0.334534 1.89368 1.01874
0.328129 1.89535 1.00032
0.382904 1.89718 1.0121
0.347346 1.9 0.976526
0.430927 1.90308 0.999906
0.369911 1.90813 0.946553
0.382964 1.9512 1.40833
0.284498 1.94385 1.36157
0.289876 1.93884 1.36225
0.250598 1.93467 1.33904
0.344767 1.93169 1.38025
0.262628 1.92877 1.33322
0.231254 1.92593 1.31147
0.256828 1.92317 1.31804
0.205096 1.92152 1.28381
0.195231 1.91893 1.27239
0.128995 1.91741 1.2307
0.218308 1.91574 1.26708
0.22334 1.91433 1.26083
0.132087 1.91213 1.20804
0.205291 1.91087 1.23559
0.139777 1.90969 1.19367
0.186927 1.90857 1.20794
0.138806 1.90734 1.17484
0.178491 1.90637 1.1851
0.190159 1.90548 1.18121
0.204215 1.90467 1.17836
0.221028 1.90394 1.17673
0.173014 1.90361 1.14188
0.197336 1.90301 1.14377
0.157254 1.90249 1.11328
0.212158 1.90205 1.13011
0.209163 1.90189 1.11742
0.255171 1.90163 1.12945
0.226309 1.90146 1.10386
0.233299 1.90138 1.09601
0.341322 1.90156 1.13812
0.248841 1.90161 1.08025
0.174652 1.90174 1.03135
0.272256 1.9023 1.06743
0.23602 1.90266 1.03703
0.218014 1.90329 1.01514
0.244053 1.90401 1.01507
0.262318 1.90495 1.01062
0.242178 1.90626 0.986165
0.295774 1.90733 0.999103
0.372105 1.90895 1.02217
0.35283 1.91112 0.99621
0.320569 1.91351 0.963273
0.32577 1.91705 0.946481
0.466132 1.92155 0.995121
0.280297 1.96678 1.35365
0.301218 1.95939 1.36656
0.393991 1.95414 1.41132
0.277708 1.94991 1.34963
0.311957 1.94596 1.36272
0.264709 1.94303 1.33314
0.148805 1.94016 1.26911
0.297391 1.93824 1.33552
0.201804 1.93572 1.28103
0.11039 1.93391 1.22726
0.191477 1.93139 1.26118
0.228048 1.9299 1.2708
0.227506 1.92848 1.26176
0.162746 1.92692 1.2209
0.242439 1.92563 1.25176
0.185905 1.9244 1.21438
0.31258 1.92249 1.26999
0.237649 1.92196 1.22205
0.255191 1.92095 1.22131
0.205053 1.92001 1.18659
0.191449 1.91916 1.16999
0.148048 1.91838 1.13833
0.184677 1.91769 1.14653
0.176365 1.91708 1.13209
0.247067 1.91656 1.15699
0.209511 1.91612 1.12759
0.242848 1.91577 1.13346
0.225444 1.9157 1.11338
0.264689 1.91552 1.12184
0.259128 1.91544 1.10771
0.188287 1.91543 1.06079
0.227652 1.91567 1.06844
0.237788 1.91581 1.06169
0.326584 1.91623 1.09368
0.185143 1.91673 1.01036
0.223312 1.91737 1.01655
0.241976 1.9179 1.01321
0.271269 1.91904 1.01385
0.348042 1.91998 1.03868
0.186968 1.92143 0.943446
0.325439 1.92307 0.997582
0.406643 1.92487 1.02269
0.357111 1.92747 0.980698
0.366747 1.93053 0.96724
0.457577 1.93538 0.990417
0.34924 1.98219 1.38514
0.320089 1.97377 1.37487
0.355172 1.96848 1.39079
0.292624 1.96423 1.35597
0.33076 1.96119 1.36919
0.222035 1.9582 1.3089
0.25878 1.95529 1.32124
0.178736 1.95247 1.27505
0.136803 1.94993 1.24739
0.233027 1.94811 1.28744
0.269745 1.94653 1.29727
0.230571 1.94408 1.27091
0.207285 1.94264 1.2505
0.251609 1.94107 1.26417
0.250931 1.93977 1.25484
0.28197 1.93853 1.26125
0.256969 1.93717 1.2399
0.163458 1.93607 1.18378
0.18637 1.93505 1.18573
0.139928 1.93411 1.15285
0.230874 1.93325 1.18852
0.223169 1.93247 1.17471
0.144552 1.93177 1.12528
0.209047 1.93116 1.14724
0.205759 1.93063 1.13514
0.231222 1.93019 1.13725
0.200253 1.92984 1.11096
0.243241 1.9297 1.12122
0.258947 1.9296 1.11776
0.251679 1.92951 1.10277
0.317955 1.9295 1.1244
0.252733 1.92974 1.07976
0.236531 1.92988 1.05984
0.324474 1.93011 1.0918
0.268172 1.93062 1.05104
0.346446 1.93145 1.07687
0.29038 1.93199 1.03617
0.292632 1.9328 1.02401
0.327293 1.93408 1.02705
0.294708 1.93555 0.996057
0.337872 1.9372 1.00254
0.353659 1.93902 0.994936
0.366731 1.94119 0.985175
0.37776 1.94471 0.971469
0.413004 1.94881 0.968553
0.491946 1.95928 0.97355
0.380473 1.99878 1.39557
0.333813 1.98915 1.37873
0.366842 1.98382 1.39363
0.321027 1.97972 1.36681
0.273039 1.97549 1.33919
0.270889 1.97249 1.33219
0.236883 1.96956 1.30915
0.27865 1.96671 1.32387
0.229197 1.965 1.29081
0.198102 1.96232 1.26883
0.24927 1.96054 1.28627
0.252857 1.959 1.27944
0.159563 1.95662 1.22587
0.264577 1.95524 1.2695
0.245461 1.95392 1.25095
0.126031 1.95267 1.18212
0.221272 1.9513 1.22089
0.245405 1.9502 1.22358
0.214363 1.94917 1.19854
0.26484 1.94823 1.21413
0.133924 1.94736 1.13886
0.264899 1.94657 1.19438
0.201204 1.94587 1.15241
0.167225 1.94525 1.12513
0.193279 1.94472 1.1277
0.229567 1.94428 1.13522
0.220368 1.94393 1.11981
0.161393 1.94366 1.07934
0.247831 1.94368 1.11098
0.19184 1.94359 1.07164
0.202502 1.94358 1.06545
0.21356 1.94363 1.05935
0.281883 1.94397 1.08128
0.278647 1.9442 1.06765
0.313208 1.94471 1.07232
0.307459 1.94512 1.05705
0.277853 1.94609 1.02865
0.22772 1.94691 0.990303
0.303981 1.948 1.01456
0.280022 1.94923 0.988404
0.340202 1.95063 1.00394
0.307312 1.9528 0.971272
0.418257 1.95517 1.01009
0.35302 1.958 0.959756
0.45876 1.96246 0.99139
0.436148 1.9707 0.950596
0.418337 2.0154 1.40934
0.374067 2.00475 1.39547
0.235884 1.99819 1.32702
0.333548 1.99406 1.37194
0.264839 1.99076 1.33214
0.264051 1.98678 1.32763
0.30839 1.98383 1.34377
0.320736 1.98184 1.34208
0.284799 1.97924 1.31746
0.265076 1.97736 1.29958
0.328987 1.97474 1.32497
0.213326 1.9732 1.25852
0.259858 1.97171 1.27306
0.265323 1.96941 1.26871
0.214642 1.96808 1.23437
0.307029 1.96663 1.27183
0.178009 1.96545 1.19808
0.227593 1.96434 1.2135
0.239048 1.9633 1.20971
0.295215 1.96235 1.22813
0.18052 1.96148 1.16097
0.18505 1.96069 1.15326
0.206186 1.95998 1.1537
0.166596 1.95936 1.12362
0.241283 1.95908 1.14998
0.19752 1.95859 1.11755
0.248425 1.95819 1.13228
0.195927 1.95787 1.09514
0.23955 1.95765 1.10587
0.188675 1.95772 1.06876
0.296878 1.95768 1.11142
0.238012 1.95769 1.07042
0.292686 1.95806 1.08545
0.208132 1.95829 1.03115
0.244275 1.95881 1.03661
0.197797 1.95922 1.00097
0.260651 1.95992 1.01939
0.350928 1.96083 1.05107
0.27953 1.96194 1.00147
0.332898 1.96317 1.014
0.297492 1.96478 0.981314
0.33678 1.96657 0.985581
0.287823 1.96934 0.94359
0.469728 1.9722 1.01683
0.411543 1.97629 0.967351
0.333487 1.98391 0.900293
0.360928 2.02018 1.38588
0.301826 2.01357 1.35698
0.273082 2.0094 1.33871
0.328432 2.00509 1.36279
0.309178 2.00202 1.34727
0.328032 1.99902 1.3507
0.252367 1.99611 1.30675
0.238219 1.99349 1.29302
0.178148 1.9916 1.25496
0.172601 1.98896 1.24562
0.32663 1.98741 1.31401
0.243095 1.98571 1.2639
0.215635 1.98428 1.24135
0.249854 1.98291 1.24952
0.136071 1.98079 1.18518
0.276496 1.9796 1.24615
0.274267 1.97848 1.23565
0.289698 1.97744 1.23385
0.152296 1.97648 1.15548
0.1756 1.97603 1.15646
0.244418 1.97519 1.18098
0.245887 1.97444 1.17166
0.253793 1.97377 1.16541
0.251725 1.97319 1.15399
0.144406 1.9727 1.08978
0.239061 1.97229 1.12639
0.309307 1.97198 1.15061
0.281694 1.97175 1.12572
0.231506 1.97167 1.08925
0.282246 1.97178 1.10287
0.236453 1.97179 1.06841
0.300433 1.97189 1.08866
0.255755 1.97227 1.05399
0.25283 1.97272 1.04005
0.313828 1.97334 1.05773
0.34146 1.97384 1.05896
0.254848 1.97495 1.00177
0.271454 1.97587 0.996589
0.309158 1.97731 1.00086
0.279634 1.97893 0.971111
0.404032 1.98073 1.01793
0.364372 1.9827 0.982335
0.366042 1.98572 0.965169
0.340182 1.98975 0.932022
0.465367 1.99646 0.968645
0.286665 2.03463 1.34762
0.38045 2.02797 1.39515
0.269493 2.02377 1.33578
0.29542 2.01943 1.34515
0.273508 2.01634 1.32829
0.259552 2.01332 1.31531
0.340365 2.01038 1.3496
0.272068 2.00861 1.30714
0.272978 2.00584 1.30122
0.306648 2.00399 1.30994
0.244868 2.00162 1.27196
0.313076 1.99992 1.29773
0.277692 1.99848 1.2712
0.239982 1.9971 1.24341
0.249288 1.99559 1.23939
0.335231 1.99435 1.27318
0.316507 1.99319 1.2545
0.218825 1.99211 1.19621
0.232501 1.9911 1.19346
0.265543 1.98997 1.20063
0.19308 1.98913 1.15451
0.276108 1.98837 1.18597
0.259837 1.98769 1.16762
0.234531 1.98711 1.14459
0.304599 1.98681 1.16867
0.226995 1.98641 1.11914
0.197387 1.98609 1.09343
0.218667 1.98586 1.09298
0.279147 1.98573 1.11195
0.237817 1.98589 1.07942
0.21478 1.9859 1.05633
0.236573 1.986 1.05549
0.287535 1.98639 1.06863
0.276846 1.98667 1.05117
0.299463 1.98746 1.0493
0.250757 1.98796 1.01235
0.252841 1.98876 1.00019
0.26028 1.99002 0.989734
0.316585 1.99123 1.00378
0.370495 1.9926 1.0163
0.270984 1.99456 0.95086
0.309944 1.99689 0.953834
0.380276 1.99993 0.970994
0.409659 2.00399 0.965462
0.413357 2.01034 0.942205
0.393688 2.0501 1.39811
0.396104 2.04359 1.39958
0.314626 2.03915 1.35533
0.296985 2.03496 1.34257
0.217945 2.03067 1.29936
0.195255 2.02763 1.28201
0.330709 2.02467 1.34362
0.35712 2.02289 1.34851
0.243462 2.0201 1.2853
0.226447 2.01824 1.26868
0.293592 2.01663 1.29367
0.204163 2.01413 1.2421
0.157828 2.01268 1.2101
0.191982 2.0113 1.21823
0.210958 2.00978 1.21905
0.26308 2.00853 1.23592
0.206614 2.00736 1.19837
0.267554 2.00627 1.21938
0.229389 2.00505 1.1911
0.194476 2.00412 1.1639
0.184478 2.00327 1.14901
0.21432 2.0025 1.15387
0.274213 2.00183 1.1736
0.189983 2.00124 1.1211
0.123054 2.00074 1.07708
0.195515 2.00053 1.10217
