ply
format ascii 1.0
comment Created by Open3D
element vertex 1668
property double x
property double y
property double z
end_header
-0.142004 -0.0760608 0.542834
-0.144058 -0.0760115 0.533824
-0.147988 -0.0759478 0.524725
-0.150861 -0.0758924 0.515697
-0.152575 -0.0758459 0.506742
-0.155495 -0.0757901 0.497736
-0.156925 -0.0757459 0.488818
-0.160664 -0.075684 0.479797
-0.161033 -0.075648 0.470952
-0.164692 -0.0755868 0.46196
-0.164894 -0.0755521 0.453143
-0.168892 -0.0754884 0.444162
-0.171516 -0.0754353 0.435256
-0.171999 -0.0753986 0.426456
-0.175451 -0.0753392 0.417538
-0.175269 -0.0753077 0.408785
-0.178636 -0.075249 0.399895
-0.178279 -0.0752189 0.391167
-0.181558 -0.0751611 0.382305
-0.184722 -0.0751041 0.37346
-0.184255 -0.0750749 0.364763
-0.187424 -0.075018 0.355942
-0.186856 -0.0749897 0.347265
-0.189856 -0.0749342 0.338472
-0.189244 -0.0749063 0.329814
-0.192253 -0.0748507 0.321043
-0.191608 -0.0748231 0.312402
-0.194273 -0.0747703 0.303664
-0.197139 -0.074716 0.294933
-0.196426 -0.074689 0.286318
-0.198785 -0.0746387 0.277623
-0.198026 -0.0746121 0.269025
-0.200722 -0.0745593 0.260342
-0.199928 -0.074533 0.25176
-0.201939 -0.0744854 0.243115
-0.201098 -0.0744596 0.234549
-0.203618 -0.0744082 0.225911
-0.206085 -0.0743573 0.217287
-0.204399 -0.074338 0.208762
-0.206764 -0.0742879 0.20016
-0.205812 -0.0742631 0.191634
-0.208098 -0.0742137 0.183053
-0.207107 -0.0741892 0.174541
-0.209311 -0.0741405 0.165981
-0.207289 -0.0741238 0.157501
-0.209388 -0.074076 0.148961
-0.208307 -0.0740523 0.140478
-0.210322 -0.0740052 0.131959
-0.209202 -0.0739818 0.12349
-0.211132 -0.0739354 0.114991
-0.213004 -0.0738894 0.106502
-0.211814 -0.0738667 0.0980556
-0.212353 -0.0738309 0.089598
-0.21111 -0.0738085 0.0811634
-0.212785 -0.0737642 0.0727123
-0.211499 -0.0737423 0.0642907
-0.213084 -0.0736987 0.0558577
-0.211756 -0.0736771 0.0474489
-0.21325 -0.0736343 0.0390337
-0.211878 -0.0736131 0.0306372
-0.21328 -0.073571 0.0222393
-0.211864 -0.0735502 0.0138549
-0.213173 -0.0735089 0.00547381
0.175773 -0.0665978 0.934491
0.143707 -0.0663583 0.922059
0.123251 -0.0661949 0.91074
0.102776 -0.0660315 0.899466
0.0906593 -0.0659228 0.888975
0.073797 -0.0657833 0.878102
0.0618126 -0.0656757 0.867688
0.0533211 -0.065591 0.857604
0.041506 -0.0654847 0.847263
0.0250835 -0.0653485 0.836568
0.0168099 -0.0652655 0.826584
0.00859789 -0.065183 0.816629
0.000452216 -0.0651009 0.806702
-0.00449794 -0.0650398 0.797054
-0.0109435 -0.0649689 0.787305
-0.0218514 -0.0648692 0.777229
-0.0296416 -0.0647897 0.767421
-0.0373396 -0.064711 0.757643
-0.0449407 -0.0646329 0.747894
-0.046946 -0.0645912 0.738583
-0.0526122 -0.0645258 0.729015
-0.0599911 -0.0644494 0.719342
-0.0672593 -0.0643737 0.709698
-0.0698921 -0.0643282 0.700403
-0.0769487 -0.064254 0.690812
-0.0838827 -0.0641807 0.681251
-0.08612 -0.0641379 0.672029
-0.0907613 -0.0640795 0.662659
-0.0974186 -0.0640082 0.653172
-0.099737 -0.0639649 0.643987
-0.103967 -0.0639094 0.634692
-0.110329 -0.0638401 0.625278
-0.112733 -0.0637965 0.616129
-0.116525 -0.0637439 0.606908
-0.120812 -0.0636881 0.597672
-0.124194 -0.0636383 0.588506
-0.128398 -0.0635832 0.579305
-0.130933 -0.0635389 0.570216
-0.134012 -0.0634912 0.561109
-0.138113 -0.0634369 0.551958
-0.140752 -0.063392 0.542903
-0.144762 -0.0633384 0.533786
-0.147435 -0.0632934 0.524755
-0.149749 -0.0632508 0.515756
-0.153648 -0.063198 0.506687
-0.154505 -0.0631648 0.497786
-0.158328 -0.0631126 0.488748
-0.159027 -0.0630805 0.479877
-0.163615 -0.0630235 0.470828
-0.163309 -0.0629978 0.462025
-0.16769 -0.0629422 0.453014
-0.170597 -0.0628961 0.444085
-0.170928 -0.0628665 0.435282
-0.174469 -0.0628164 0.426349
-0.174632 -0.0627879 0.417573
-0.178088 -0.0627384 0.408668
-0.178081 -0.0627111 0.399918
-0.181754 -0.0626603 0.391029
-0.184397 -0.0626161 0.382194
-0.184552 -0.0625878 0.373466
-0.187542 -0.0625415 0.364641
-0.187389 -0.0625153 0.355943
-0.190422 -0.0624687 0.347139
-0.189957 -0.0624445 0.338469
-0.193033 -0.0623978 0.329686
-0.192423 -0.0623745 0.321037
-0.19543 -0.0623283 0.31228
-0.194786 -0.0623053 0.303648
-0.197629 -0.0622602 0.294918
-0.19694 -0.0622376 0.286303
-0.199779 -0.0621926 0.277595
-0.199056 -0.0621702 0.268997
-0.201558 -0.0621274 0.26032
-0.204248 -0.0620834 0.251649
-0.203453 -0.0620616 0.243077
-0.206068 -0.0620182 0.23443
-0.204801 -0.0619994 0.225884
-0.207315 -0.0619567 0.21726
-0.206435 -0.0619354 0.208719
-0.208869 -0.0618933 0.200117
-0.207952 -0.0618724 0.191592
-0.209675 -0.0618348 0.183023
-0.208707 -0.0618142 0.174513
-0.210957 -0.0617734 0.165953
-0.21315 -0.0617329 0.157406
-0.212117 -0.0617128 0.14892
-0.214226 -0.0616729 0.140393
-0.213152 -0.0616531 0.131921
-0.214318 -0.0616193 0.123425
-0.213192 -0.0615998 0.114966
-0.215107 -0.0615613 0.10648
-0.21394 -0.0615422 0.0980343
-0.215768 -0.0615043 0.0895668
-0.214558 -0.0614854 0.0811348
-0.216297 -0.0614481 0.0726862
-0.215044 -0.0614296 0.0642674
-0.216692 -0.0613929 0.0558372
-0.215396 -0.0613748 0.0474312
-0.216953 -0.0613387 0.0390189
-0.215612 -0.0613208 0.0306255
-0.217076 -0.0612854 0.0222307
-0.218476 -0.0612504 0.0138456
-0.21706 -0.0612331 0.00547163
0.157455 -0.0531348 0.913817
0.137093 -0.0530046 0.902522
0.116623 -0.052874 0.891263
0.0961291 -0.0527433 0.880048
0.0756957 -0.0526131 0.868886
0.0671304 -0.0525449 0.858782
0.0551231 -0.0524588 0.848412
0.0466351 -0.0523912 0.838366
0.0266908 -0.0522639 0.827399
0.0183622 -0.0521973 0.817426
0.0100901 -0.0521309 0.80748
0.00187929 -0.052065 0.797563
-0.00942849 -0.051983 0.787425
-0.0143387 -0.0519344 0.777814
-0.0207452 -0.051878 0.768106
-0.0286235 -0.0518141 0.758306
-0.0364141 -0.0517506 0.748535
-0.0441124 -0.0516877 0.738793
-0.0517139 -0.0516253 0.729081
-0.0546468 -0.0515872 0.719729
-0.0620619 -0.0515259 0.710069
-0.0693676 -0.0514653 0.70044
-0.0740167 -0.0514184 0.691016
-0.0766733 -0.0513819 0.681747
-0.0837298 -0.0513227 0.672191
-0.088287 -0.0512764 0.662824
-0.090736 -0.0512411 0.653612
-0.0975238 -0.0511834 0.644131
-0.101982 -0.0511378 0.634819
-0.104207 -0.0511037 0.625665
-0.110708 -0.0510476 0.616256
-0.11506 -0.0510027 0.606998
-0.11897 -0.05096 0.597784
-0.123242 -0.0509156 0.588563
-0.125591 -0.050881 0.57947
-0.129215 -0.05084 0.570315
-0.133387 -0.0507961 0.561144
-0.13659 -0.0507573 0.552043
-0.140675 -0.050714 0.542907
-0.143152 -0.050679 0.533873
-0.146046 -0.0506419 0.524829
-0.150022 -0.0505992 0.515741
-0.151196 -0.050571 0.506813
-0.155097 -0.0505288 0.497756
-0.156117 -0.0505014 0.488858
-0.161073 -0.0504539 0.479777
-0.160806 -0.0504332 0.470963
-0.165561 -0.0503867 0.46192
-0.168258 -0.0503509 0.452988
-0.169807 -0.0503209 0.44412
-0.172548 -0.0502849 0.43521
-0.17305 -0.0502604 0.42641
-0.176591 -0.0502203 0.41749
-0.176927 -0.0501967 0.408716
-0.180991 -0.050154 0.3998
-0.18055 -0.0501344 0.391077
-0.18392 -0.0500953 0.382213
-0.18669 -0.0500594 0.373385
-0.187197 -0.050035 0.364654
-0.190009 -0.0499988 0.355848
-0.19021 -0.0499761 0.347146
-0.193064 -0.0499398 0.338362
-0.192776 -0.0499195 0.329695
-0.195851 -0.0498822 0.320925
-0.195385 -0.0498629 0.312281
-0.198366 -0.0498261 0.303537
-0.197721 -0.0498077 0.294915
-0.200618 -0.0497714 0.286196
-0.199928 -0.0497533 0.277591
-0.202761 -0.0497174 0.268895
-0.205542 -0.0496817 0.260214
-0.204792 -0.049664 0.251635
-0.203943 -0.0496468 0.243065
-0.206601 -0.0496119 0.234417
-0.209206 -0.0495772 0.225782
-0.208371 -0.04956 0.217236
-0.210628 -0.0495271 0.20863
-0.209745 -0.0495102 0.200099
-0.212169 -0.0494766 0.191509
-0.211247 -0.0494599 0.182994
-0.213588 -0.0494267 0.174426
-0.212627 -0.0494103 0.165925
-0.214414 -0.0493799 0.157386
-0.213402 -0.0493638 0.1489
-0.215554 -0.0493316 0.140374
-0.214501 -0.0493157 0.131903
-0.216567 -0.0492841 0.123397
-0.215474 -0.0492684 0.11494
-0.217452 -0.0492372 0.106454
-0.216317 -0.0492218 0.0980105
-0.218207 -0.0491911 0.0895444
-0.216314 -0.0491795 0.0811203
-0.218094 -0.0491495 0.0726728
-0.216862 -0.0491346 0.0642555
-0.218551 -0.049105 0.0558265
-0.217275 -0.0490904 0.0474221
-0.218872 -0.0490613 0.0390112
-0.220405 -0.0490326 0.0306105
-0.219054 -0.0490184 0.0222262
-0.220493 -0.0489902 0.0138427
-0.219097 -0.0489763 0.00547049
0.150932 -0.0397899 0.894285
0.11868 -0.0396458 0.882014
0.0981757 -0.0395478 0.870824
0.0895715 -0.0394965 0.860696
0.0691152 -0.0393989 0.849593
0.0570438 -0.0393341 0.839235
0.048528 -0.0392833 0.829201
0.0318643 -0.0392007 0.818527
0.0200663 -0.0391372 0.808285
0.0117417 -0.0390873 0.798349
0.00347336 -0.0390376 0.788442
-0.00797766 -0.0389756 0.77831
-0.0128747 -0.0389392 0.768712
-0.0194487 -0.0388963 0.759004
-0.0274079 -0.038848 0.749211
-0.0352842 -0.0388001 0.739448
-0.0430729 -0.0387526 0.729714
-0.0507693 -0.0387055 0.720009
-0.0538058 -0.0386766 0.710659
-0.0613244 -0.0386302 0.701007
-0.068738 -0.0385843 0.691384
-0.0733817 -0.0385492 0.681973
-0.0761544 -0.0385214 0.672705
-0.0833275 -0.0384766 0.663156
-0.090382 -0.0384322 0.653636
-0.0924031 -0.0384074 0.644464
-0.0973661 -0.0383712 0.635115
-0.104151 -0.038328 0.625668
-0.106429 -0.0383023 0.616522
-0.110811 -0.0382684 0.607259
-0.117308 -0.0382264 0.597884
-0.11935 -0.0382017 0.588794
-0.123621 -0.0381684 0.579585
-0.127858 -0.0381352 0.570394
-0.129738 -0.0381112 0.561352
-0.135757 -0.0380712 0.55209
-0.137411 -0.0380481 0.543086
-0.141495 -0.0380156 0.533962
-0.143818 -0.03799 0.524947
-0.14702 -0.037961 0.515898
-0.150995 -0.037929 0.506823
-0.152326 -0.0379073 0.497896
-0.157638 -0.0378702 0.488782
-0.157407 -0.0378545 0.479956
-0.162525 -0.0378183 0.47088
-0.162258 -0.0378027 0.462075
-0.167177 -0.0377673 0.453038
-0.169706 -0.0377411 0.444125
-0.17159 -0.0377173 0.435253
-0.17416 -0.037691 0.426362
-0.174831 -0.037672 0.417565
-0.179277 -0.0376385 0.408619
-0.178877 -0.0376236 0.399886
-0.183111 -0.037591 0.390975
-0.182671 -0.0375763 0.382261
-0.186037 -0.037547 0.37341
-0.188627 -0.0375208 0.364601
-0.189486 -0.0375011 0.355867
-0.192116 -0.0374748 0.347079
-0.192672 -0.0374563 0.338375
-0.195342 -0.0374299 0.329609
-0.195233 -0.037414 0.320945
-0.198301 -0.037386 0.312188
-0.198016 -0.0373709 0.303548
-0.20099 -0.0373433 0.294817
-0.200333 -0.0373296 0.286204
-0.203405 -0.0373017 0.277492
-0.202702 -0.0372883 0.268897
-0.205505 -0.0372614 0.260215
-0.204765 -0.0372481 0.251636
-0.207497 -0.0372216 0.242977
-0.206715 -0.0372085 0.234414
-0.209362 -0.0371823 0.225779
-0.208549 -0.0371693 0.217232
-0.211116 -0.0371435 0.208619
-0.210264 -0.0371307 0.200088
-0.21275 -0.0371052 0.191498
-0.211762 -0.037093 0.182984
-0.214145 -0.0370679 0.174416
-0.213204 -0.0370555 0.165915
-0.215503 -0.0370308 0.157369
-0.217744 -0.0370064 0.148834
-0.216735 -0.0369943 0.140357
-0.215714 -0.0369822 0.131886
-0.217525 -0.0369594 0.123385
-0.219572 -0.0369358 0.114891
-0.21847 -0.0369241 0.106443
-0.220429 -0.0369008 0.0979693
-0.219284 -0.0368893 0.0895346
-0.221153 -0.0368664 0.0810802
-0.219965 -0.0368551 0.0726589
-0.221742 -0.0368325 0.0642234
-0.22051 -0.0368214 0.0558154
-0.222194 -0.0367993 0.0473983
-0.220917 -0.0367883 0.0390031
-0.222507 -0.0367666 0.0306039
-0.221185 -0.0367558 0.0222213
-0.22268 -0.0367344 0.0138396
-0.221311 -0.0367239 0.00546925
0.144501 -0.0264862 0.874819
0.112222 -0.0263901 0.862628
0.0917044 -0.0263248 0.851498
0.0795265 -0.0262814 0.841111
0.0626348 -0.0262256 0.830365
0.050544 -0.0261825 0.820051
0.0420368 -0.0261487 0.810057
0.0219189 -0.0260847 0.799161
0.0135496 -0.0260513 0.789236
0.0052314 -0.0260181 0.779339
-0.00635173 -0.0259764 0.769214
-0.00657632 -0.0259643 0.759982
-0.0147267 -0.0259316 0.750164
-0.0259972 -0.0258909 0.740137
-0.0339521 -0.0258588 0.730383
-0.0418241 -0.0258269 0.720657
-0.0496085 -0.0257953 0.710959
-0.0543319 -0.0257716 0.7015
-0.0603591 -0.0257446 0.691967
-0.067874 -0.0257137 0.682351
-0.0752839 -0.0256832 0.672764
-0.0771139 -0.0256671 0.663571
-0.0826762 -0.0256414 0.654144
-0.0898452 -0.0256115 0.64463
-0.0917343 -0.0255954 0.635476
-0.0969454 -0.0255706 0.626124
-0.103853 -0.0255415 0.616683
-0.106262 -0.025524 0.607539
-0.110638 -0.0255015 0.598288
-0.117266 -0.0254732 0.588919
-0.119446 -0.0254564 0.57983
-0.123712 -0.0254342 0.570633
-0.127942 -0.0254121 0.561454
-0.131977 -0.0253905 0.552301
-0.136126 -0.0253687 0.543157
-0.137929 -0.0253529 0.534156
-0.142009 -0.0253313 0.525044
-0.144173 -0.0253146 0.516047
-0.147681 -0.0252945 0.506994
-0.15165 -0.0252732 0.497931
-0.153138 -0.0252584 0.489006
-0.158604 -0.0252333 0.479897
-0.158372 -0.0252228 0.471079
-0.163647 -0.0251983 0.46201
-0.165967 -0.0251813 0.453093
-0.168459 -0.0251639 0.444181
-0.170817 -0.0251469 0.435287
-0.173034 -0.0251302 0.426411
-0.17543 -0.0251131 0.417539
-0.176269 -0.0251 0.408744
-0.179801 -0.02508 0.399848
-0.180478 -0.0250674 0.39108
-0.18488 -0.0250452 0.382175
-0.184438 -0.0250354 0.373471
-0.187798 -0.0250159 0.364632
-0.188143 -0.0250042 0.355915
-0.191415 -0.024985 0.347104
-0.190899 -0.0249754 0.338436
-0.194771 -0.0249547 0.329628
-0.196499 -0.0249394 0.320904
-0.197321 -0.0249265 0.31222
-0.199757 -0.0249095 0.303494
-0.200274 -0.0248974 0.294838
-0.202747 -0.0248803 0.286134
-0.202577 -0.0248699 0.277516
-0.205466 -0.0248518 0.268821
-0.205118 -0.0248419 0.260225
-0.20758 -0.0248249 0.251564
-0.207165 -0.0248152 0.242985
-0.209879 -0.0247976 0.234339
-0.209282 -0.0247884 0.225781
-0.211896 -0.0247711 0.217158
-0.211066 -0.0247625 0.20862
-0.213598 -0.0247454 0.20002
-0.21273 -0.0247369 0.191498
-0.21518 -0.02472 0.18292
-0.214272 -0.0247116 0.174414
-0.216637 -0.024695 0.165857
-0.215689 -0.0246867 0.157366
-0.217969 -0.0246704 0.148831
-0.21698 -0.0246622 0.140354
-0.219173 -0.0246461 0.13184
-0.218143 -0.0246381 0.123377
-0.220248 -0.0246222 0.114884
-0.219174 -0.0246143 0.106435
-0.22119 -0.0245986 0.0979616
-0.219921 -0.0245913 0.0895287
-0.221827 -0.0245759 0.0810746
-0.220658 -0.0245683 0.0726538
-0.222472 -0.0245532 0.0642186
-0.221258 -0.0245457 0.0558111
-0.222979 -0.0245309 0.0473945
-0.221721 -0.0245235 0.0389999
-0.223347 -0.0245089 0.0306013
-0.222042 -0.0245017 0.0222194
-0.223572 -0.0244874 0.0138384
-0.222222 -0.0244803 0.00546875
0.13817 -0.013223 0.855419
0.105867 -0.013175 0.843309
0.0853379 -0.0131424 0.832239
0.0648192 -0.0131098 0.821216
0.0562639 -0.0130929 0.811205
0.0441547 -0.0130713 0.800934
0.0356588 -0.0130544 0.790978
0.0236815 -0.013033 0.780776
0.0152816 -0.0130163 0.770879
0.00349904 -0.0129952 0.760749
-0.00476843 -0.0129787 0.750912
-0.0129758 -0.0129623 0.741104
-0.0211182 -0.012946 0.731323
-0.0324199 -0.0129256 0.721337
-0.040368 -0.0129096 0.711619
-0.0482333 -0.0128937 0.70193
-0.0498186 -0.0128859 0.692701
-0.0591675 -0.0128681 0.682949
-0.066777 -0.0128526 0.673341
-0.0742859 -0.0128372 0.66376
-0.0743893 -0.0128314 0.654691
-0.0817767 -0.0128162 0.645155
-0.0890539 -0.0128011 0.635648
-0.0908094 -0.0127932 0.626512
-0.096262 -0.0127805 0.617156
-0.103287 -0.0127659 0.607721
-0.105822 -0.012757 0.598579
-0.110188 -0.0127457 0.58934
-0.116941 -0.0127314 0.579977
-0.119256 -0.0127228 0.570891
-0.123513 -0.0127117 0.561706
-0.127734 -0.0127007 0.552539
-0.132053 -0.0126896 0.543382
-0.136194 -0.0126787 0.53425
-0.138141 -0.0126706 0.52525
-0.142213 -0.0126598 0.51615
-0.144218 -0.0126517 0.507172
-0.148026 -0.0126413 0.498114
-0.151987 -0.0126307 0.489063
-0.153627 -0.012623 0.48014
-0.159244 -0.0126103 0.471037
-0.15901 -0.0126051 0.462227
-0.164438 -0.0125926 0.453164
-0.164168 -0.0125874 0.444375
-0.169404 -0.0125752 0.43535
-0.171587 -0.012567 0.426474
-0.174135 -0.0125582 0.417594
-0.176353 -0.0125499 0.40874
-0.177358 -0.0125431 0.399947
-0.180881 -0.0125332 0.391064
-0.181727 -0.0125266 0.382298
-0.185164 -0.0125168 0.373443
-0.185848 -0.0125105 0.364704
-0.189198 -0.0125007 0.355877
-0.18872 -0.0124959 0.347199
-0.192978 -0.0124851 0.338365
-0.192458 -0.0124803 0.329706
-0.195647 -0.0124708 0.320932
-0.195936 -0.012465 0.312264
-0.199033 -0.0124557 0.303517
-0.198435 -0.012451 0.294894
-0.202153 -0.0124409 0.286151
-0.201511 -0.0124363 0.277546
-0.204438 -0.0124272 0.268849
-0.20376 -0.0124227 0.260261
-0.207147 -0.012413 0.251575
-0.206422 -0.0124086 0.243004
-0.209174 -0.0123997 0.234356
-0.208411 -0.0123953 0.225801
-0.211459 -0.0123861 0.217168
-0.210649 -0.0123818 0.208629
-0.21322 -0.0123732 0.200028
-0.212371 -0.0123689 0.191505
-0.214859 -0.0123604 0.182926
-0.21397 -0.0123562 0.174419
-0.216559 -0.0123476 0.165858
-0.215621 -0.0123435 0.157367
-0.217919 -0.0123352 0.148831
-0.21694 -0.0123312 0.140354
-0.219151 -0.0123231 0.13184
-0.21813 -0.0123191 0.123377
-0.220253 -0.0123111 0.114883
-0.219189 -0.0123071 0.106435
-0.221222 -0.0122993 0.0979613
-0.220115 -0.0122954 0.089527
-0.222057 -0.0122877 0.0810727
-0.220906 -0.0122838 0.0726519
-0.222756 -0.0122762 0.0642168
-0.22156 -0.0122725 0.0558094
-0.223315 -0.012265 0.0473928
-0.222082 -0.0122613 0.0389984
-0.223759 -0.012254 0.0306
-0.22248 -0.0122503 0.0222184
-0.22406 -0.0122431 0.0138377
-0.222677 -0.0122396 0.00546849
0.131949 0 0.836085
0.0996235 0 0.824056
0.0790853 0 0.813045
0.0668826 0 0.802746
0.0500114 0 0.79211
0.0378853 0 0.781882
0.0294031 0 0.771966
0.017405 0 0.761806
0.00901738 0 0.751948
-0.00278979 0 0.74186
-0.0110465 0 0.732061
-0.0192432 0 0.722291
-0.0273752 0 0.712548
-0.0387072 0 0.702602
-0.0466462 0 0.692922
-0.046792 0 0.683799
-0.0546351 0 0.674164
-0.0623902 0 0.664556
-0.0700525 0 0.654977
-0.0731457 0 0.645717
-0.0806303 0 0.636189
-0.0880091 0 0.626689
-0.0896299 0 0.617569
-0.0953167 0 0.608211
-0.102452 0 0.598783
-0.10511 0 0.589643
-0.109463 0 0.580416
-0.116335 0 0.57106
-0.118779 0 0.561975
-0.123024 0 0.552802
-0.127232 0 0.543647
-0.129529 0 0.534611
-0.135959 0 0.525366
-0.138048 0 0.516368
-0.142108 0 0.50728
-0.144066 0 0.498314
-0.148055 0 0.489258
-0.152003 0 0.480219
-0.153793 0 0.471298
-0.159556 0 0.462202
-0.159317 0 0.4534
-0.164895 0 0.444342
-0.16462 0 0.435562
-0.170008 0 0.426542
-0.169696 0 0.417783
-0.173335 0 0.408866
-0.175296 0 0.400031
-0.178096 0 0.391175
-0.180089 0 0.382362
-0.182618 0 0.37354
-0.184644 0 0.364749
-0.186896 0 0.355961
-0.188953 0 0.347191
-0.189749 0 0.338476
-0.193014 0 0.329687
-0.193645 0 0.320997
-0.196819 0 0.312236
-0.197284 0 0.303571
-0.200366 0 0.294836
-0.199762 0 0.286221
-0.202768 0 0.27751
-0.203 0 0.268889
-0.205911 0 0.260204
-0.205225 0 0.251624
-0.208056 0 0.242963
-0.208051 0 0.234382
-0.210784 0 0.225746
-0.210014 0 0.2172
-0.212666 0 0.208586
-0.211856 0 0.200056
-0.214425 0 0.191465
-0.21411 0 0.18294
-0.216059 0 0.174382
-0.215678 0 0.165873
-0.217567 0 0.157335
-0.217119 0 0.148844
-0.218946 0 0.140326
-0.21878 0 0.131845
-0.217776 0 0.123382
-0.219935 0 0.114887
-0.218888 0 0.106438
-0.220956 0 0.097964
-0.219866 0 0.0895292
-0.221843 0 0.0810744
-0.220708 0 0.0726534
-0.222592 0 0.0642178
-0.221413 0 0.0558102
-0.223202 0 0.0473934
-0.221977 0 0.0389989
-0.22367 0 0.0306003
-0.222399 0 0.0222186
-0.223995 0 0.0138378
-0.222734 0 0.00546846
0.13766 0.0131988 0.81777
0.10548 0.0131511 0.805824
0.0813018 0.0131138 0.794576
0.0644152 0.013086 0.783949
0.0522089 0.0130643 0.773721
0.0317448 0.0130319 0.762897
0.023279 0.0130152 0.753019
0.0112613 0.0129938 0.742902
0.00288843 0.0129772 0.733083
-0.00894217 0.0129561 0.723036
-0.0171855 0.0129397 0.713276
-0.0253693 0.0129233 0.703543
-0.0334884 0.0129071 0.693838
-0.0369913 0.0128968 0.684473
-0.0449843 0.0128808 0.674818
-0.0528989 0.0128649 0.665191
-0.0607303 0.0128491 0.655592
-0.0653164 0.0128375 0.646226
-0.0716639 0.0128236 0.636764
-0.0792387 0.0128082 0.627243
-0.0867124 0.0127929 0.617751
-0.0867603 0.0127872 0.608736
-0.0941109 0.0127721 0.599288
-0.101351 0.0127571 0.589867
-0.101356 0.0127515 0.580892
-0.108461 0.0127367 0.571515
-0.112761 0.0127256 0.562318
-0.118017 0.0127132 0.553083
-0.122246 0.0127022 0.543922
-0.124702 0.0126935 0.534872
-0.128865 0.0126825 0.525744
-0.13299 0.0126717 0.516633
-0.137647 0.0126601 0.50751
-0.141692 0.0126494 0.498434
-0.143792 0.0126412 0.48947
-0.147766 0.0126305 0.480426
-0.149734 0.0126225 0.471493
-0.153635 0.012612 0.46248
-0.157493 0.0126015 0.453484
-0.159293 0.0125937 0.444595
-0.163075 0.0125833 0.43563
-0.164734 0.0125757 0.426771
-0.17027 0.0125632 0.417758
-0.169952 0.0125581 0.409007
-0.173574 0.012548 0.400102
-0.17494 0.0125408 0.3913
-0.178481 0.0125308 0.382425
-0.178093 0.0125258 0.373712
-0.18315 0.0125139 0.364804
-0.182723 0.012509 0.356112
-0.187578 0.0124974 0.34724
-0.18711 0.0124925 0.338567
-0.190407 0.0124829 0.329775
-0.189905 0.0124781 0.32112
-0.194456 0.0124669 0.312311
-0.193912 0.0124622 0.303675
-0.197044 0.0124528 0.294935
-0.197663 0.0124466 0.286282
-0.200702 0.0124373 0.277569
-0.200078 0.0124327 0.268969
-0.203039 0.0124236 0.26028
-0.203429 0.0124177 0.25167
-0.206294 0.0124087 0.243007
-0.205587 0.0124042 0.234441
-0.208372 0.0123954 0.225802
-0.208526 0.0123898 0.217233
-0.211212 0.012381 0.208617
-0.210419 0.0123767 0.200085
-0.213021 0.0123681 0.191493
-0.212188 0.0123638 0.182976
-0.214705 0.0123553 0.174406
-0.214554 0.0123501 0.165892
-0.216968 0.0123418 0.157345
-0.216045 0.0123376 0.14886
-0.218371 0.0123294 0.140334
-0.217406 0.0123253 0.131863
-0.219643 0.0123171 0.123358
-0.218635 0.0123131 0.114902
-0.220146 0.0123059 0.106425
-0.220249 0.0123005 0.0979711
-0.219175 0.0122966 0.0895356
-0.221184 0.0122888 0.0810799
-0.220066 0.0122849 0.0726582
-0.221981 0.0122772 0.0642218
-0.220818 0.0122734 0.0558136
-0.222638 0.0122659 0.0473961
-0.221429 0.0122621 0.039001
-0.223153 0.0122547 0.0306019
-0.221898 0.012251 0.0222197
-0.223524 0.0122438 0.0138384
-0.222222 0.0122402 0.00546875
0.09951 0.0262633 0.786682
0.0790052 0.0261983 0.775784
0.0667858 0.0261549 0.765562
0.0462231 0.0260899 0.754743
0.0340383 0.0260467 0.744592
0.0255689 0.0260132 0.734745
0.0052594 0.025949 0.724064
0.00509433 0.0259371 0.714868
-0.00682736 0.0258947 0.704851
-0.0151005 0.0258618 0.695118
-0.0233184 0.0258291 0.685412
-0.0349166 0.0257877 0.6755
-0.0429685 0.0257554 0.665855
-0.050947 0.0257234 0.656237
-0.0588473 0.0256916 0.646647
-0.0621966 0.0256717 0.637371
-0.0699462 0.0256403 0.627831
-0.0776041 0.0256092 0.618319
-0.0776574 0.0255978 0.609295
-0.0852026 0.0255671 0.599827
-0.0926461 0.0255366 0.590386
-0.0940045 0.0255219 0.581323
-0.0999783 0.0254953 0.572005
-0.107186 0.0254655 0.562635
-0.109973 0.0254471 0.553533
-0.114227 0.025425 0.544363
-0.121178 0.025396 0.535063
-0.12376 0.0253782 0.526016
-0.127904 0.0253564 0.516899
-0.130371 0.025339 0.507884
-0.134448 0.0253174 0.4988
-0.140966 0.0252896 0.48961
-0.140803 0.0252789 0.480765
-0.147159 0.0252516 0.471616
-0.146964 0.025241 0.462793
-0.153151 0.0252141 0.453684
-0.152922 0.0252037 0.444883
-0.158936 0.0251773 0.435813
-0.160514 0.0251622 0.426954
-0.164508 0.025141 0.418003
-0.16611 0.025126 0.409166
-0.169861 0.0251054 0.400253
-0.173464 0.0250853 0.391359
-0.173106 0.0250753 0.382634
-0.178509 0.0250505 0.373696
-0.178112 0.0250406 0.364992
-0.18332 0.0250165 0.35609
-0.182884 0.0250067 0.347406
-0.186248 0.0249872 0.338597
-0.187416 0.0249734 0.329875
-0.190692 0.0249542 0.321094
-0.19018 0.0249447 0.312447
-0.194889 0.0249219 0.303645
-0.194335 0.0249125 0.295017
-0.197445 0.0248938 0.286289
-0.196854 0.0248845 0.277678
-0.201254 0.0248625 0.268937
-0.200619 0.0248533 0.260345
-0.203557 0.0248351 0.251667
-0.202884 0.0248261 0.243091
-0.205741 0.0248081 0.234438
-0.206246 0.0247961 0.225851
-0.207804 0.0247814 0.217249
-0.208248 0.0247696 0.20868
-0.207478 0.0247608 0.200145
-0.211196 0.0247407 0.191528
-0.210378 0.0247321 0.18301
-0.212926 0.024715 0.174437
-0.212068 0.0247065 0.165935
-0.214529 0.0246897 0.157384
-0.213628 0.0246813 0.148897
-0.216898 0.0246624 0.140355
-0.215948 0.0246542 0.131883
-0.218216 0.0246379 0.123376
-0.217223 0.0246298 0.114919
-0.2194 0.0246137 0.106433
-0.218363 0.0246057 0.0979899
-0.219615 0.024592 0.0895315
-0.219366 0.0245821 0.081095
-0.21827 0.0245743 0.0726715
-0.22023 0.0245588 0.0642333
-0.219089 0.0245512 0.0558235
-0.221627 0.0245343 0.047401
-0.220432 0.0245268 0.039005
-0.222186 0.0245118 0.0306049
-0.220944 0.0245045 0.0222219
-0.2226 0.0244898 0.0138397
-0.221311 0.0244826 0.00546925
0.105657 0.0393839 0.768518
0.0815125 0.0392723 0.757394
0.0609526 0.0391749 0.74659
0.0487197 0.0391099 0.736441
0.0319079 0.0390272 0.725992
0.0197388 0.0389625 0.715914
0.00763844 0.0388983 0.705871
-0.000730503 0.0388485 0.696118
-0.0126718 0.038785 0.686144
-0.0209259 0.0387358 0.676449
-0.029125 0.0386869 0.666781
-0.0372643 0.0386382 0.657139
-0.0408484 0.0386072 0.647817
-0.0488708 0.0385591 0.638225
-0.0568193 0.0385113 0.628661
-0.0646891 0.0384639 0.619123
-0.0680506 0.0384339 0.609885
-0.0757691 0.0383871 0.600397
-0.0833953 0.0383407 0.590937
-0.0909246 0.0382947 0.581504
-0.0909248 0.0382779 0.572528
-0.0983348 0.0382325 0.563138
-0.105638 0.0381875 0.553775
-0.105595 0.0381708 0.544838
-0.112767 0.0381264 0.535518
-0.115566 0.0380989 0.526452
-0.119732 0.0380661 0.517327
-0.126647 0.0380228 0.508076
-0.12924 0.0379961 0.499064
-0.133293 0.0379639 0.489991
-0.135772 0.0379377 0.481011
-0.139756 0.0379058 0.47197
-0.143697 0.0378741 0.462947
-0.146028 0.0378485 0.454012
-0.152341 0.0378077 0.444909
-0.152102 0.0377921 0.436116
-0.158246 0.0377521 0.427053
-0.157972 0.0377366 0.418281
-0.163942 0.0376973 0.409257
-0.163632 0.037682 0.400506
-0.169423 0.0376434 0.39152
-0.169076 0.0376283 0.382791
-0.172634 0.0375983 0.37392
-0.174296 0.0375756 0.365133
-0.177772 0.0375459 0.356292
-0.177353 0.0375312 0.347601
-0.182679 0.0374945 0.33872
-0.18222 0.0374799 0.33005
-0.185537 0.037451 0.321263
-0.18685 0.0374297 0.312553
-0.190078 0.0374012 0.303794
-0.189543 0.037387 0.295161
-0.194374 0.0373523 0.286378
-0.193797 0.0373383 0.277765
-0.196856 0.0373105 0.269057
-0.196242 0.0372967 0.260461
-0.200766 0.0372633 0.251739
-0.200107 0.0372497 0.24316
-0.202991 0.0372226 0.234504
-0.202294 0.0372091 0.225942
-0.206501 0.0371771 0.217278
-0.205757 0.0371638 0.208734
-0.208461 0.0371375 0.200125
-0.207677 0.0371245 0.191597
-0.210296 0.0370985 0.183011
-0.209471 0.0370856 0.174499
-0.210656 0.0370651 0.165959
-0.212372 0.0370427 0.157419
-0.211485 0.0370301 0.148929
-0.213886 0.037005 0.140398
-0.212957 0.0369926 0.131923
-0.215267 0.036968 0.123413
-0.214295 0.0369557 0.114953
-0.217584 0.0369274 0.106453
-0.216561 0.0369154 0.098008
-0.218673 0.0368916 0.0895402
-0.217605 0.0368798 0.0811096
-0.216523 0.036868 0.0726845
-0.21851 0.0368447 0.0642446
-0.217382 0.0368332 0.0558332
-0.219273 0.0368103 0.0474124
-0.218099 0.0367989 0.0390143
-0.219893 0.0367764 0.0306121
-0.218671 0.0367652 0.022227
-0.220366 0.0367431 0.0138429
-0.219097 0.0367322 0.00547049
0.091629 0.0523692 0.739586
0.0673865 0.0522202 0.72856
0.0468088 0.0520904 0.717848
0.0345743 0.0520039 0.707771
0.0223673 0.0519177 0.697726
0.0139512 0.0518512 0.687973
0.00183863 0.0517655 0.677992
-0.00649917 0.0516995 0.668294
-0.0184537 0.0516149 0.65838
-0.0266764 0.0515496 0.648739
-0.0348436 0.0514846 0.639125
-0.046481 0.0514018 0.629314
-0.0544834 0.0513378 0.619759
-0.0545354 0.0513149 0.610715
-0.0624505 0.0512515 0.601203
-0.0702863 0.0511885 0.591718
-0.078038 0.0511261 0.58226
-0.0813434 0.0510865 0.573081
-0.0889346 0.051025 0.563673
-0.0964282 0.050964 0.554291
-0.096389 0.0509418 0.545345
-0.103762 0.0508815 0.536006
-0.111028 0.0508218 0.526694
-0.110944 0.0508 0.517787
-0.118078 0.0507411 0.508517
-0.120888 0.0507044 0.499486
-0.124961 0.0506613 0.490405
-0.131835 0.0506038 0.481203
-0.131671 0.0505825 0.472357
-0.138397 0.0505259 0.463196
-0.138201 0.0505048 0.454373
-0.144772 0.0504491 0.445251
-0.144544 0.0504282 0.436451
-0.150954 0.0503734 0.427369
-0.150693 0.0503527 0.41859
-0.156937 0.0502988 0.409548
-0.158137 0.0502707 0.40073
-0.162713 0.0502254 0.391787
-0.166325 0.0501851 0.382898
-0.168277 0.0501533 0.374086
-0.171809 0.0501134 0.365226
-0.171416 0.0500936 0.356522
-0.177071 0.050043 0.347611
-0.17664 0.0500234 0.338928
-0.180014 0.0499845 0.330124
-0.181635 0.0499545 0.321391
-0.184923 0.0499161 0.312614
-0.184417 0.049897 0.303969
-0.187628 0.049859 0.295219
-0.189049 0.0498302 0.286534
-0.190218 0.0498026 0.277866
-0.193438 0.0497647 0.269151
-0.192835 0.0497462 0.260551
-0.195839 0.0497094 0.251865
-0.195198 0.0496911 0.243282
-0.199843 0.0496461 0.234579
-0.199157 0.0496281 0.226014
-0.201984 0.0495923 0.217378
-0.201259 0.0495745 0.208829
-0.204002 0.0495393 0.200216
-0.204818 0.0495137 0.191653
-0.207462 0.049479 0.183064
-0.20665 0.0494618 0.174549
-0.209207 0.0494275 0.165983
-0.208352 0.0494105 0.157484
-0.209286 0.0493845 0.148963
-0.211349 0.0493528 0.140435
-0.210432 0.0493362 0.131957
-0.212768 0.0493032 0.123445
-0.211808 0.0492868 0.114983
-0.214052 0.0492544 0.106491
-0.213047 0.0492382 0.0980432
-0.215198 0.0492063 0.089572
-0.214149 0.0491904 0.0811382
-0.216205 0.049159 0.0726869
-0.215109 0.0491434 0.064267
-0.213999 0.0491279 0.0558525
-0.217152 0.049091 0.0474227
-0.215989 0.0490758 0.0390227
-0.217808 0.0490456 0.0306186
-0.216598 0.0490307 0.0222317
-0.218318 0.0490011 0.0138458
-0.21706 0.0489865 0.00547163
0.0740165 0.0652604 0.710553
0.053477 0.0650986 0.699892
0.0412343 0.0649905 0.689847
0.0289923 0.0648826 0.679832
0.00847468 0.0647212 0.669295
0.000114765 0.0646386 0.659605
-0.0119615 0.064532 0.649696
-0.0202312 0.0644502 0.640062
-0.0321307 0.0643449 0.630222
-0.0321845 0.0643162 0.621149
-0.0439306 0.0642121 0.611366
-0.0519664 0.064132 0.601837
-0.0599329 0.0640524 0.592335
-0.0678253 0.0639734 0.58286
-0.0678242 0.0639452 0.573863
-0.0756226 0.0638669 0.56443
-0.0833364 0.0637892 0.555024
-0.0866527 0.0637399 0.545882
-0.0942055 0.0636633 0.536524
-0.10166 0.0635875 0.527193
-0.101579 0.0635601 0.518278
-0.108912 0.0634851 0.508989
-0.108803 0.063458 0.500097
-0.116009 0.063384 0.49085
-0.123101 0.0633108 0.481628
-0.122944 0.063284 0.472775
-0.129897 0.0632118 0.463595
-0.129709 0.0631854 0.454764
-0.136517 0.0631142 0.445624
-0.140379 0.0630619 0.436635
-0.142955 0.0630178 0.427716
-0.14948 0.0629486 0.418642
-0.149204 0.0629229 0.40987
-0.155567 0.0628548 0.400835
-0.155256 0.0628294 0.392084
-0.158893 0.0627788 0.383187
-0.161105 0.0627373 0.374359
-0.164664 0.0626873 0.365491
-0.166745 0.0626468 0.356692
-0.170223 0.0625974 0.347854
-0.169804 0.0625728 0.339164
-0.175564 0.0625089 0.330274
-0.175106 0.0624847 0.321604
-0.178425 0.0624364 0.312821
-0.180183 0.0623981 0.3041
-0.183415 0.0623505 0.295346
-0.182881 0.0623269 0.286714
-0.188172 0.0622662 0.277924
-0.187596 0.0622429 0.269312
-0.19066 0.0621965 0.260609
-0.190046 0.0621735 0.252014
-0.195043 0.0621149 0.243286
-0.194386 0.0620922 0.23471
-0.195273 0.0620597 0.226104
-0.196577 0.0620246 0.217498
-0.197762 0.0619903 0.208904
-0.200528 0.061946 0.200287
-0.199773 0.0619241 0.191752
-0.202452 0.0618804 0.183158
-0.201655 0.0618587 0.174638
-0.206001 0.0618046 0.166037
-0.205157 0.0617833 0.157535
-0.207649 0.061741 0.148988
-0.206762 0.06172 0.1405
-0.207439 0.0616891 0.131998
-0.208233 0.0616576 0.123502
-0.207288 0.061637 0.115036
-0.209567 0.0615962 0.10654
-0.210173 0.0615659 0.098072
-0.212347 0.0615258 0.0895981
-0.211308 0.0615059 0.0811618
-0.213386 0.0614664 0.0727078
-0.212301 0.0614468 0.0642854
-0.211202 0.0614274 0.0558685
-0.213152 0.0613888 0.0474421
-0.212005 0.0613697 0.0390386
-0.213857 0.0613318 0.030631
-0.212663 0.061313 0.0222407
-0.214415 0.0612758 0.0138513
-0.213173 0.0612574 0.00547381
0.0686831 0.0781672 0.682523
0.0481447 0.0779733 0.671948
0.0358982 0.0778439 0.661965
0.0153238 0.07765 0.651471
0.00312718 0.0775212 0.64156
-0.00900596 0.077393 0.631684
-0.0172794 0.0772948 0.622078
-0.0255107 0.077197 0.612497
-0.0374203 0.0770709 0.602717
-0.0455247 0.0769743 0.593194
-0.0491914 0.0769121 0.583953
-0.0571882 0.0768164 0.574477
-0.0651154 0.0767214 0.565027
-0.072968 0.0766271 0.555604
-0.0729246 0.0765938 0.546637
-0.0806821 0.0765003 0.537256
-0.0883546 0.0764075 0.527901
-0.0916811 0.0763484 0.518796
-0.0991921 0.076257 0.509489
-0.0990839 0.0762244 0.500588
-0.106478 0.0761341 0.491323
-0.113768 0.0760447 0.482084
-0.113613 0.0760126 0.473221
-0.120774 0.0759243 0.464023
-0.12059 0.0758925 0.455184
-0.127616 0.0758053 0.446026
-0.134524 0.0757192 0.436894
-0.134287 0.0756879 0.428092
-0.141048 0.075603 0.419
-0.140779 0.0755721 0.41022
-0.147388 0.0754885 0.401168
-0.147085 0.0754579 0.39241
-0.153536 0.0753756 0.383396
-0.153198 0.0753453 0.374659
-0.156778 0.0752851 0.365784
-0.159112 0.0752345 0.356968
-0.162613 0.075175 0.348123
-0.162204 0.0751454 0.339426
-0.168239 0.0750666 0.33052
-0.167793 0.0750374 0.321844
-0.173651 0.0749601 0.312973
-0.173165 0.0749313 0.304318
-0.176423 0.0748739 0.295556
-0.178316 0.074827 0.286847
-0.181487 0.0747704 0.278113
-0.180924 0.0747423 0.269495
-0.18632 0.0746688 0.260724
-0.185715 0.0746411 0.252125
-0.188715 0.074586 0.243443
-0.188071 0.0745586 0.234861
-0.193177 0.0744875 0.226152
-0.192489 0.0744606 0.217588
-0.195312 0.0744069 0.208956
-0.194584 0.0743803 0.200409
-0.193842 0.0743538 0.191868
-0.198615 0.0742856 0.18323
-0.197828 0.0742595 0.174707
-0.200439 0.0742077 0.166132
-0.199609 0.074182 0.157624
-0.202131 0.0741309 0.149072
-0.201258 0.0741056 0.140579
-0.205614 0.0740407 0.132022
-0.204693 0.0740158 0.123547
-0.203759 0.0739911 0.115077
-0.206057 0.0739419 0.106578
-0.205077 0.0739175 0.098123
-0.207282 0.0738691 0.0896444
-0.206257 0.0738451 0.0812037
-0.208365 0.0737975 0.0727451
-0.207294 0.0737739 0.0643183
-0.206208 0.0737505 0.055897
-0.208188 0.073704 0.0474662
-0.207054 0.0736809 0.0390584
-0.208935 0.0736352 0.0306464
-0.207754 0.0736126 0.0222518
-0.211269 0.0735546 0.0138558
-0.210035 0.0735324 0.00547556
0.0552824 0.0909531 0.654071
0.0430627 0.0908025 0.644122
0.022478 0.0905764 0.633674
0.0102403 0.0904259 0.623793
-0.00196108 0.0902759 0.613943
-0.0102406 0.0901614 0.604362
-0.0223321 0.0900126 0.594576
-0.0305213 0.0898991 0.585049
-0.042439 0.0897521 0.575329
-0.0424103 0.0897129 0.566319
-0.0504601 0.089601 0.556864
-0.058448 0.0894897 0.547435
-0.0700151 0.0893463 0.537834
-0.069942 0.0893077 0.528882
-0.0777358 0.0891985 0.519526
-0.085449 0.08909 0.510196
-0.0888523 0.0890204 0.501106
-0.0929467 0.0889446 0.491995
-0.100466 0.0888382 0.482732
-0.103723 0.0887701 0.473695
-0.111071 0.0886653 0.464479
-0.110887 0.0886282 0.455631
-0.11811 0.0885247 0.446456
-0.125224 0.0884223 0.437306
-0.124989 0.0883858 0.428496
-0.131967 0.0882848 0.419386
-0.131701 0.0882486 0.410598
-0.138537 0.088149 0.401528
-0.138238 0.0881132 0.392762
-0.144926 0.0880151 0.383731
-0.144593 0.0879797 0.374987
-0.148188 0.0879093 0.366104
-0.150759 0.0878481 0.357271
-0.154277 0.0877785 0.348418
-0.157743 0.0877094 0.33958
-0.160167 0.0876496 0.330791
-0.160708 0.0876067 0.322076
-0.165854 0.0875229 0.313222
-0.165376 0.0874891 0.304559
-0.168654 0.087422 0.29579
-0.170812 0.0873649 0.287066
-0.174005 0.0872986 0.278325
-0.173451 0.0872657 0.2697
-0.179134 0.0871774 0.260915
-0.178539 0.0871449 0.25231
-0.181562 0.0870804 0.24362
-0.180928 0.0870483 0.235032
-0.186332 0.0869628 0.22631
-0.185654 0.0869312 0.21774
-0.188502 0.0868684 0.209101
-0.187784 0.0868372 0.200548
-0.192897 0.0867545 0.191886
-0.192135 0.0867238 0.183351
-0.191359 0.0866932 0.174822
-0.193995 0.0866325 0.166241
-0.193177 0.0866024 0.157728
-0.197956 0.0865229 0.149135
-0.197091 0.0864933 0.140639
-0.199539 0.0864345 0.132104
-0.19863 0.0864053 0.123623
-0.198774 0.0863668 0.115136
-0.200031 0.0863186 0.106644
-0.199063 0.08629 0.0981833
-0.201293 0.0862333 0.0896993
-0.200279 0.0862052 0.0812532
-0.204499 0.0861311 0.0727738
-0.203435 0.0861035 0.0643437
-0.202357 0.0860761 0.055919
-0.204353 0.0860216 0.0474848
-0.203228 0.0859946 0.0390736
-0.205125 0.0859412 0.0306583
-0.203951 0.0859147 0.0222605
-0.205748 0.0858621 0.0138636
-0.204526 0.0858361 0.00547864
0.05439 0.1038 0.626544
0.0421953 0.103628 0.616655
0.0176668 0.103329 0.60605
0.00542848 0.103158 0.59623
-0.00283752 0.103027 0.586673
-0.0150086 0.102856 0.576914
-0.0232078 0.102727 0.567411
-0.0352476 0.102558 0.557715
-0.043343 0.102429 0.548266
-0.0470973 0.102346 0.539075
-0.0551005 0.102219 0.529673
-0.0630416 0.102092 0.520295
-0.0709155 0.101966 0.510944
-0.0744961 0.101885 0.501832
-0.0822424 0.101761 0.492526
-0.0899077 0.101638 0.483247
-0.0897459 0.101595 0.474364
-0.0973076 0.101473 0.465125
-0.097119 0.10143 0.456265
-0.104571 0.10131 0.447068
-0.111926 0.10119 0.437895
-0.115106 0.101113 0.428925
-0.118922 0.10103 0.419941
-0.122013 0.100955 0.411001
-0.125761 0.100872 0.402048
-0.128757 0.100798 0.39314
-0.132434 0.100716 0.384218
-0.13533 0.100643 0.375339
-0.138934 0.100562 0.366447
-0.145641 0.10045 0.357457
-0.145253 0.10041 0.348737
-0.151809 0.1003 0.339785
-0.151386 0.10026 0.331086
-0.157784 0.100152 0.322171
-0.157324 0.100113 0.313494
-0.160642 0.100036 0.304706
-0.163061 0.0999677 0.295958
-0.166296 0.0998914 0.287198
-0.16576 0.0998536 0.278559
-0.165212 0.0998158 0.269926
-0.171164 0.0997122 0.261127
-0.170576 0.099675 0.252514
-0.173617 0.099601 0.243818
-0.175722 0.0995366 0.235156
-0.178674 0.0994636 0.226487
-0.178005 0.0994274 0.21791
-0.180871 0.0993554 0.209264
-0.182791 0.099293 0.20065
-0.185565 0.0992221 0.19203
-0.184811 0.0991869 0.183488
-0.18488 0.0991434 0.174937
-0.186701 0.0990823 0.166365
-0.188412 0.0990223 0.157804
-0.190973 0.0989538 0.149241
-0.190117 0.0989198 0.140739
-0.192586 0.0988523 0.132198
-0.191686 0.0988188 0.123711
-0.194062 0.0987524 0.115191
-0.193117 0.0987195 0.106719
-0.194557 0.0986625 0.0982284
-0.196801 0.0985976 0.0897404
-0.195793 0.0985654 0.0812904
-0.197941 0.0985015 0.0728226
-0.196887 0.0984698 0.0643867
-0.198936 0.098407 0.0559385
-0.197835 0.0983758 0.0475164
-0.196719 0.0983449 0.0390996
-0.198637 0.0982835 0.0306787
-0.197472 0.0982531 0.0222752
-0.19929 0.0981929 0.0138727
-0.198076 0.098163 0.00548225
0.041697 0.116422 0.589287
0.0254734 0.116183 0.579253
0.0049062 0.115893 0.56901
-0.0073128 0.115701 0.559279
-0.0155023 0.115555 0.549799
-0.0276329 0.115364 0.54013
-0.0314782 0.115269 0.530931
-0.03956 0.115125 0.521525
-0.0475928 0.114982 0.512144
-0.0555716 0.114839 0.502788
-0.0673236 0.114653 0.493267
-0.0671649 0.114605 0.484356
-0.0749725 0.114465 0.475071
-0.082707 0.114325 0.465811
-0.0862331 0.114235 0.456767
-0.0938294 0.114097 0.447553
-0.0936065 0.11405 0.438706
-0.101097 0.113914 0.429533
-0.108496 0.113779 0.420384
-0.108225 0.113732 0.411575
-0.115506 0.113599 0.402466
-0.115206 0.113553 0.393679
-0.122363 0.113421 0.38461
-0.122031 0.113376 0.375845
-0.129058 0.113246 0.366814
-0.135972 0.113117 0.357808
-0.135585 0.113072 0.34908
-0.142358 0.112945 0.340111
-0.141935 0.112901 0.331404
-0.14534 0.112813 0.322579
-0.148102 0.112733 0.313787
-0.151428 0.112646 0.304991
-0.150934 0.112602 0.296323
-0.157324 0.11248 0.28746
-0.156791 0.112438 0.278813
-0.16302 0.112318 0.269986
-0.162449 0.112276 0.261359
-0.161865 0.112234 0.252738
-0.164918 0.11215 0.244033
-0.167275 0.112075 0.235358
-0.17024 0.111993 0.226681
-0.169576 0.111952 0.218097
-0.172455 0.111871 0.209443
-0.174639 0.111797 0.200816
-0.177428 0.111717 0.192189
-0.176679 0.111678 0.18364
-0.17938 0.111599 0.175035
-0.181381 0.111528 0.166455
-0.180576 0.111489 0.15793
-0.183152 0.111412 0.14936
-0.182303 0.111373 0.140851
-0.184788 0.111297 0.132303
-0.183894 0.11126 0.123809
-0.18897 0.111154 0.115251
-0.18803 0.111117 0.106774
-0.187075 0.11108 0.0983034
-0.189336 0.111007 0.0898087
-0.188335 0.11097 0.0813523
-0.1905 0.110898 0.0728778
-0.189452 0.110863 0.0644355
-0.191519 0.110792 0.0559808
-0.190424 0.110757 0.0475523
-0.189314 0.110722 0.0391291
-0.191248 0.110652 0.0307018
-0.19009 0.110618 0.022292
-0.191923 0.11055 0.0138832
-0.190715 0.110516 0.00548637
0.0578755 0.129395 0.562927
0.0294023 0.128972 0.552272
0.0131109 0.128706 0.542336
0.000875572 0.128492 0.532654
-0.0113379 0.128279 0.523003
-0.0194626 0.128119 0.513592
-0.0315872 0.127907 0.504001
-0.0396299 0.127748 0.494643
-0.0476268 0.127589 0.485309
-0.0595252 0.127381 0.47581
-0.059324 0.127328 0.46691
-0.0671737 0.127171 0.457645
-0.0749584 0.127016 0.448405
-0.0785839 0.126914 0.439372
-0.0862459 0.126761 0.430177
-0.0859827 0.126709 0.421341
-0.0935478 0.126557 0.412186
-0.101028 0.126406 0.403055
-0.100718 0.126355 0.394256
-0.10809 0.126206 0.385165
-0.111406 0.126108 0.37625
-0.115006 0.126008 0.367337
-0.118239 0.125912 0.358451
-0.121768 0.125812 0.349568
-0.128796 0.125668 0.340579
-0.128371 0.125618 0.33186
-0.135265 0.125476 0.322908
-0.134805 0.125427 0.314211
-0.14156 0.125287 0.305296
-0.141064 0.125239 0.29662
-0.147673 0.125101 0.287742
-0.147141 0.125053 0.279086
-0.150309 0.124959 0.270335
-0.153028 0.12487 0.261609
-0.152445 0.124824 0.25298
-0.155503 0.124731 0.244267
-0.154881 0.124685 0.235655
-0.161069 0.124552 0.226893
-0.160406 0.124507 0.2183
-0.163294 0.124417 0.209639
-0.165724 0.124332 0.200999
-0.168522 0.124243 0.192363
-0.167777 0.124199 0.183806
-0.170486 0.124111 0.175194
-0.169698 0.124067 0.166653
-0.171944 0.123986 0.158069
-0.174531 0.1239 0.149491
-0.173685 0.123857 0.140975
-0.176181 0.123772 0.132419
-0.17529 0.12373 0.123918
-0.180645 0.123609 0.115349
-0.179709 0.123568 0.106865
-0.178758 0.123527 0.0983867
-0.181031 0.123445 0.0898847
-0.180035 0.123405 0.0814211
-0.182211 0.123324 0.0729394
-0.181167 0.123285 0.0644899
-0.183245 0.123206 0.0560281
-0.182154 0.123167 0.0475924
-0.181048 0.123128 0.0391621
-0.182993 0.12305 0.0307276
-0.181839 0.123012 0.0223107
-0.183683 0.122937 0.0138948
-0.182479 0.122899 0.00549097
0.0175377 0.141453 0.515496
0.00532218 0.141218 0.505867
-0.00689606 0.140984 0.496268
-0.019091 0.14075 0.4867
-0.0312366 0.140518 0.477165
-0.0392317 0.140343 0.467853
-0.0430728 0.140228 0.458756
-0.0509968 0.140055 0.449488
-0.0588689 0.139883 0.440245
-0.0626189 0.139769 0.431202
-0.0703934 0.139599 0.422003
-0.0781018 0.13943 0.412828
-0.0777943 0.139373 0.404001
-0.0854144 0.139205 0.394866
-0.0929577 0.139039 0.385755
-0.0964651 0.138929 0.376818
-0.100047 0.138818 0.367893
-0.103486 0.13871 0.358986
-0.110775 0.138547 0.349957
-0.110364 0.138493 0.341215
-0.117536 0.138332 0.332224
-0.117093 0.138278 0.323503
-0.124141 0.138119 0.31455
-0.123664 0.138066 0.305851
-0.130582 0.137909 0.296935
-0.133828 0.137804 0.288147
-0.13329 0.137752 0.279478
-0.136305 0.13765 0.270719
-0.139445 0.137547 0.26197
-0.138859 0.137495 0.253329
-0.145419 0.137344 0.244517
-0.144794 0.137294 0.235897
-0.147769 0.137193 0.227199
-0.15054 0.137095 0.218519
-0.153429 0.136995 0.209849
-0.152724 0.136946 0.201264
-0.158891 0.136801 0.192552
-0.158145 0.136753 0.183986
-0.160858 0.136656 0.175366
-0.16007 0.136608 0.166816
-0.159268 0.13656 0.158273
-0.16515 0.13642 0.149634
-0.164304 0.136373 0.141109
-0.166805 0.136279 0.132545
-0.165915 0.136233 0.124036
-0.168322 0.136141 0.115494
-0.170595 0.136051 0.106964
-0.169645 0.136006 0.098478
-0.171925 0.135916 0.0899681
-0.17093 0.135871 0.0814966
-0.173112 0.135783 0.073007
-0.17207 0.135739 0.0645497
-0.174154 0.135652 0.0560799
-0.173065 0.135609 0.0476364
-0.171959 0.135566 0.0391984
-0.173911 0.135481 0.030756
-0.172757 0.135439 0.0223314
-0.174607 0.135355 0.0139077
-0.173405 0.135314 0.00549605
0.0227936 0.154123 0.479751
0.00642237 0.153804 0.469998
-0.0057788 0.153549 0.460474
-0.0179686 0.153295 0.45098
-0.0301207 0.153041 0.441518
-0.0380467 0.152853 0.432268
-0.041902 0.152727 0.423214
-0.0497624 0.152539 0.414007
-0.0575735 0.152353 0.404825
-0.0653302 0.152168 0.395666
-0.0690654 0.152044 0.386685
-0.0767207 0.151861 0.377569
-0.0763379 0.151801 0.368774
-0.083907 0.151619 0.359696
-0.0914018 0.151438 0.350643
-0.0949467 0.151318 0.341747
-0.0983681 0.1512 0.332869
-0.101847 0.151081 0.324002
-0.109095 0.150905 0.31503
-0.108606 0.150847 0.306317
-0.115739 0.150673 0.297382
-0.115217 0.150615 0.28869
-0.122228 0.150443 0.279792
-0.121671 0.150387 0.271121
-0.1248 0.150274 0.262359
-0.127962 0.150161 0.253609
-0.131011 0.150049 0.244875
-0.130379 0.149994 0.236242
-0.13705 0.149828 0.227446
-0.13638 0.149773 0.218833
-0.142908 0.149609 0.210073
-0.142199 0.149555 0.201479
-0.144997 0.149448 0.192823
-0.144246 0.149395 0.184246
-0.15054 0.149235 0.175549
-0.149748 0.149183 0.166991
-0.148943 0.149131 0.158439
-0.151534 0.149027 0.149841
-0.150685 0.148976 0.141305
-0.156704 0.148821 0.132682
-0.155812 0.14877 0.124163
-0.158219 0.14867 0.115612
-0.157282 0.14862 0.107109
-0.15633 0.148571 0.0986114
-0.15861 0.148473 0.09009
-0.161063 0.148372 0.0815784
-0.163247 0.148275 0.0730803
-0.162203 0.148227 0.0646145
-0.164289 0.148132 0.0561362
-0.163197 0.148085 0.0476843
-0.162091 0.148038 0.0392377
-0.164043 0.147946 0.0307869
-0.162888 0.1479 0.0223538
-0.164739 0.147809 0.0139216
-0.163535 0.147763 0.00550157
0.0166449 0.166499 0.434642
0.000222111 0.166154 0.425004
-0.011949 0.165879 0.415581
-0.024106 0.165605 0.406187
-0.0362228 0.165332 0.396825
-0.0358301 0.165266 0.387979
-0.0478738 0.164994 0.378667
-0.0556143 0.164794 0.369544
-0.063303 0.164595 0.360444
-0.0670588 0.164461 0.351505
-0.0746517 0.164264 0.342447
-0.0741891 0.1642 0.333682
-0.0816979 0.164005 0.324662
-0.0891351 0.163811 0.315665
-0.0886238 0.163748 0.306936
-0.0959646 0.163556 0.297977
-0.099479 0.163427 0.28915
-0.10266 0.163303 0.280346
-0.106106 0.163176 0.271548
-0.109212 0.163054 0.262773
-0.112585 0.162927 0.254004
-0.115615 0.162807 0.245257
-0.11497 0.162747 0.23661
-0.121861 0.162563 0.227797
-0.12118 0.162504 0.21917
-0.127942 0.162323 0.210392
-0.127223 0.162264 0.201786
-0.130007 0.162149 0.193117
-0.133093 0.162028 0.184455
-0.132321 0.161971 0.175874
-0.134992 0.161857 0.167241
-0.134178 0.161801 0.158677
-0.140555 0.161626 0.150008
-0.1397 0.161571 0.141462
-0.142191 0.16146 0.132877
-0.141292 0.161406 0.124347
-0.143689 0.161297 0.115783
-0.146488 0.161182 0.107226
-0.145531 0.161128 0.0987196
-0.147805 0.161022 0.0901889
-0.146802 0.160969 0.0816966
-0.14898 0.160864 0.0731863
-0.14793 0.160813 0.0647082
-0.150009 0.16071 0.0562177
-0.148912 0.160659 0.0477535
-0.147799 0.160608 0.0392947
-0.153437 0.160447 0.0308201
-0.152277 0.160397 0.0223779
-0.154124 0.160299 0.0139367
-0.152915 0.16025 0.00550751
0.0118127 0.178752 0.380938
-0.0129041 0.178233 0.371131
-0.0167931 0.178086 0.362131
-0.0289048 0.177792 0.352855
-0.0409721 0.1775 0.343609
-0.0486405 0.177286 0.33454
-0.0524604 0.177141 0.325619
-0.0600548 0.176929 0.316592
-0.0675944 0.176718 0.307587
-0.0670408 0.176651 0.298847
-0.0745023 0.176442 0.289879
-0.078186 0.1763 0.281039
-0.0855366 0.176093 0.272113
-0.0849276 0.176027 0.263418
-0.0921831 0.175822 0.254528
-0.0915411 0.175758 0.245854
-0.0986951 0.175555 0.237
-0.0980191 0.175491 0.228347
-0.105065 0.17529 0.219528
-0.104354 0.175227 0.210895
-0.107166 0.175101 0.202195
-0.110537 0.174966 0.193498
-0.113269 0.174842 0.184825
-0.11248 0.174781 0.176228
-0.119213 0.174586 0.167509
-0.118385 0.174526 0.158931
-0.120944 0.174405 0.150307
-0.12412 0.174274 0.141686
-0.126593 0.174156 0.133088
-0.125681 0.174097 0.124543
-0.128061 0.17398 0.115966
-0.131111 0.173851 0.107394
-0.130143 0.173794 0.0988737
-0.132402 0.173679 0.0903299
-0.131388 0.173622 0.0818244
-0.13355 0.17351 0.0733009
-0.132489 0.173454 0.0648096
-0.134552 0.173343 0.056306
-0.137415 0.173219 0.0478092
-0.136294 0.173164 0.0393406
-0.13823 0.173056 0.0308677
-0.137061 0.173003 0.0224125
-0.138895 0.172896 0.0139582
-0.137677 0.172844 0.00551603
-0.0077258 0.190565 0.318258
-0.0242629 0.190167 0.308929
-0.028124 0.190011 0.300018
-0.0356836 0.189784 0.291013
-0.0476684 0.189474 0.281904
-0.0470278 0.189404 0.27317
-0.0589252 0.189095 0.264109
-0.0663195 0.188873 0.255192
-0.0656388 0.188804 0.246497
-0.0729547 0.188583 0.237616
-0.072242 0.188515 0.228941
-0.0794728 0.188296 0.220096
-0.0831009 0.188146 0.211348
-0.0858663 0.188013 0.202631
-0.0894385 0.187864 0.193911
-0.0921274 0.187732 0.18522
-0.0913116 0.187666 0.176605
-0.0982484 0.187454 0.167864
-0.097396 0.187389 0.159268
-0.104222 0.187179 0.150561
-0.103332 0.187115 0.141984
-0.105769 0.186989 0.133368
-0.104834 0.186926 0.124806
-0.108167 0.186783 0.1162
-0.110489 0.186659 0.107618
-0.1095 0.186597 0.0990805
-0.111727 0.186475 0.0905192
-0.114947 0.186334 0.0819608
