ply
format ascii 1.0
comment Created by Open3D
element vertex 1705
property double x
property double y
property double z
end_header
-0.212549 0.0247587 0.208589
-0.211628 0.0247503 0.20006
-0.213977 0.0247337 0.191474
-0.213019 0.0247255 0.182961
-0.21529 0.0247091 0.174395
-0.213964 0.0247018 0.165902
-0.216143 0.0246856 0.157358
-0.215104 0.0246776 0.148874
-0.217203 0.0246617 0.140351
-0.216126 0.0246538 0.131881
-0.218145 0.0246381 0.123377
-0.21703 0.0246303 0.114921
-0.218968 0.0246148 0.106438
-0.217814 0.0246071 0.0979955
-0.219669 0.0245919 0.089531
-0.218475 0.0245843 0.0811024
-0.220248 0.0245693 0.0726568
-0.221963 0.0245545 0.064222
-0.220703 0.0245471 0.0558143
-0.222334 0.0245325 0.0473976
-0.221032 0.0245252 0.0390026
-0.222578 0.0245109 0.0306037
-0.221235 0.0245037 0.0222212
-0.222695 0.0244896 0.0138396
-0.221311 0.0244826 0.00546925
0.305919 0.0408351 1.14105
0.271198 0.0406791 1.12742
0.238979 0.0405332 1.11414
0.222604 0.0404502 1.10265
0.198201 0.0403354 1.09033
0.184824 0.0402644 1.07923
0.16846 0.0401816 1.06786
0.152152 0.0400991 1.05653
0.143829 0.0400482 1.04607
0.127655 0.0399664 1.03483
0.119417 0.0399159 1.02443
0.106292 0.0398463 1.01356
0.0981421 0.0397963 1.00322
0.0900375 0.0397465 0.992913
0.0743427 0.0396668 0.981887
0.0663924 0.0396178 0.971647
0.0611778 0.0395795 0.961691
0.0533089 0.0395308 0.951503
0.0455062 0.0394825 0.941344
0.0377735 0.0394344 0.931214
0.0301148 0.0393867 0.921114
0.0225338 0.0393393 0.911044
0.0174565 0.0393018 0.901222
0.00998389 0.039255 0.891205
0.00259775 0.0392085 0.881217
-0.00469823 0.0391624 0.871259
-0.0119004 0.0391167 0.861332
-0.0168379 0.03908 0.851619
-0.0239108 0.0390349 0.841743
-0.0308818 0.0389902 0.831898
-0.0357272 0.0389539 0.822249
-0.0405448 0.0389178 0.812619
-0.0427379 0.0388919 0.803218
-0.0494433 0.0388484 0.79347
-0.0560348 0.0388054 0.783751
-0.0607315 0.0387698 0.774201
-0.0653983 0.0387344 0.764669
-0.0672805 0.0387099 0.755366
-0.0735775 0.0386682 0.745743
-0.0781518 0.0386332 0.736267
-0.0842825 0.0385922 0.726694
-0.0843401 0.0385749 0.71758
-0.0903228 0.0385346 0.70805
-0.0947668 0.0385002 0.698648
-0.0991777 0.0384661 0.689265
-0.100571 0.0384436 0.680105
-0.10622 0.0384047 0.670667
-0.110526 0.038371 0.661337
-0.113522 0.0383425 0.652109
-0.115924 0.0383162 0.642934
-0.121223 0.0382788 0.633585
-0.123142 0.0382544 0.624467
-0.125272 0.0382293 0.615348
-0.130353 0.0381928 0.606059
-0.13345 0.038164 0.596908
-0.134253 0.0381441 0.587906
-0.13911 0.0381085 0.578676
-0.138921 0.0380925 0.569755
-0.1436 0.0380577 0.560564
-0.147483 0.038026 0.551433
-0.147245 0.0380102 0.542545
-0.151689 0.0379763 0.53341
-0.154857 0.0379474 0.52436
-0.155172 0.0379296 0.515472
-0.159377 0.0378967 0.506392
-0.161987 0.0378701 0.497408
-0.162693 0.0378508 0.488531
-0.166291 0.0378203 0.479522
-0.166276 0.0378038 0.470701
-0.169798 0.0377738 0.461721
-0.172952 0.0377451 0.452771
-0.173074 0.0377281 0.443973
-0.176476 0.0376986 0.435037
-0.176015 0.0376839 0.426282
-0.179441 0.0376543 0.417369
-0.182475 0.0376262 0.408486
-0.1822 0.0376109 0.39975
-0.185414 0.0375822 0.390883
-0.184864 0.0375679 0.382176
-0.188011 0.0375395 0.373335
-0.191097 0.0375113 0.364509
-0.190509 0.0374972 0.35583
-0.193542 0.0374693 0.347029
-0.192908 0.0374554 0.338367
-0.195872 0.0374278 0.329591
-0.195205 0.0374141 0.320946
-0.197947 0.0373874 0.3122
-0.19724 0.0373739 0.303572
-0.200049 0.0373469 0.294845
-0.202808 0.0373202 0.286132
-0.202045 0.0373069 0.277531
-0.204419 0.0372817 0.26885
-0.203614 0.0372686 0.260265
-0.206213 0.0372426 0.251599
-0.205374 0.0372297 0.24303
-0.207899 0.037204 0.234386
-0.207024 0.0371912 0.225833
-0.209474 0.0371658 0.217212
-0.208564 0.0371532 0.208674
-0.210433 0.0371301 0.200085
-0.21274 0.0371053 0.191498
-0.211762 0.037093 0.182984
-0.213992 0.0370685 0.174418
-0.212977 0.0370564 0.165919
-0.215128 0.0370322 0.157375
-0.214076 0.0370203 0.14889
-0.216148 0.0369965 0.140366
-0.215058 0.0369847 0.131895
-0.21705 0.0369612 0.123391
-0.215921 0.0369496 0.114934
-0.217101 0.0369293 0.106458
-0.215926 0.0369178 0.0980144
-0.217742 0.0368951 0.0895487
-0.216528 0.0368838 0.0811185
-0.218262 0.0368615 0.0726716
-0.217008 0.0368504 0.0642545
-0.218658 0.0368284 0.0558259
-0.217365 0.0368174 0.0474217
-0.218931 0.0367958 0.039011
-0.217597 0.036785 0.0306193
-0.219077 0.0367637 0.0222261
-0.2205 0.0367426 0.0138427
-0.219097 0.0367322 0.00547049
0.310861 0.0545221 1.16126
0.278984 0.054329 1.14786
0.246773 0.0541343 1.1345
0.230399 0.0540234 1.12294
0.206009 0.0538703 1.11056
0.18963 0.0537596 1.09909
0.173293 0.0536492 1.08767
0.164941 0.053581 1.07713
0.148717 0.0534714 1.06579
0.135468 0.0533776 1.0548
0.12723 0.0533102 1.04436
0.11903 0.0532431 1.03395
0.103151 0.0531357 1.02278
0.0950812 0.0530694 1.01244
0.0870648 0.0530035 1.00212
0.0742089 0.0529122 0.991355
0.0663228 0.052847 0.981105
0.058502 0.0527823 0.970885
0.0507504 0.052718 0.960694
0.045559 0.0526672 0.950769
0.0379041 0.0526035 0.940631
0.0303273 0.0525402 0.930523
0.0228324 0.0524775 0.920446
0.015423 0.0524152 0.910398
0.0103564 0.0523653 0.900584
0.00306502 0.0523038 0.890589
-0.00413235 0.0522428 0.880624
-0.0112321 0.0521824 0.87069
-0.0161837 0.0521333 0.860962
-0.0231498 0.0520737 0.85108
-0.0300103 0.0520147 0.841229
-0.0329085 0.0519764 0.831729
-0.0377472 0.051928 0.822082
-0.04177 0.051884 0.812519
-0.0483569 0.0518266 0.802765
-0.0548265 0.0517698 0.793041
-0.0595349 0.0517223 0.783476
-0.0625091 0.0516839 0.774062
-0.0659626 0.051643 0.764626
-0.0721303 0.051588 0.754997
-0.0767158 0.0515413 0.745507
-0.0812702 0.0514948 0.736036
-0.0827753 0.0514641 0.726804
-0.0886219 0.051411 0.71727
-0.0930766 0.0513651 0.707853
-0.0961729 0.0513264 0.698549
-0.0987452 0.0512903 0.689295
-0.104252 0.0512391 0.679852
-0.107436 0.0512 0.670584
-0.10957 0.0511663 0.661401
-0.113824 0.0511217 0.65209
-0.118043 0.0510773 0.642796
-0.118883 0.0510504 0.633735
-0.123038 0.0510065 0.624474
-0.127967 0.0509585 0.61518
-0.12783 0.0509368 0.606214
-0.132584 0.0508898 0.59696
-0.136584 0.0508468 0.587767
-0.1364 0.0508253 0.578835
-0.140922 0.0507797 0.569639
-0.144253 0.0507402 0.560526
-0.144581 0.0507162 0.551596
-0.148867 0.0506719 0.542456
-0.152216 0.0506324 0.533382
-0.152365 0.0506094 0.524492
-0.156408 0.0505664 0.515407
-0.156089 0.0505459 0.506561
-0.15974 0.050505 0.497522
-0.16335 0.0504643 0.488499
-0.163163 0.0504432 0.479675
-0.166698 0.050403 0.470681
-0.170042 0.0503638 0.461709
-0.169813 0.0503429 0.452916
-0.173228 0.0503034 0.443966
-0.172771 0.0502838 0.435201
-0.176123 0.0502446 0.426277
-0.17943 0.0502058 0.417369
-0.178924 0.0501865 0.408633
-0.182167 0.050148 0.399752
-0.181631 0.0501289 0.391034
-0.184808 0.0500908 0.382178
-0.184078 0.0500727 0.373484
-0.187173 0.0500351 0.364655
-0.190222 0.0499978 0.35584
-0.189595 0.0499792 0.347168
-0.192258 0.0499439 0.338389
-0.191591 0.0499256 0.329735
-0.194488 0.0498891 0.32097
-0.197337 0.049853 0.312219
-0.196614 0.049835 0.303591
-0.198911 0.0498017 0.294879
-0.198148 0.0497839 0.286268
-0.200839 0.0497487 0.277565
-0.200042 0.0497312 0.26897
-0.202661 0.0496963 0.26029
-0.205231 0.0496618 0.251624
-0.204376 0.0496446 0.243054
-0.206201 0.0496139 0.234427
-0.205303 0.049597 0.225872
-0.207709 0.0495633 0.217251
-0.206776 0.0495466 0.208712
-0.209106 0.0495134 0.200112
-0.208137 0.049497 0.191588
-0.21039 0.0494642 0.18301
-0.209385 0.0494479 0.174501
-0.210693 0.04942 0.165958
-0.212801 0.0493881 0.157412
-0.211726 0.0493722 0.148926
-0.213755 0.0493407 0.1404
-0.212643 0.0493251 0.131928
-0.214592 0.049294 0.123422
-0.213442 0.0492786 0.114963
-0.215311 0.049248 0.106477
-0.214122 0.0492328 0.0980324
-0.21591 0.0492027 0.0895655
-0.214682 0.0491877 0.0811338
-0.216387 0.0491581 0.0726855
-0.21512 0.0491433 0.0642669
-0.216742 0.0491141 0.0558369
-0.215435 0.0490996 0.047431
-0.216974 0.0490708 0.0390188
-0.215626 0.0490566 0.0306255
-0.21708 0.0490283 0.0222306
-0.218476 0.0490003 0.0138456
-0.21706 0.0489865 0.00547163
0.323759 0.0682996 1.18243
0.283969 0.0680056 1.16805
0.259702 0.0678144 1.15549
0.235343 0.0676229 1.14299
0.218952 0.0674841 1.13142
0.202576 0.0673456 1.11989
0.189164 0.0672267 1.10872
0.17287 0.067089 1.09728
0.15666 0.0669519 1.08589
0.148383 0.0668672 1.07537
0.135155 0.06675 1.06436
0.126957 0.066666 1.05391
0.118801 0.0665823 1.04349
0.103032 0.0664487 1.03231
0.0950194 0.0663662 1.02196
0.0870641 0.0662841 1.01163
0.07917 0.0662025 1.00134
0.0664479 0.0660892 0.990591
0.0587015 0.0660088 0.980362
0.0510285 0.0659288 0.970164
0.0434326 0.0658495 0.959995
0.03825 0.065786 0.950077
0.0307607 0.0657075 0.939962
0.0233573 0.0656296 0.929877
0.0160432 0.0655524 0.919822
0.0109639 0.0654899 0.909993
0.00377245 0.0654136 0.899991
-0.00332122 0.065338 0.89002
-0.0103137 0.0652632 0.88008
-0.0152762 0.0652016 0.870337
-0.0202135 0.0651403 0.860615
-0.025125 0.0650792 0.850912
-0.0290915 0.0650243 0.841306
-0.0357089 0.0649522 0.831495
-0.0405299 0.0648919 0.821852
-0.0469939 0.0648209 0.812093
-0.0517498 0.0647611 0.802491
-0.0564772 0.0647016 0.792909
-0.0596907 0.0646519 0.783463
-0.0643553 0.0645928 0.773918
-0.0703901 0.0645249 0.764285
-0.0735955 0.0644755 0.754886
-0.0781701 0.0644172 0.745398
-0.0809092 0.0643708 0.736063
-0.0866163 0.0643053 0.726523
-0.0898905 0.0642555 0.717178
-0.0922039 0.0642121 0.707916
-0.0966068 0.0641551 0.698518
-0.100977 0.0640984 0.68914
-0.105314 0.064042 0.679779
-0.107141 0.0640019 0.670604
-0.111402 0.063946 0.661278
-0.114769 0.063896 0.652027
-0.116312 0.0638578 0.642909
-0.121138 0.0637985 0.633591
-0.1246 0.063748 0.624375
-0.125115 0.0637166 0.615358
-0.129713 0.0636588 0.606099
-0.133197 0.0636083 0.596923
-0.133538 0.0635781 0.587949
-0.137902 0.063522 0.578747
-0.141408 0.0634715 0.569611
-0.141867 0.0634406 0.560662
-0.145697 0.0633881 0.551533
-0.149224 0.0633375 0.542436
-0.149369 0.0633088 0.533536
-0.153086 0.0632571 0.524454
-0.15277 0.0632314 0.515597
-0.156459 0.06318 0.506542
-0.160049 0.0631292 0.497506
-0.159691 0.0631039 0.48868
-0.163247 0.0630534 0.479671
-0.166765 0.0630033 0.470677
-0.16632 0.0629785 0.461884
-0.169761 0.062929 0.452919
-0.169316 0.0629043 0.444142
-0.172695 0.0628552 0.435204
-0.17584 0.0628076 0.426289
-0.175338 0.0627834 0.417543
-0.178594 0.0627352 0.408647
-0.178062 0.0627112 0.399919
-0.180915 0.0626656 0.391062
-0.184045 0.0626184 0.382208
-0.183453 0.0625948 0.373508
-0.186517 0.062548 0.364679
-0.185408 0.0625279 0.356015
-0.188388 0.0624817 0.347211
-0.191321 0.0624358 0.338422
-0.190637 0.062413 0.329767
-0.193501 0.0623677 0.321002
-0.192132 0.0623493 0.312385
-0.194911 0.0623046 0.303644
-0.194153 0.0622823 0.295022
-0.196861 0.0622381 0.286306
-0.199521 0.0621942 0.277602
-0.198707 0.0621724 0.269007
-0.200457 0.0621344 0.260349
-0.199601 0.0621129 0.251769
-0.2021 0.0620702 0.243111
-0.201209 0.062049 0.234546
-0.203634 0.0620068 0.225911
-0.206008 0.0619649 0.217289
-0.205059 0.0619442 0.208748
-0.206326 0.0619094 0.200169
-0.205333 0.0618889 0.191643
-0.20754 0.0618483 0.183063
-0.206511 0.0618281 0.174552
-0.20864 0.061788 0.165993
-0.207574 0.0617681 0.157496
-0.209626 0.0617285 0.148958
-0.208524 0.0617089 0.140475
-0.210497 0.0616699 0.131957
-0.212416 0.0616312 0.123449
-0.209994 0.06162 0.115004
-0.211818 0.061582 0.106515
-0.210606 0.0615632 0.0980677
-0.212349 0.0615257 0.089598
-0.211098 0.0615072 0.0811635
-0.212759 0.0614703 0.0727125
-0.211469 0.0614521 0.0642909
-0.213048 0.0614158 0.055858
-0.211719 0.0613978 0.0474491
-0.213214 0.0613621 0.0390338
-0.211845 0.0613444 0.0306373
-0.213256 0.0613093 0.0222393
-0.214611 0.0612746 0.013851
-0.213173 0.0612574 0.00547381
0.328955 0.0820749 1.2028
0.297018 0.0817842 1.18922
0.272763 0.0815546 1.17659
0.248418 0.0813246 1.16401
0.232032 0.0811579 1.15238
0.218568 0.0810145 1.14111
0.202221 0.0808484 1.12956
0.185933 0.0806829 1.11806
0.169729 0.0805182 1.10661
0.161447 0.0804164 1.09605
0.148189 0.0802753 1.08498
0.132252 0.0801131 1.07366
0.124132 0.0800129 1.06321
0.116061 0.0799131 1.05278
0.103085 0.0797747 1.04187
0.0951349 0.0796761 1.0315
0.0872468 0.0795781 1.02117
0.0794241 0.0794806 1.01087
0.0716706 0.0793839 1.00059
0.0615031 0.0792681 0.990105
0.0515144 0.0791539 0.979662
0.0440066 0.0790593 0.969486
0.0388126 0.078983 0.959553
0.0314162 0.0788895 0.949431
0.0241094 0.0787967 0.939339
0.0168959 0.0787048 0.929277
0.00977905 0.0786137 0.919247
0.00472048 0.0785389 0.909425
-0.000314828 0.0784642 0.899624
-0.00726799 0.0783747 0.889669
-0.0122471 0.0783006 0.879909
-0.0172015 0.0782269 0.87017
-0.0228066 0.0781481 0.860391
-0.0276969 0.0780749 0.850693
-0.0341912 0.0779893 0.840876
-0.0390186 0.0779168 0.831219
-0.0438191 0.0778446 0.821581
-0.0485923 0.0777726 0.811963
-0.0517212 0.0777136 0.802494
-0.0577908 0.0776316 0.792805
-0.0624605 0.0775607 0.783245
-0.0671013 0.07749 0.773705
-0.0684563 0.077445 0.764434
-0.0742018 0.0773658 0.75484
-0.0787441 0.0772961 0.745355
-0.0832558 0.0772267 0.735888
-0.084348 0.077184 0.726689
-0.0897517 0.0771077 0.717188
-0.0941589 0.0770393 0.707776
-0.0976119 0.0769783 0.698448
-0.0993498 0.0769308 0.689253
-0.104395 0.0768576 0.679842
-0.107943 0.076796 0.67055
-0.109217 0.0767522 0.661425
-0.113418 0.0766857 0.652116
-0.117584 0.0766195 0.642826
-0.11797 0.0765827 0.633794
-0.12207 0.0765172 0.624535
-0.126134 0.076452 0.615294
-0.126345 0.0764166 0.606305
-0.130603 0.07635 0.59708
-0.1343 0.0762878 0.587904
-0.134332 0.076254 0.578957
-0.13835 0.0761894 0.569788
-0.142072 0.0761271 0.560651
-0.14192 0.0760948 0.551745
-0.145699 0.0760323 0.54263
-0.149439 0.07597 0.533532
-0.149132 0.075939 0.524664
-0.152815 0.0758773 0.515595
-0.152482 0.0758466 0.506747
-0.156034 0.075786 0.497709
-0.159601 0.0757253 0.488685
-0.159214 0.0756951 0.479867
-0.162511 0.0756366 0.470881
-0.16596 0.075577 0.461901
-0.165517 0.0755474 0.453114
-0.168555 0.075491 0.444177
-0.171883 0.0754324 0.43524
-0.171384 0.0754033 0.426483
-0.174649 0.0753453 0.417572
-0.173621 0.0753203 0.408854
-0.176805 0.0752631 0.39997
-0.179945 0.0752062 0.391101
-0.179358 0.0751779 0.38239
-0.181773 0.0751267 0.373572
-0.181146 0.0750987 0.364879
-0.184137 0.0750432 0.356061
-0.187083 0.074988 0.347257
-0.185593 0.0749667 0.338619
-0.188452 0.0749123 0.32984
-0.187732 0.0748852 0.321191
-0.190524 0.0748314 0.312436
-0.193268 0.074778 0.303695
-0.191512 0.0747589 0.295102
-0.194169 0.0747062 0.286384
-0.193352 0.0746801 0.277777
-0.195938 0.074628 0.269083
-0.195088 0.0746021 0.260491
-0.197602 0.0745507 0.25182
-0.196718 0.0745251 0.243244
-0.197981 0.0744833 0.234624
-0.200355 0.074433 0.225987
-0.199404 0.0744081 0.217435
-0.201704 0.0743584 0.20882
-0.200718 0.0743338 0.200283
-0.202943 0.0742848 0.19169
-0.205116 0.0742363 0.183108
-0.202695 0.0742226 0.17462
-0.204775 0.0741748 0.166058
-0.203684 0.0741511 0.157559
-0.205687 0.074104 0.149017
-0.20456 0.0740806 0.140532
-0.206485 0.0740342 0.132011
-0.205319 0.0740111 0.123539
-0.207166 0.0739653 0.115037
-0.208958 0.07392 0.106547
-0.207729 0.0738975 0.0980965
-0.209441 0.0738528 0.0896247
-0.208174 0.0738307 0.0811878
-0.209804 0.0737867 0.0727344
-0.208498 0.0737649 0.0643104
-0.210047 0.0737216 0.0558751
-0.208701 0.0737001 0.0474637
-0.210167 0.0736575 0.039046
-0.208781 0.0736364 0.0306469
-0.210163 0.0735944 0.0222464
-0.208738 0.0735737 0.0138594
-0.210035 0.0735324 0.00547556
0.349923 0.0960354 1.22508
0.310186 0.0956234 1.21049
0.288818 0.095382 1.19812
0.264503 0.0951136 1.18546
0.248123 0.0949188 1.17377
0.2238 0.0946508 1.16121
0.21541 0.0945304 1.15051
0.199129 0.0943371 1.13894
0.185739 0.0941707 1.12774
0.169608 0.0939792 1.11627
0.161364 0.0938606 1.1057
0.148137 0.0936962 1.09461
0.139981 0.0935787 1.0841
0.124242 0.0933914 1.07282
0.11623 0.0932755 1.06238
0.108276 0.0931602 1.05197
0.0954297 0.093 1.04108
0.0876146 0.0928862 1.03074
0.0798689 0.0927732 1.02042
0.0721967 0.0926609 1.01014
0.0646015 0.0925495 0.999891
0.0593364 0.0924596 0.989892
0.0518468 0.0923493 0.979694
0.0417721 0.0922154 0.96927
0.0344106 0.0921065 0.959133
0.0292494 0.0920179 0.949226
0.0220071 0.0919103 0.939142
0.0176722 0.0918294 0.929349
0.0106773 0.0917242 0.919329
0.0037866 0.0916201 0.90934
-0.00123588 0.0915332 0.899541
-0.00798542 0.0914305 0.889605
-0.0146231 0.091329 0.8797
-0.0211457 0.0912286 0.869826
-0.0260394 0.0911432 0.860112
-0.0309077 0.0910581 0.850419
-0.0326039 0.091002 0.84101
-0.0388321 0.0909046 0.831234
-0.0449346 0.0908085 0.821489
-0.0496753 0.0907248 0.811874
-0.0543886 0.0906415 0.802279
-0.0590739 0.0905585 0.792702
-0.0615186 0.090496 0.783319
-0.0661357 0.0904138 0.77378
-0.0707237 0.0903319 0.764259
-0.0752822 0.0902503 0.754757
-0.0772545 0.0901924 0.745467
-0.0817404 0.0901116 0.736001
-0.0861956 0.0900312 0.726554
-0.0906197 0.0899511 0.717125
-0.0920971 0.0898979 0.707923
-0.0964444 0.0898187 0.69853
-0.100759 0.0897398 0.689155
-0.101285 0.0896953 0.680056
-0.106004 0.0896129 0.670681
-0.109755 0.0895394 0.661389
-0.113939 0.0894619 0.652082
-0.1146 0.0894165 0.64302
-0.118701 0.0893399 0.633747
-0.122463 0.0892665 0.62451
-0.122816 0.0892239 0.615501
-0.126814 0.0891485 0.606277
-0.126715 0.0891101 0.597315
-0.130643 0.0890354 0.588121
-0.134535 0.0889612 0.578945
-0.134296 0.0889242 0.570022
-0.138133 0.0888505 0.560875
-0.141933 0.0887772 0.551744
-0.141564 0.0887415 0.542858
-0.14529 0.088669 0.533757
-0.148978 0.0885969 0.524673
-0.148419 0.0885631 0.515825
-0.152031 0.0884917 0.50677
-0.155604 0.0884209 0.497731
-0.154853 0.0883888 0.488921
-0.158348 0.0883188 0.47991
-0.161803 0.0882491 0.470915
-0.160856 0.0882189 0.462141
-0.164233 0.0881501 0.453173
-0.163754 0.0881158 0.444394
-0.167069 0.0880476 0.435453
-0.169676 0.0879858 0.426557
-0.16914 0.0879522 0.417806
-0.172331 0.0878853 0.408908
-0.171766 0.087852 0.400175
-0.174076 0.087793 0.391335
-0.177141 0.0877273 0.382477
-0.176516 0.0876947 0.373772
-0.179516 0.0876297 0.364939
-0.177889 0.0876061 0.356287
-0.180805 0.087542 0.347479
-0.183674 0.0874783 0.338686
-0.182957 0.0874466 0.330025
-0.184625 0.0873938 0.321293
-0.183867 0.0873626 0.312648
-0.186582 0.0873005 0.303902
-0.18925 0.0872388 0.29517
-0.188438 0.0872082 0.286552
-0.189728 0.0871589 0.27788
-0.188873 0.0871287 0.269277
-0.191382 0.0870687 0.26059
-0.193843 0.0870092 0.251916
-0.192932 0.0869796 0.243338
-0.19532 0.0869207 0.234687
-0.194375 0.0868915 0.226124
-0.195182 0.0868468 0.217529
-0.194192 0.086818 0.20898
-0.196416 0.0867608 0.200371
-0.198588 0.0867042 0.191775
-0.19754 0.086676 0.18325
-0.199637 0.0866201 0.174674
-0.198553 0.0865923 0.166164
-0.200574 0.0865371 0.157609
-0.202543 0.0864824 0.149065
-0.199664 0.0864706 0.140602
-0.201538 0.0864168 0.132077
-0.200346 0.0863901 0.123602
-0.202142 0.0863372 0.115096
-0.200913 0.0863109 0.106634
-0.20263 0.0862586 0.0981476
-0.201363 0.0862327 0.0896986
-0.203 0.0861813 0.0812307
-0.204582 0.0861304 0.0727732
-0.20325 0.0861051 0.0643449
-0.204751 0.086055 0.0559053
-0.20338 0.0860302 0.0474895
-0.204799 0.0859809 0.0390674
-0.203389 0.0859564 0.0306638
-0.204724 0.0859079 0.0222587
-0.203274 0.0858838 0.0138671
-0.204526 0.0858361 0.00547864
0.396726 0.110351 1.25059
0.339252 0.109691 1.23375
0.310019 0.109332 1.22036
0.277785 0.10894 1.20669
0.261414 0.108718 1.19493
0.24505 0.108495 1.18322
0.228719 0.108273 1.17155
0.215259 0.108082 1.16024
0.199036 0.107862 1.14866
0.182913 0.107642 1.13713
0.169618 0.107453 1.12596
0.161418 0.107318 1.11537
0.145596 0.107103 1.10398
0.137528 0.106969 1.09347
0.129515 0.106837 1.08298
0.116568 0.106652 1.072
0.108684 0.106521 1.06158
0.100865 0.106391 1.0512
0.0931153 0.106261 1.04084
0.0805059 0.106081 1.03001
0.0729202 0.105953 1.01972
0.0654155 0.105827 1.00946
0.0579955 0.105701 0.999234
0.0527497 0.105599 0.989243
0.0454446 0.105475 0.97907
0.0382325 0.105352 0.968928
0.0311168 0.10523 0.958818
0.025975 0.105129 0.948916
0.0189897 0.105009 0.938859
0.0121086 0.10489 0.928833
0.00533517 0.104772 0.918839
0.000310777 0.104672 0.909024
-0.00469073 0.104573 0.89923
-0.0112843 0.104458 0.889311
-0.0162272 0.104359 0.879559
-0.0194493 0.104279 0.869974
-0.0257072 0.104167 0.860141
-0.0305527 0.10407 0.850449
-0.036647 0.10396 0.840669
-0.0414275 0.103864 0.831018
-0.0427692 0.103804 0.821668
-0.0485856 0.103697 0.811963
-0.0532723 0.103602 0.802369
-0.0579315 0.103507 0.792793
-0.0625626 0.103413 0.783237
-0.0671651 0.103319 0.7737
-0.0690552 0.103254 0.764388
-0.0743513 0.103153 0.754828
-0.078086 0.103068 0.745404
-0.0825564 0.102976 0.73594
-0.0839508 0.102916 0.726718
-0.0883446 0.102825 0.71729
-0.0927072 0.102734 0.70788
-0.0936339 0.102679 0.698728
-0.0979165 0.102589 0.689353
-0.102167 0.1025 0.679995
-0.102395 0.102452 0.670926
-0.106779 0.102361 0.661588
-0.110732 0.102275 0.652293
-0.11485 0.102188 0.643004
-0.114934 0.102142 0.633988
-0.118966 0.102055 0.624731
-0.122934 0.101969 0.615494
-0.122771 0.101926 0.606525
-0.126717 0.10184 0.597315
-0.130626 0.101755 0.588122
-0.130279 0.101714 0.579195
-0.134117 0.101629 0.570032
-0.133852 0.101587 0.561118
-0.137383 0.101506 0.551999
-0.14111 0.101424 0.542883
-0.140794 0.101382 0.534
-0.144073 0.101304 0.524934
-0.147688 0.101222 0.515863
-0.147319 0.101182 0.507012
-0.150342 0.101106 0.497997
-0.15384 0.101026 0.488971
-0.153418 0.100986 0.48015
-0.156181 0.100914 0.471184
-0.159561 0.100835 0.462201
-0.159082 0.100796 0.453411
-0.161583 0.100726 0.444492
-0.161067 0.100687 0.435719
-0.164305 0.10061 0.42679
-0.166539 0.100543 0.417917
-0.165965 0.100505 0.409173
-0.169079 0.10043 0.400285
-0.17215 0.100355 0.391411
-0.170409 0.100329 0.382739
-0.173396 0.100254 0.373891
-0.172733 0.100217 0.365191
-0.175655 0.100144 0.356368
-0.17725 0.100084 0.347605
-0.176525 0.100048 0.338932
-0.179317 0.0999761 0.330147
-0.178561 0.0999403 0.321491
-0.181284 0.0998692 0.31273
-0.182505 0.0998134 0.304028
-0.181686 0.0997784 0.295398
-0.184275 0.0997088 0.286673
-0.183423 0.0996742 0.278058
-0.185943 0.0996054 0.269357
-0.186784 0.0995537 0.260712
-0.185866 0.0995199 0.252121
-0.188248 0.0994527 0.243455
-0.187297 0.0994193 0.234879
-0.189606 0.0993529 0.226234
-0.191866 0.099287 0.217602
-0.190858 0.0992543 0.209051
-0.191211 0.0992079 0.200478
-0.190158 0.0991757 0.19194
-0.192252 0.0991117 0.183349
-0.194295 0.0990483 0.17477
-0.193183 0.0990168 0.166255
-0.19515 0.0989543 0.157696
-0.194002 0.0989232 0.149195
-0.195893 0.0988615 0.140656
-0.197732 0.0988004 0.132129
-0.196522 0.0987701 0.12365
-0.198283 0.0987099 0.115142
-0.194946 0.098701 0.106699
-0.196611 0.0986419 0.0982079
-0.195317 0.0986125 0.089754
-0.196902 0.0985542 0.0812812
-0.198433 0.0984965 0.0728189
-0.197075 0.0984679 0.0643854
-0.198526 0.0984111 0.0559408
-0.197129 0.0983829 0.0475198
-0.198498 0.098327 0.0390925
-0.197062 0.0982993 0.0306836
-0.198348 0.0982443 0.0222732
-0.196873 0.0982171 0.0138761
-0.198076 0.098163 0.00548225
0.440218 0.124777 1.27592
0.363203 0.123801 1.25653
0.323376 0.123269 1.24177
0.29912 0.122924 1.22896
0.277645 0.122612 1.21653
0.261285 0.122361 1.20475
0.244947 0.122111 1.19301
0.228659 0.121862 1.18132
0.212446 0.121614 1.16968
0.199058 0.121399 1.1584
0.183019 0.121154 1.14686
0.174819 0.121001 1.13623
0.161612 0.12079 1.12507
0.153508 0.120639 1.1145
0.137902 0.120399 1.10315
0.129955 0.120251 1.09265
0.122069 0.120103 1.08219
0.111657 0.119925 1.07148
0.101527 0.119751 1.06083
0.093861 0.119607 1.05047
0.086272 0.119463 1.04013
0.0809376 0.119346 1.03005
0.0734531 0.119204 1.01977
0.0632599 0.11903 1.00925
0.0559019 0.118889 0.999026
0.0486345 0.11875 0.988839
0.0414613 0.118612 0.978682
0.0343857 0.118475 0.968557
0.0292331 0.118362 0.958638
0.0222892 0.118227 0.948567
0.0171882 0.118114 0.93869
0.010382 0.11798 0.928673
0.00684942 0.117886 0.918978
0.00032611 0.117757 0.909026
-0.00607978 0.117629 0.899105
-0.0110224 0.117518 0.889335
-0.0172706 0.117392 0.879467
-0.0221519 0.117282 0.869738
-0.0270087 0.117173 0.860029
-0.0318406 0.117064 0.850339
-0.034365 0.116982 0.840861
-0.040173 0.116862 0.831122
-0.044898 0.116754 0.821492
-0.0495965 0.116647 0.811881
-0.0542679 0.116541 0.802288
-0.0561224 0.116467 0.792938
-0.0607223 0.116361 0.783382
-0.0652941 0.116256 0.773845
-0.0698373 0.116151 0.764327
-0.071198 0.116084 0.755068
-0.076177 0.115974 0.745548
-0.0801031 0.115877 0.736122
-0.0845106 0.115774 0.726677
-0.0853574 0.115713 0.717506
-0.0896852 0.115611 0.708096
-0.0939817 0.11551 0.698704
-0.0943474 0.115454 0.689601
-0.0985609 0.115354 0.680243
-0.102742 0.115255 0.670903
-0.102668 0.115205 0.661863
-0.106782 0.115106 0.652554
-0.110867 0.115007 0.643263
-0.110709 0.114959 0.634259
-0.114741 0.114861 0.624999
-0.118599 0.114765 0.615764
-0.122542 0.114669 0.606539
-0.122324 0.114621 0.597581
-0.125938 0.114529 0.588402
-0.129775 0.114434 0.579224
-0.12911 0.114391 0.570322
-0.132873 0.114297 0.561174
-0.1366 0.114204 0.552043
-0.135744 0.114164 0.543178
-0.139396 0.114071 0.534076
-0.139043 0.114025 0.525202
-0.141959 0.113941 0.516163
-0.145496 0.113851 0.507106
-0.14509 0.113805 0.498262
-0.147748 0.113725 0.489273
-0.151168 0.113636 0.48026
-0.150707 0.113591 0.471446
-0.153102 0.113514 0.462505
-0.156403 0.113426 0.453534
-0.155885 0.113382 0.444749
-0.158015 0.113308 0.435854
-0.161194 0.113222 0.426925
-0.160618 0.113179 0.418169
-0.162479 0.113109 0.409318
-0.161865 0.113066 0.400578
-0.164899 0.112982 0.3917
-0.16789 0.112899 0.382837
-0.167226 0.112857 0.374126
-0.168721 0.112791 0.365341
-0.171583 0.112709 0.356516
-0.170858 0.112668 0.347831
-0.173655 0.112587 0.339031
-0.171311 0.112565 0.330417
-0.174021 0.112485 0.32164
-0.176686 0.112405 0.312877
-0.175868 0.112366 0.304234
-0.17671 0.112308 0.295547
-0.17585 0.112269 0.286919
-0.178358 0.112191 0.278202
-0.180819 0.112115 0.269498
-0.179903 0.112076 0.260895
-0.182294 0.112001 0.252213
-0.179406 0.111985 0.243674
-0.181706 0.11191 0.235013
-0.183958 0.111836 0.226365
-0.182943 0.1118 0.2178
-0.185122 0.111726 0.209173
-0.187252 0.111654 0.200559
-0.186179 0.111618 0.192018
-0.186082 0.111571 0.183464
-0.184964 0.111535 0.174936
-0.186927 0.111465 0.166361
-0.185773 0.11143 0.157847
-0.18766 0.111361 0.149292
-0.189496 0.111292 0.140748
-0.188282 0.111258 0.132256
-0.190041 0.11119 0.123732
-0.188791 0.111156 0.115253
-0.190473 0.111089 0.106748
-0.192101 0.111023 0.098253
-0.190788 0.11099 0.0897954
-0.192338 0.110925 0.0813191
-0.18855 0.11092 0.0728923
-0.190002 0.110856 0.0644319
-0.1914 0.110793 0.0559815
-0.189976 0.110762 0.0475545
-0.191293 0.110699 0.0391212
-0.189829 0.110668 0.0307062
-0.191065 0.110607 0.0222898
-0.189562 0.110577 0.0138865
-0.190715 0.110516 0.00548637
0.384422 0.137963 1.2791
0.344731 0.137374 1.26425
0.320525 0.13699 1.25135
0.299053 0.136643 1.23885
0.27476 0.136259 1.22605
0.258435 0.135981 1.21425
0.244933 0.13574 1.20283
0.228698 0.135464 1.19112
0.212555 0.135189 1.17946
0.199197 0.134951 1.16817
0.19097 0.134781 1.15748
0.175105 0.134511 1.14597
0.167002 0.134343 1.13536
0.153904 0.134109 1.12422
0.145915 0.133943 1.11367
0.135414 0.133744 1.10287
0.12275 0.133517 1.09187
0.11501 0.133355 1.08143
0.109598 0.133223 1.07126
0.0992339 0.133027 1.06059
0.0894344 0.132838 1.05001
0.0819617 0.13268 1.03969
0.0745745 0.132523 1.0294
0.0672764 0.132368 1.01915
0.0600708 0.132213 1.00893
0.0529613 0.132061 0.998734
0.045951 0.131909 0.988574
0.0407688 0.131782 0.978615
0.0338919 0.131633 0.968509
0.0271221 0.131485 0.958436
0.0204624 0.131339 0.948394
0.0153962 0.131214 0.938522
0.0103511 0.131089 0.92867
0.00387399 0.130946 0.918705
-0.00111416 0.130822 0.908895
-0.00402304 0.130725 0.89929
-0.010158 0.130587 0.889411
-0.0150477 0.130464 0.879663
-0.0210171 0.130328 0.869837
-0.0258434 0.130207 0.860129
-0.0306452 0.130086 0.850441
-0.0354219 0.129966 0.840772
-0.0374507 0.129882 0.83135
-0.0429607 0.129752 0.821652
-0.0476252 0.129634 0.812041
-0.0522631 0.129516 0.80245
-0.0568738 0.129398 0.792878
-0.0582047 0.129323 0.78358
-0.0627406 0.129207 0.774044
-0.0672483 0.129091 0.764527
-0.0717272 0.128975 0.755028
-0.0725464 0.128907 0.74582
-0.0769465 0.128793 0.736357
-0.0813168 0.128679 0.726911
-0.0856569 0.128566 0.717484
-0.0859462 0.128505 0.708363
-0.0902036 0.128393 0.69897
-0.0944296 0.128282 0.689595
-0.0943398 0.128226 0.680533
-0.0984868 0.128116 0.671191
-0.102615 0.128006 0.661866
-0.10248 0.127951 0.652838
-0.106391 0.127844 0.643554
-0.110418 0.127735 0.634278
-0.10995 0.127685 0.625302
-0.113907 0.127578 0.616056
-0.117413 0.127476 0.606854
-0.117174 0.127423 0.597892
-0.121026 0.127317 0.588695
-0.124285 0.127219 0.579546
-0.128044 0.127115 0.570383
-0.127061 0.127072 0.561504
-0.130746 0.126969 0.55237
-0.134394 0.126866 0.543253
-0.133217 0.126825 0.534411
-0.136789 0.126724 0.525322
-0.136397 0.126673 0.516455
-0.13895 0.126585 0.507443
-0.142407 0.126485 0.498398
-0.141961 0.126435 0.489561
-0.144252 0.12635 0.480597
-0.147592 0.126252 0.471595
-0.14709 0.126203 0.462787
-0.149117 0.126122 0.45387
-0.152337 0.126026 0.44491
-0.151778 0.125978 0.43613
-0.153538 0.1259 0.427257
-0.152941 0.125853 0.418495
-0.156018 0.125759 0.409586
-0.159053 0.125665 0.400693
-0.156852 0.125638 0.392021
-0.159803 0.125546 0.383152
-0.162711 0.125454 0.374297
-0.162006 0.125409 0.36559
-0.163128 0.12534 0.356823
-0.165907 0.12525 0.348006
-0.16514 0.125205 0.339325
-0.167854 0.125116 0.330533
-0.165179 0.125096 0.321929
-0.167805 0.125008 0.31316
-0.170386 0.124921 0.304404
-0.169526 0.124877 0.295763
-0.169996 0.124817 0.28709
-0.172442 0.124732 0.278369
-0.171517 0.12469 0.269753
-0.173895 0.124606 0.261055
-0.172937 0.124564 0.252453
-0.175245 0.124481 0.243777
-0.175265 0.124426 0.235167
-0.174241 0.124386 0.226589
-0.176409 0.124304 0.217945
-0.178529 0.124224 0.209314
-0.177449 0.124184 0.200759
-0.179496 0.124104 0.192148
-0.178381 0.124065 0.183608
-0.177911 0.124017 0.175062
-0.179814 0.12394 0.166481
-0.17863 0.123901 0.157962
-0.18046 0.123825 0.149401
-0.17924 0.123787 0.140895
-0.180994 0.123711 0.132354
-0.182696 0.123637 0.123824
-0.181416 0.1236 0.11534
-0.183041 0.123526 0.106829
-0.181724 0.12349 0.098357
-0.183272 0.123417 0.0898642
-0.184767 0.123345 0.0813818
-0.183388 0.12331 0.0729307
-0.184803 0.123239 0.064466
-0.186165 0.123169 0.0560114
-0.181954 0.123169 0.0475933
-0.183217 0.1231 0.0391535
-0.181726 0.123066 0.0307316
-0.182908 0.122999 0.0223083
-0.181378 0.122965 0.0138981
-0.182479 0.122899 0.00549097
0.421138 0.152435 1.30373
0.366134 0.151561 1.28685
0.34476 0.15118 1.27422
0.320527 0.150757 1.26129
0.296251 0.150334 1.24841
0.279922 0.150028 1.23654
0.258497 0.149647 1.22411
0.242276 0.149343 1.21234
0.228839 0.14908 1.20094
0.22055 0.148892 1.19017
0.204552 0.148591 1.17854
0.191279 0.148331 1.16726
0.183144 0.148145 1.1566
0.167485 0.147851 1.14511
0.159498 0.147668 1.13452
0.148949 0.147448 1.12367
0.138675 0.147232 1.11287
0.130884 0.147053 1.10238
0.120436 0.146835 1.09163
0.110534 0.146625 1.08096
0.102979 0.14645 1.07056
0.0955047 0.146275 1.0602
0.0881156 0.146103 1.04987
0.0808152 0.145931 1.03957
0.0725615 0.145746 1.0292
0.065329 0.145576 1.01895
0.0581913 0.145408 1.00874
0.0511519 0.145241 0.998554
0.0473796 0.145121 0.988715
0.0390434 0.144935 0.978446
0.0322417 0.144772 0.96835
0.028833 0.144658 0.958599
0.0223135 0.1445 0.948569
0.0159107 0.144343 0.93857
0.00962737 0.144187 0.928603
0.00464801 0.144051 0.918776
-0.000309664 0.143916 0.908968
-0.00524517 0.14378 0.89918
-0.0112926 0.143629 0.88931
-0.0161666 0.143495 0.879564
-0.0183674 0.143399 0.870068
-0.0240458 0.143254 0.860284
-0.0288121 0.143121 0.850597
-0.0335537 0.14299 0.84093
-0.03827 0.142858 0.831281
-0.0397884 0.142773 0.821914
-0.04499 0.142635 0.812256
-0.0495891 0.142505 0.802666
-0.0541616 0.142377 0.793094
-0.0550074 0.142301 0.783832
-0.0595025 0.142174 0.774296
-0.0639697 0.142047 0.764779
-0.0684087 0.14192 0.75528
-0.0728189 0.141794 0.7458
-0.0730872 0.141727 0.736643
-0.0774156 0.141603 0.727197
-0.0817141 0.141479 0.71777
-0.0816554 0.141417 0.708669
-0.0858514 0.141295 0.699277
-0.0900549 0.141172 0.6899
-0.0897781 0.141114 0.680846
-0.0939156 0.140992 0.671501
-0.0977184 0.140876 0.662193
-0.10177 0.140756 0.652885
-0.101599 0.140696 0.643866
-0.105161 0.140584 0.634615
-0.109111 0.140466 0.625355
-0.10833 0.140415 0.616404
-0.11221 0.140298 0.607173
-0.115362 0.140191 0.598002
-0.115083 0.140133 0.589049
-0.118855 0.140018 0.579865
-0.121757 0.139916 0.570746
-0.121428 0.139859 0.561825
-0.124134 0.139759 0.55274
-0.127738 0.139647 0.543619
-0.127357 0.139591 0.534728
-0.129806 0.139495 0.525694
-0.133297 0.139384 0.516617
-0.132863 0.139329 0.507756
-0.135052 0.139237 0.49877
-0.138427 0.139128 0.489736
-0.137939 0.139074 0.480905
-0.139865 0.138986 0.471965
-0.143121 0.13888 0.462974
-0.142578 0.138827 0.454171
-0.144239 0.138742 0.445275
-0.147373 0.138638 0.436325
-0.146773 0.138586 0.427551
-0.148166 0.138505 0.418698
-0.147526 0.138454 0.40994
-0.150518 0.138352 0.40104
-0.151641 0.138275 0.392228
-0.150942 0.138225 0.383497
-0.153808 0.138125 0.374636
-0.156631 0.138025 0.36579
-0.1539 0.138003 0.357158
-0.156637 0.137905 0.348335
-0.15933 0.137807 0.339525
-0.158521 0.137758 0.330847
-0.159 0.137692 0.322131
-0.158149 0.137644 0.313467
-0.160689 0.137548 0.304704
-0.163185 0.137454 0.295954
-0.165635 0.13736 0.287218
-0.162384 0.137346 0.278654
-0.164745 0.137253 0.269939
-0.163777 0.137207 0.261323
-0.166069 0.137116 0.25263
-0.168314 0.137025 0.243949
-0.164791 0.137015 0.235418
-0.166945 0.136926 0.226757
-0.169052 0.136837 0.218108
-0.167962 0.136793 0.209539
-0.169997 0.136706 0.200911
-0.168873 0.136662 0.192356
-0.170836 0.136576 0.183749
-0.170036 0.136528 0.175202
-0.168843 0.136486 0.166667
-0.170663 0.136402 0.15809
-0.172432 0.136319 0.149523
-0.171181 0.136277 0.141011
-0.172876 0.136195 0.132464
-0.17159 0.136154 0.123964
-0.173209 0.136073 0.115436
-0.174776 0.135993 0.106918
-0.173429 0.135953 0.0984401
-0.17492 0.135874 0.0899407
-0.176358 0.135796 0.0814516
-0.174948 0.135757 0.0729934
-0.173296 0.135722 0.0645416
-0.171839 0.135684 0.0560932
-0.173101 0.135608 0.0476363
-0.174309 0.135533 0.039189
-0.172789 0.135496 0.0307596
-0.173917 0.135423 0.0223287
-0.172357 0.135386 0.0139109
-0.173405 0.135314 0.00549605
0.395415 0.165957 1.31056
0.374123 0.165542 1.29785
0.342054 0.164955 1.28386
0.317803 0.164494 1.2709
0.296322 0.164077 1.25833
0.280026 0.163743 1.24644
0.263783 0.16341 1.2346
0.25031 0.163122 1.22313
0.234205 0.162791 1.21139
0.220837 0.162505 1.2
0.212626 0.162301 1.18925
0.196806 0.161976 1.17765
0.183639 0.161694 1.16638
0.173177 0.161455 1.15546
0.165017 0.161253 1.14483
0.152342 0.160979 1.13372
0.144554 0.160783 1.12318
0.13406 0.160544 1.11237
0.124188 0.160315 1.10165
0.116633 0.160123 1.09121
0.109159 0.159933 1.08081
0.100872 0.15973 1.07034
0.0934591 0.159541 1.05999
0.0861334 0.159353 1.04966
0.0788986 0.159167 1.03937
0.0717582 0.158983 1.02912
0.0647155 0.158801 1.01889
0.0577737 0.15862 1.0087
0.0509362 0.158441 0.998533
0.0442061 0.158264 0.988403
0.0390628 0.158112 0.978448
0.0324761 0.157937 0.968373
0.0273849 0.157786 0.958461
0.0209472 0.157614 0.94844
0.0181574 0.1575 0.938781
0.0120251 0.157333 0.928825
0.00601814 0.157168 0.918902
0.00109643 0.157021 0.909096
-0.00380348 0.156874 0.89931
-0.00868107 0.156727 0.889543
-0.0144411 0.156567 0.879716
-0.0192553 0.156422 0.86999
-0.0216099 0.156315 0.860494
-0.0263355 0.156171 0.850809
-0.0310368 0.156028 0.841142
-0.0357133 0.155885 0.831495
-0.0403645 0.155743 0.821866
-0.04136 0.155658 0.812553
-0.0459357 0.155518 0.80296
-0.050485 0.155377 0.793387
-0.0510144 0.1553 0.784147
-0.0555804 0.15516 0.774602
-0.0600026 0.155022 0.765084
-0.0643429 0.154885 0.755589
-0.0643791 0.154816 0.746434
-0.0687326 0.15468 0.736966
-0.0729758 0.154545 0.727523
-0.0772498 0.15441 0.718093
-0.076981 0.154346 0.709003
-0.0811905 0.154212 0.699606
-0.0850449 0.154084 0.690249
-0.0891713 0.153952 0.680888
-0.0885892 0.153893 0.671862
-0.0926483 0.153762 0.662533
-0.0924775 0.153696 0.653498
-0.0959069 0.153575 0.644236
-0.0998649 0.153446 0.634955
-0.103076 0.153329 0.625736
-0.102832 0.153265 0.616746
-0.105852 0.153151 0.607564
-0.109649 0.153024 0.598348
-0.108402 0.152976 0.589447
-0.112126 0.152851 0.58026
-0.114728 0.152744 0.571153
-0.114374 0.152682 0.562226
-0.117989 0.152559 0.553084
-0.120335 0.152456 0.544027
-0.123855 0.152335 0.534918
-0.123433 0.152274 0.526033
-0.125521 0.152175 0.517024
-0.128926 0.152056 0.507959
-0.126951 0.15202 0.499179
-0.130278 0.151902 0.490141
-0.133567 0.151785 0.481118
-0.131391 0.151752 0.472371
-0.1346 0.151636 0.463374
-0.13777 0.151521 0.454392
-0.135393 0.151491 0.445675
-0.138481 0.151378 0.436719
-0.137856 0.151321 0.427938
-0.13895 0.151238 0.419089
-0.141916 0.151127 0.410173
-0.141232 0.151071 0.401418
-0.144137 0.150961 0.392527
-0.144898 0.150883 0.383732
-0.144155 0.150829 0.375003
-0.146933 0.150721 0.36615
-0.147424 0.150648 0.357392
-0.14662 0.150594 0.348689
-0.14927 0.150488 0.339873
-0.151876 0.150383 0.33107
-0.148623 0.150367 0.322471
-0.151142 0.150264 0.31369
-0.153616 0.150161 0.304923
-0.152699 0.150109 0.29627
-0.152545 0.150047 0.2876
-0.151585 0.149996 0.27896
-0.153905 0.149896 0.270236
-0.156179 0.149796 0.261525
-0.158406 0.149698 0.252827
-0.157371 0.149648 0.244221
-0.156772 0.149593 0.23561
-0.155693 0.149545 0.227017
-0.157761 0.149448 0.218359
-0.15978 0.149353 0.209713
-0.158646 0.149306 0.201143
-0.160595 0.149212 0.192518
-0.159545 0.149163 0.18396
-0.158344 0.149117 0.17541
-0.160151 0.149026 0.166815
-0.161909 0.148935 0.158231
-0.160649 0.14889 0.149703
-0.162333 0.1488 0.141138
-0.163967 0.148711 0.132584
-0.162649 0.148667 0.124077
-0.164208 0.14858 0.115542
-0.159673 0.148584 0.107083
-0.161137 0.148498 0.0985632
-0.162549 0.148413 0.0900539
-0.161123 0.148371 0.0815779
-0.162459 0.148287 0.0730862
-0.163742 0.148204 0.0646044
-0.162254 0.148163 0.0561479
-0.163459 0.148081 0.047683
-0.16461 0.148 0.0392277
-0.163059 0.14796 0.03079
-0.164132 0.147881 0.022351
-0.162543 0.147842 0.0139247
-0.163535 0.147763 0.00550157
0.440142 0.180725 1.3364
0.403451 0.180008 1.32163
0.363619 0.179237 1.30655
0.342157 0.178785 1.29385
0.317919 0.178285 1.28086
0.30162 0.177922 1.2689
0.288082 0.177608 1.25732
0.264023 0.177112 1.2445
0.255719 0.176888 1.23363
0.242308 0.176577 1.22218
0.226354 0.176222 1.21046
0.210549 0.17587 1.19879
0.20247 0.175651 1.18807
0.189353 0.175346 1.17678
0.181388 0.17513 1.16613
0.168418 0.174828 1.15492
0.160584 0.174614 1.14433
0.15004 0.174354 1.13346
0.140097 0.174105 1.12269
0.130385 0.17386 1.11196
0.122913 0.173653 1.10151
0.114555 0.173431 1.09099
0.107142 0.173226 1.08059
0.0979165 0.17299 1.07003
0.0907484 0.17279 1.0597
0.0836763 0.172591 1.04941
0.0767036 0.172394 1.03915
0.0698334 0.172199 1.02892
0.0646095 0.172032 1.01888
0.0578758 0.17184 1.00871
0.0512519 0.17165 0.998564
0.0461082 0.171485 0.98859
0.0396305 0.171297 0.978504
0.0332696 0.171112 0.968449
0.0282126 0.170949 0.95854
0.0220072 0.170767 0.94854
0.017006 0.170605 0.938673
0.0146803 0.170489 0.929072
0.00883088 0.170314 0.91916
0.00393184 0.170154 0.909354
-0.00174699 0.169982 0.899495
-0.00658407 0.169823 0.88973
-0.0113987 0.169666 0.879984
-0.0128516 0.169565 0.870549
-0.0181025 0.169401 0.860797
-0.022803 0.169245 0.85111
-0.0274794 0.169091 0.841442
-0.0321314 0.168936 0.831793
-0.0328675 0.168849 0.822485
-0.0376225 0.168693 0.812858
-0.0421514 0.168541 0.803266
-0.0466544 0.16839 0.793693
-0.0511309 0.16824 0.784138
-0.0511734 0.168164 0.774945
-0.05559 0.168015 0.765424
-0.0598787 0.167868 0.755929
-0.0642181 0.16772 0.746446
-0.063958 0.16765 0.73732
-0.0682345 0.167504 0.72787
-0.0721388 0.167364 0.718463
-0.0763345 0.167219 0.70905
-0.0757637 0.167154 0.699989
-0.0798936 0.167011 0.690607
-0.0791742 0.166949 0.681575
-0.0832373 0.166807 0.672225
-0.08656 0.166677 0.66294
-0.0905373 0.166537 0.653626
-0.0894972 0.166481 0.644653
-0.093405 0.166342 0.635369
-0.0963197 0.166219 0.626163
-0.0960494 0.166151 0.617169
-0.0998533 0.166014 0.607932
-0.102519 0.165896 0.598779
-0.106232 0.165761 0.589576
-0.104672 0.165714 0.580697
-0.108311 0.16558 0.571523
-0.107942 0.165513 0.562592
-0.110159 0.165403 0.553522
-0.113688 0.165272 0.544393
-0.111776 0.165231 0.535572
-0.115228 0.165101 0.52647
-0.11702 0.164998 0.517469
-0.120375 0.16487 0.508399
-0.119872 0.164806 0.499537
-0.121403 0.164708 0.490582
-0.124642 0.164582 0.481553
-0.124085 0.164519 0.47272
-0.125354 0.164426 0.463808
-0.128474 0.164302 0.454821
-0.127861 0.164241 0.446015
-0.128866 0.164152 0.437145
-0.131865 0.164031 0.428197
-0.131195 0.16397 0.419419
-0.131934 0.163886 0.410588
-0.13481 0.163767 0.40168
-0.134081 0.163708 0.392928
-0.134553 0.163629 0.384135
-0.137304 0.163512 0.375264
-0.136516 0.163453 0.366537
-0.13672 0.163379 0.357781
-0.139343 0.163264 0.348947
-0.138494 0.163207 0.340244
-0.138429 0.163138 0.331522
-0.140923 0.163025 0.322723
-0.140012 0.16297 0.314045
-0.142442 0.162859 0.305269
-0.1415 0.162804 0.296607
-0.141066 0.16274 0.287935
-0.143363 0.162632 0.279193
-0.145615 0.162524 0.270464
-0.144589 0.16247 0.261833
-0.143815 0.162413 0.253202
-0.145932 0.162308 0.244505
-0.14484 0.162255 0.235895
-0.146889 0.162151 0.22722
-0.148891 0.162048 0.218556
-0.144617 0.162049 0.210037
-0.146528 0.161947 0.201391
-0.148391 0.161847 0.192757
-0.147177 0.161797 0.184191
-0.14897 0.161697 0.175577
-0.150713 0.161599 0.166975
-0.149443 0.16155 0.158431
-0.148163 0.161502 0.149893
-0.149379 0.161412 0.141324
-0.14804 0.161365 0.132798
-0.149568 0.16127 0.124242
-0.151045 0.161177 0.115696
-0.149648 0.16113 0.107192
-0.15105 0.161038 0.0986643
-0.152402 0.160947 0.0901468
-0.150944 0.160901 0.0816623
-0.15222 0.160811 0.0731622
-0.153444 0.160723 0.064672
-0.151925 0.160678 0.0562068
-0.153071 0.160591 0.0477333
-0.151515 0.160547 0.0392799
-0.152584 0.160461 0.0308228
-0.153599 0.160376 0.0223749
-0.151979 0.160334 0.0139397
-0.152915 0.16025 0.00550751
0.437872 0.194673 1.34622
0.393096 0.19375 1.33038
0.371681 0.193262 1.3176
0.347474 0.192724 1.30452
0.325995 0.192236 1.29183
0.30971 0.191846 1.27984
0.285623 0.191311 1.26693
0.272148 0.190974 1.25538
0.256087 0.190588 1.24354
0.247855 0.190349 1.23269
0.231991 0.189968 1.22095
0.218759 0.189637 1.20956
0.208055 0.189352 1.1985
0.195208 0.189028 1.18722
0.186941 0.18879 1.17651
0.174401 0.188472 1.16533
0.166099 0.188233 1.15466
0.156088 0.187963 1.14383
0.146301 0.187697 1.13304
0.138772 0.187473 1.12254
0.131325 0.187251 1.11207
0.120921 0.186974 1.1013
0.113597 0.186755 1.09089
0.106362 0.186537 1.08051
0.0974837 0.186289 1.06998
0.0905107 0.186077 1.05968
0.0836396 0.185866 1.0494
0.0783888 0.185686 1.03932
0.0716529 0.185478 1.0291
0.0650262 0.185273 1.01892
0.0585116 0.18507 1.00877
0.0533713 0.184892 0.998775
0.0470055 0.184692 0.988678
0.0407586 0.184495 0.978614
0.035705 0.184319 0.968684
0.0296159 0.184125 0.958674
0.0246177 0.183951 0.948787
0.0225279 0.18383 0.93919
0.0137509 0.183587 0.928986
0.0119052 0.183471 0.919442
0.00634969 0.183287 0.909573
0.00151647 0.183117 0.899788
-0.00329513 0.182947 0.890023
-0.00863162 0.182768 0.880228
-0.0133786 0.182599 0.870503
-0.0143191 0.182501 0.861123
-0.0189922 0.182334 0.851435
-0.0236415 0.182168 0.841766
-0.0284885 0.181998 0.832097
-0.033068 0.181833 0.822468
-0.0332713 0.181749 0.813213
-0.0377715 0.181586 0.803619
-0.0422461 0.181424 0.794044
-0.0422604 0.181343 0.784837
-0.0465704 0.181184 0.775304
-0.0507276 0.181028 0.765798
-0.055066 0.180868 0.756295
-0.0546714 0.180795 0.747163
-0.0589473 0.180637 0.737692
-0.0627196 0.180489 0.728274
-0.0669154 0.180333 0.718841
-0.0662094 0.180266 0.709773
-0.0703399 0.180111 0.700371
-0.0737174 0.17997 0.691037
-0.0735492 0.179893 0.681961
-0.0767405 0.179756 0.672665
-0.0807195 0.179604 0.66333
-0.0836937 0.179471 0.654077
-0.0834544 0.179396 0.645046
-0.0862389 0.179267 0.635829
-0.0900607 0.179119 0.626559
-0.0885604 0.179067 0.617636
-0.0923107 0.17892 0.608395
-0.0946817 0.178798 0.599253
-0.0943342 0.178726 0.590285
-0.0965117 0.178608 0.581176
-0.100097 0.178465 0.571998
-0.0996996 0.178394 0.56306
-0.101623 0.17828 0.554
-0.105099 0.17814 0.544866
-0.102919 0.178101 0.536052
-0.106318 0.177961 0.526945
-0.107818 0.177856 0.517951
-0.11112 0.177719 0.508875
-0.110589 0.17765 0.500007
-0.11183 0.17755 0.491057
-0.115016 0.177415 0.482023
-0.114431 0.177348 0.473182
-0.115412 0.177253 0.464275
-0.11848 0.17712 0.455281
-0.115571 0.177095 0.446571
-0.118558 0.176964 0.437601
-0.121507 0.176834 0.428647
-0.118399 0.176812 0.419963
-0.121265 0.176684 0.411032
-0.124091 0.176556 0.402116
-0.120784 0.176538 0.393457
-0.123526 0.176412 0.384564
-0.126228 0.176287 0.375686
-0.122723 0.176273 0.36705
-0.12534 0.17615 0.358194
-0.127915 0.176027 0.349351
-0.124212 0.176016 0.340737
-0.126701 0.175896 0.331916
-0.129148 0.175775 0.323109
-0.12821 0.175716 0.314421
-0.127607 0.17565 0.305729
-0.129923 0.175533 0.296955
-0.132196 0.175416 0.288194
-0.131175 0.175358 0.279538
-0.130239 0.175299 0.270886
-0.132378 0.175185 0.262158
-0.131294 0.175128 0.253523
-0.133367 0.175016 0.244816
-0.132096 0.174962 0.236201
-0.130947 0.174907 0.227587
-0.132884 0.174797 0.218911
-0.134775 0.174688 0.210246
-0.133572 0.174634 0.201656
-0.132358 0.17458 0.193071
-0.133685 0.174481 0.184444
-0.132414 0.174428 0.175872
-0.134097 0.174323 0.167256
-0.135732 0.174219 0.158652
-0.137318 0.174116 0.150058
-0.135968 0.174065 0.141516
-0.134607 0.174014 0.132979
-0.135262 0.173928 0.124423
-0.133843 0.173878 0.115899
-0.135214 0.173779 0.107349
-0.136534 0.173681 0.0988097
-0.135056 0.173633 0.0903056
-0.136303 0.173536 0.0817837
-0.137498 0.173441 0.0732716
-0.13596 0.173393 0.0647868
-0.13708 0.173299 0.0562915
-0.138148 0.173206 0.0478057
-0.136549 0.17316 0.0393396
-0.137539 0.173068 0.0308699
-0.138478 0.172978 0.0224093
-0.136817 0.172933 0.0139612
-0.137677 0.172844 0.00551603
0.482411 0.209659 1.3723
0.430367 0.208523 1.35537
0.401188 0.207845 1.34149
0.369137 0.20711 1.32731
0.347664 0.206587 1.31455
0.331383 0.206169 1.30249
0.30996 0.205648 1.28983
0.293777 0.205232 1.27786
0.277681 0.204818 1.26596
0.264275 0.204458 1.25441
0.24837 0.204048 1.2426
0.240228 0.203794 1.23177
0.224564 0.20339 1.22006
0.213855 0.203085 1.20898
0.203517 0.202787 1.19797
0.192861 0.202484 1.18695
0.18053 0.202147 1.17577
0.172154 0.20189 1.16507
0.162294 0.201603 1.15423
0.152667 0.201321 1.14344
0.145223 0.201082 1.13292
0.136754 0.200824 1.12232
0.129368 0.200587 1.11185
0.120232 0.200316 1.10122
0.113092 0.200084 1.09083
0.106048 0.199855 1.08048
0.0991039 0.199628 1.07015
0.0922619 0.199402 1.05986
0.0855253 0.19918 1.0496
0.0788972 0.198959 1.03937
0.0723806 0.198741 1.02918
0.067214 0.19855 1.01914
0.0608448 0.198335 1.009
0.0545937 0.198123 0.998896
0.0495114 0.197934 0.988925
0.0434168 0.197725 0.978873
0.0383879 0.197538 0.968943
0.0324547 0.197333 0.958946
0.0274816 0.197146 0.949058
0.0217147 0.196945 0.939114
0.0201084 0.196825 0.929575
0.0152414 0.196642 0.919749
0.00985191 0.196448 0.909892
0.00504678 0.196266 0.900106
0.00026292 0.196084 0.890339
-0.00490409 0.195895 0.880556
-0.00559471 0.195795 0.871181
-0.010261 0.195616 0.861473
-0.0149045 0.195438 0.851784
-0.0196218 0.195258 0.842105
-0.024196 0.195082 0.832456
-0.0242377 0.194994 0.823197
-0.0287549 0.194819 0.813581
-0.0331071 0.194647 0.803995
-0.0331162 0.194561 0.794772
-0.0372947 0.194393 0.785229
-0.0413202 0.194228 0.775713
-0.0456546 0.194057 0.766189
-0.0451271 0.193981 0.757051
-0.0493993 0.193812 0.747559
-0.05304 0.193655 0.738131
-0.052935 0.193571 0.728991
-0.0563936 0.193418 0.719602
-0.0605217 0.193252 0.710179
-0.0637682 0.193104 0.700835
-0.0635959 0.193021 0.691742
-0.0666568 0.192877 0.682435
-0.0695564 0.192735 0.673152
-0.0734792 0.192574 0.663814
-0.0720388 0.192517 0.654846
-0.0758923 0.192357 0.645538
-0.078385 0.192224 0.636333
-0.0821504 0.192066 0.627059
-0.0803852 0.192016 0.618145
-0.0840789 0.191859 0.608901
-0.083729 0.191782 0.599916
-0.0857816 0.191657 0.590795
-0.0876695 0.191537 0.581695
-0.0911983 0.191384 0.572512
-0.0907709 0.191308 0.563568
-0.0924062 0.191193 0.554516
