ply
format ascii 1.0
comment Created by Open3D
element vertex 1865
property double x
property double y
property double z
end_header
-1.35003 -1.90637 2.10504
-1.33998 -1.90767 2.09817
-1.32656 -1.90971 2.0921
-1.31255 -1.91188 2.08615
-1.29569 -1.91468 2.08087
-1.29128 -1.91473 2.07259
-1.27176 -1.9181 2.06789
-1.26719 -1.91819 2.05963
-1.25498 -1.91995 2.05317
-1.2429 -1.92169 2.04666
-1.22362 -1.925 2.0418
-1.21166 -1.9267 2.03522
-1.20008 -1.92832 2.02854
-1.1882 -1.93 2.02191
-1.17673 -1.93159 2.01517
-1.16489 -1.93326 2.00849
-1.15306 -1.93493 2.0018
-1.14169 -1.9365 1.99499
-1.12329 -1.9396 1.98974
-1.33261 -1.92576 2.39318
-1.36174 -1.91835 2.37558
-1.38669 -1.91188 2.35919
-1.40037 -1.90792 2.34594
-1.4143 -1.9039 2.33266
-1.42657 -1.90026 2.31987
-1.43605 -1.89724 2.30787
-1.44528 -1.89427 2.29596
-1.45047 -1.89221 2.28517
-1.45916 -1.88937 2.27346
-1.46382 -1.88742 2.26285
-1.47191 -1.88472 2.25135
-1.47597 -1.88291 2.24094
-1.47973 -1.88117 2.23063
-1.48493 -1.87911 2.21996
-1.48818 -1.87749 2.20981
-1.49109 -1.87594 2.19977
-1.49579 -1.874 2.18929
-1.49815 -1.87257 2.17942
-1.4966 -1.87201 2.17056
-1.48953 -1.87266 2.16312
-1.47556 -1.87484 2.15741
-1.45825 -1.87774 2.15252
-1.4528 -1.87803 2.14463
-1.44196 -1.87951 2.13809
-1.42769 -1.88174 2.13238
-1.4099 -1.88474 2.12752
-1.40659 -1.88456 2.11906
-1.39169 -1.88692 2.11345
-1.37647 -1.88935 2.10789
-1.36751 -1.8904 2.10079
-1.35506 -1.89222 2.09452
-1.34375 -1.89379 2.08795
-1.33056 -1.89577 2.08183
-1.31536 -1.89818 2.07616
-1.30495 -1.89955 2.06934
-1.29393 -1.90104 2.06264
-1.28211 -1.90271 2.05611
-1.27013 -1.90442 2.04961
-1.25786 -1.90618 2.04316
-1.23808 -1.90959 2.03844
-1.22607 -1.91129 2.03189
-1.22143 -1.91139 2.02362
-1.20949 -1.91308 2.01702
-1.19038 -1.91632 2.01205
-1.17841 -1.91801 2.00542
-1.16681 -1.91962 1.99869
-1.1549 -1.92129 1.99202
-1.14339 -1.92288 1.98524
-1.13151 -1.92454 1.97852
-1.29543 -1.92256 2.4131
-1.35073 -1.90942 2.38818
-1.37234 -1.90372 2.37266
-1.38964 -1.89898 2.35838
-1.40368 -1.89496 2.34504
-1.4162 -1.89128 2.33214
-1.42581 -1.88824 2.32007
-1.43519 -1.88526 2.3081
-1.44331 -1.88256 2.29649
-1.45205 -1.87973 2.28474
-1.45676 -1.87778 2.2741
-1.46252 -1.87561 2.26319
-1.46902 -1.87327 2.25212
-1.47443 -1.87118 2.24135
-1.47806 -1.86948 2.23107
-1.48137 -1.86785 2.22089
-1.48435 -1.86629 2.21081
-1.48907 -1.86436 2.2003
-1.4915 -1.86292 2.19039
-1.49232 -1.86185 2.18091
-1.49421 -1.86054 2.17117
-1.49573 -1.85931 2.16154
-1.49255 -1.8591 2.15311
-1.48213 -1.86049 2.14651
-1.46791 -1.86269 2.14084
-1.45362 -1.86492 2.13517
-1.44368 -1.86619 2.1284
-1.43253 -1.86772 2.12191
-1.41772 -1.87005 2.11631
-1.40608 -1.87169 2.10991
-1.39814 -1.87252 2.10259
-1.38226 -1.87508 2.0972
-1.37224 -1.87636 2.09035
-1.35927 -1.87828 2.08421
-1.34708 -1.88003 2.07786
-1.33329 -1.88212 2.07188
-1.32389 -1.88326 2.06483
-1.31387 -1.88453 2.05791
-1.29645 -1.88741 2.05273
-1.2849 -1.88901 2.04614
-1.27304 -1.89068 2.03962
-1.261 -1.89238 2.03311
-1.24873 -1.89413 2.02664
-1.23648 -1.89588 2.02015
-1.22429 -1.89761 2.01363
-1.21219 -1.89932 2.00707
-1.19995 -1.90106 2.00052
-1.188 -1.90274 1.9939
-1.17612 -1.9044 1.98724
-1.15709 -1.9076 1.98216
-1.15228 -1.90773 1.97389
-1.13641 -1.91024 1.96807
-1.32857 -1.90288 2.40391
-1.35431 -1.89631 2.38719
-1.37888 -1.89 2.37086
-1.39251 -1.8861 2.3576
-1.40576 -1.88228 2.34447
-1.4155 -1.87923 2.33233
-1.42713 -1.87577 2.31972
-1.43338 -1.8735 2.30859
-1.44228 -1.87064 2.29677
-1.44972 -1.86811 2.28537
-1.4555 -1.86594 2.27444
-1.45981 -1.8641 2.26391
-1.46751 -1.86152 2.25252
-1.4712 -1.85981 2.2422
-1.47458 -1.85817 2.23198
-1.47763 -1.85661 2.22186
-1.48237 -1.85468 2.21132
-1.4834 -1.85356 2.20176
-1.48572 -1.85216 2.19188
-1.48768 -1.85084 2.1821
-1.49177 -1.84906 2.1718
-1.48964 -1.84863 2.16309
-1.49339 -1.84693 2.1529
-1.49072 -1.84662 2.14434
-1.48722 -1.84649 2.136
-1.47305 -1.84867 2.13032
-1.45844 -1.85095 2.12473
-1.44369 -1.85326 2.11915
-1.43974 -1.85322 2.11088
-1.42448 -1.85563 2.10539
-1.40893 -1.8581 2.09995
-1.40371 -1.85834 2.09197
-1.38723 -1.86101 2.08672
-1.37638 -1.86246 2.08008
-1.36299 -1.86446 2.07404
-1.35016 -1.86634 2.06784
-1.34152 -1.86731 2.06063
-1.32641 -1.86967 2.05494
-1.31635 -1.87094 2.04804
-1.29904 -1.87378 2.04282
-1.28764 -1.87534 2.0362
-1.27589 -1.87697 2.02964
-1.26394 -1.87864 2.02312
-1.25168 -1.88038 2.01664
-1.23959 -1.88208 2.01012
-1.22733 -1.88382 2.00361
-1.21512 -1.88554 1.99708
-1.20277 -1.8873 1.99056
-1.19068 -1.88899 1.98396
-1.17867 -1.89067 1.97733
-1.16648 -1.89238 1.97072
-1.15458 -1.89403 1.96403
-1.30632 -1.8963 2.41972
-1.34305 -1.88737 2.3999
-1.36109 -1.88252 2.38532
-1.38185 -1.87708 2.37005
-1.39526 -1.87325 2.35684
-1.40513 -1.87019 2.34464
-1.41782 -1.86652 2.3317
-1.42625 -1.86379 2.31996
-1.43243 -1.86154 2.30884
-1.44012 -1.85896 2.29735
-1.4485 -1.85624 2.28569
-1.45287 -1.8544 2.27514
-1.45694 -1.85261 2.26467
-1.4623 -1.85056 2.25389
-1.46589 -1.84889 2.2436
-1.46915 -1.84728 2.2334
-1.47209 -1.84576 2.22331
-1.47675 -1.84386 2.21278
-1.47913 -1.84245 2.20286
-1.48116 -1.84112 2.19305
-1.48528 -1.83934 2.18272
-1.48323 -1.8389 2.17398
-1.48701 -1.8372 2.16376
-1.48789 -1.83612 2.15429
-1.48786 -1.83524 2.14506
-1.48816 -1.8343 2.13576
-1.48467 -1.83416 2.12741
-1.47714 -1.8349 2.12008
-1.4658 -1.83646 2.11367
-1.45068 -1.83883 2.10819
-1.43848 -1.84057 2.10196
-1.43047 -1.84141 2.09469
-1.41443 -1.84397 2.08937
-1.40443 -1.84523 2.08255
-1.39164 -1.84709 2.0764
-1.38481 -1.84768 2.0688
-1.36758 -1.85048 2.06368
-1.35388 -1.85253 2.05769
-1.34423 -1.85371 2.05072
-1.3292 -1.85604 2.04501
-1.31897 -1.85735 2.03815
-1.30835 -1.85873 2.03136
-1.29033 -1.8617 2.02629
-1.27869 -1.86329 2.0197
-1.26683 -1.86494 2.01315
-1.25483 -1.86661 2.00662
-1.24255 -1.86834 2.00013
-1.23026 -1.87007 1.99363
-1.21799 -1.8718 1.98711
-1.20575 -1.87351 1.98056
-1.19357 -1.87522 1.97399
-1.18144 -1.87691 1.96738
-1.16937 -1.87858 1.96075
-1.3246 -1.87995 2.41464
-1.3499 -1.87355 2.398
-1.36771 -1.86878 2.38349
-1.38138 -1.86491 2.37018
-1.39469 -1.86113 2.357
-1.40758 -1.85744 2.34397
-1.41623 -1.85467 2.33214
-1.42533 -1.8518 2.3202
-1.43043 -1.8498 2.30938
-1.43899 -1.84706 2.29765
-1.44354 -1.84518 2.28702
-1.45149 -1.84257 2.2755
-1.45545 -1.84083 2.26507
-1.4591 -1.83915 2.25474
-1.46243 -1.83754 2.2445
-1.46731 -1.83561 2.23388
-1.47011 -1.83412 2.22382
-1.47256 -1.8327 2.21387
-1.47337 -1.83164 2.20435
-1.47529 -1.83035 2.19456
-1.47683 -1.82913 2.18488
-1.48065 -1.82743 2.17464
-1.48085 -1.82651 2.16532
-1.48161 -1.82547 2.15588
-1.48151 -1.82461 2.14666
-1.48168 -1.82369 2.13738
-1.48147 -1.82286 2.12821
-1.48086 -1.82212 2.11915
-1.47677 -1.82211 2.11095
-1.47245 -1.82216 2.10282
-1.45697 -1.82459 2.09742
-1.44123 -1.82708 2.09206
-1.43587 -1.82734 2.08415
-1.41938 -1.82999 2.07893
-1.40877 -1.83137 2.07227
-1.39567 -1.83328 2.06619
-1.38365 -1.83497 2.05984
-1.37065 -1.83685 2.0537
-1.35663 -1.83896 2.04778
-1.34742 -1.84004 2.04071
-1.3317 -1.8425 2.03516
-1.32146 -1.8438 2.0283
-1.31089 -1.84516 2.0215
-1.29993 -1.84661 2.01478
-1.2886 -1.84813 2.00813
-1.26968 -1.85126 2.00321
-1.25775 -1.85291 1.99666
-1.2532 -1.85299 1.98842
-1.23342 -1.85629 1.98362
-1.22112 -1.85801 1.9771
-1.21655 -1.8581 1.96884
-1.19658 -1.86144 1.964
-1.18437 -1.86313 1.95742
-1.17714 -1.86378 1.94971
-1.30244 -1.87326 2.43046
-1.33161 -1.86607 2.41269
-1.3566 -1.85978 2.39614
-1.37074 -1.85584 2.38266
-1.38421 -1.85204 2.3694
-1.39728 -1.84833 2.35629
-1.40614 -1.84553 2.34437
-1.41539 -1.84265 2.33236
-1.42341 -1.84003 2.32072
-1.4283 -1.83809 2.30996
-1.43661 -1.83542 2.29829
-1.44094 -1.8336 2.28771
-1.44642 -1.83154 2.27685
-1.45027 -1.82983 2.26644
-1.45381 -1.82818 2.25613
-1.46063 -1.82584 2.24498
-1.45992 -1.82511 2.23582
-1.46452 -1.82324 2.22528
-1.46686 -1.82186 2.21535
-1.46884 -1.82056 2.20553
-1.4729 -1.81882 2.19518
-1.47081 -1.81838 2.18643
-1.47454 -1.81671 2.17619
-1.47537 -1.81566 2.16672
-1.4753 -1.8148 2.15747
-1.47555 -1.81387 2.14816
-1.47518 -1.81308 2.13902
-1.47484 -1.81228 2.12987
-1.47415 -1.81155 2.12082
-1.47336 -1.81085 2.1118
-1.47222 -1.81022 2.10287
-1.4678 -1.81029 2.09476
-1.46282 -1.81048 2.08678
-1.44659 -1.81305 2.08154
-1.44082 -1.8134 2.07374
-1.42391 -1.81611 2.06862
-1.41732 -1.81664 2.06099
-1.39602 -1.82028 2.05688
-1.38696 -1.82132 2.04982
-1.37885 -1.82217 2.04252
-1.36489 -1.82424 2.03659
-1.35001 -1.82651 2.03086
-1.34032 -1.82769 2.02389
-1.33028 -1.82893 2.01699
-1.31343 -1.83161 2.01166
-1.30252 -1.83304 2.00493
-1.29127 -1.83453 1.99826
-1.27974 -1.83609 1.99164
-1.268 -1.83768 1.98505
-1.2561 -1.83931 1.97849
-1.23639 -1.84258 1.97366
-1.23183 -1.84266 1.96541
-1.21953 -1.84437 1.95889
-1.19969 -1.84766 1.95402
-1.18809 -1.84922 1.94729
-1.30978 -1.85928 2.42841
-1.33877 -1.85218 2.41069
-1.3597 -1.8468 2.39528
-1.37321 -1.84302 2.38197
-1.38635 -1.83932 2.36881
-1.39597 -1.83637 2.35665
-1.40458 -1.83364 2.34479
-1.41363 -1.83082 2.33284
-1.4224 -1.82806 2.321
-1.42718 -1.82615 2.31026
-1.4317 -1.82431 2.29961
-1.43958 -1.82174 2.28808
-1.4435 -1.82003 2.27763
-1.4471 -1.81838 2.26728
-1.45038 -1.8168 2.25704
-1.45521 -1.8149 2.2464
-1.45796 -1.81344 2.23633
-1.46036 -1.81205 2.22636
-1.46113 -1.81101 2.21684
-1.46299 -1.80974 2.20704
-1.46449 -1.80855 2.19734
-1.46824 -1.80689 2.18709
-1.4657 -1.80655 2.17845
-1.46911 -1.80496 2.16831
-1.46898 -1.80412 2.15908
-1.4691 -1.80322 2.14979
-1.46883 -1.80241 2.14061
-1.46818 -1.80168 2.13153
-1.46742 -1.80098 2.12249
-1.46636 -1.80034 2.11353
-1.46529 -1.7997 2.10458
-1.46363 -1.79918 2.09578
-1.46225 -1.79861 2.08692
-1.45676 -1.7989 2.07906
-1.45095 -1.79926 2.07128
-1.44107 -1.80048 2.06448
-1.42813 -1.80234 2.0584
-1.42123 -1.80292 2.05085
-1.40426 -1.80563 2.0457
-1.39014 -1.80773 2.03984
-1.38182 -1.80861 2.0326
-1.37314 -1.80956 2.02543
-1.35841 -1.81179 2.01966
-1.34886 -1.81293 2.01267
-1.33279 -1.81543 2.00717
-1.32253 -1.81671 2.00031
-1.3051 -1.81949 1.99508
-1.29393 -1.82096 1.9884
-1.28248 -1.82249 1.98176
-1.27081 -1.82406 1.97516
-1.25898 -1.82566 1.96858
-1.24684 -1.82733 1.96205
-1.2348 -1.82897 1.95548
-1.22184 -1.8308 1.9491
-1.28747 -1.85253 2.44433
-1.32411 -1.84384 2.42441
-1.34204 -1.83914 2.40978
-1.35931 -1.83457 2.39539
-1.37273 -1.83083 2.38211
-1.38575 -1.82718 2.36897
-1.39457 -1.82442 2.35703
-1.40377 -1.82159 2.34501
-1.41174 -1.81901 2.33335
-1.41766 -1.81688 2.32228
-1.42485 -1.81447 2.31089
-1.42913 -1.81269 2.3003
-1.43454 -1.81067 2.28942
-1.43835 -1.80898 2.279
-1.44185 -1.80737 2.26867
-1.4486 -1.80507 2.25751
-1.44976 -1.80395 2.24783
-1.4524 -1.80252 2.23779
-1.45469 -1.80117 2.22784
-1.45662 -1.79989 2.21801
-1.45713 -1.79891 2.20855
-1.4585 -1.79776 2.19889
-1.4595 -1.79668 2.18933
-1.46294 -1.79509 2.17916
-1.46284 -1.79425 2.1699
-1.46303 -1.79334 2.16058
-1.46262 -1.79256 2.15142
-1.46223 -1.79178 2.14227
-1.4615 -1.79107 2.1332
-1.46052 -1.79042 2.12421
-1.45618 -1.79047 2.11605
-1.4579 -1.78925 2.1064
-1.45329 -1.78935 2.09832
-1.45184 -1.7888 2.08947
-1.4495 -1.78843 2.08083
-1.44774 -1.78794 2.07206
-1.44482 -1.78769 2.06358
-1.43836 -1.78818 2.05594
-1.43159 -1.78874 2.04838
-1.4245 -1.78936 2.04088
-1.40753 -1.79205 2.03572
-1.39416 -1.79398 2.02969
-1.38473 -1.79509 2.02271
-1.37091 -1.79711 2.01674
-1.36103 -1.79831 2.00984
-1.34565 -1.80065 2.0042
-1.33548 -1.8019 1.99733
-1.32505 -1.80321 1.99051
-1.30768 -1.80596 1.98526
-1.30346 -1.80598 1.97699
-1.28519 -1.80891 1.97191
-1.27359 -1.81046 1.96529
-1.26183 -1.81204 1.95869
-1.25173 -1.81327 1.9517
-1.23292 -1.8163 1.94664
-1.30217 -1.83699 2.44021
-1.32747 -1.83076 2.42347
-1.34837 -1.82546 2.40802
-1.36228 -1.82164 2.39457
-1.37547 -1.81797 2.38135
-1.38449 -1.81518 2.36932
-1.39383 -1.81233 2.35723
-1.40205 -1.80972 2.34548
-1.41075 -1.80701 2.33362
-1.4155 -1.80514 2.32286
-1.42362 -1.80255 2.31122
-1.42779 -1.8008 2.30066
-1.43166 -1.79912 2.2902
-1.43521 -1.7975 2.27984
-1.43845 -1.79595 2.26958
-1.44321 -1.79408 2.25893
-1.44591 -1.79265 2.24885
-1.44683 -1.79159 2.23925
-1.44899 -1.79027 2.22933
-1.4508 -1.78903 2.21952
-1.45124 -1.78807 2.21007
-1.45594 -1.78623 2.19955
-1.45337 -1.7859 2.1909
-1.45672 -1.78434 2.18074
-1.4536 -1.78413 2.17225
-1.45324 -1.78335 2.16306
-1.45295 -1.78255 2.15386
-1.45226 -1.78183 2.14477
-1.45148 -1.78114 2.13571
-1.45058 -1.78047 2.12668
-1.44929 -1.77988 2.11776
-1.44761 -1.77938 2.10894
-1.4462 -1.77882 2.10006
-1.44393 -1.77844 2.0914
-1.44129 -1.77813 2.08283
-1.43826 -1.77791 2.07436
-1.43298 -1.77815 2.06643
-1.43077 -1.77776 2.05776
-1.42701 -1.77769 2.04947
-1.4229 -1.77769 2.04126
-1.41711 -1.77804 2.03345
-1.40752 -1.77917 2.02654
-1.39939 -1.78 2.01926
-1.39098 -1.78089 2.01205
-1.37356 -1.78365 2.00692
-1.36406 -1.78476 1.99993
-1.3543 -1.78592 1.99299
-1.34427 -1.78714 1.9861
-1.32765 -1.78972 1.9807
-1.31696 -1.79107 1.97392
-1.3027 -1.79316 1.96794
-1.2952 -1.79385 1.96042
-1.27731 -1.79669 1.95522
-1.25896 -1.79961 1.95009
-1.26891 -1.83245 2.45925
-1.3093 -1.82309 2.43821
-1.33078 -1.8177 2.42254
-1.34801 -1.8132 2.40812
-1.36139 -1.80951 2.39481
-1.37435 -1.80592 2.38166
-1.38383 -1.80306 2.3695
-1.39227 -1.80041 2.35766
-1.40114 -1.79768 2.34573
-1.40606 -1.79578 2.3349
-1.41071 -1.79394 2.32416
-1.41873 -1.7914 2.31254
-1.42279 -1.78968 2.302
-1.42656 -1.78803 2.29156
-1.43 -1.78644 2.28122
-1.43313 -1.78493 2.27099
-1.4378 -1.78309 2.26036
-1.44039 -1.78169 2.2503
-1.44263 -1.78036 2.24034
-1.44329 -1.77936 2.23082
-1.44497 -1.77815 2.22103
-1.44629 -1.77702 2.21135
-1.44646 -1.77613 2.20198
-1.44721 -1.77511 2.19248
-1.44708 -1.77428 2.1832
-1.44725 -1.77339 2.17386
-1.44703 -1.77258 2.16463
-1.44638 -1.77187 2.15551
-1.44563 -1.77117 2.14643
-1.44477 -1.77049 2.13738
-1.44355 -1.7699 2.12843
-1.44195 -1.76938 2.11958
-1.43996 -1.76894 2.11083
-1.43838 -1.76841 2.10198
-1.43581 -1.7681 2.09338
-1.43074 -1.76829 2.0854
-1.42875 -1.76786 2.07666
-1.42543 -1.76769 2.06825
-1.41863 -1.76825 2.06068
-1.41616 -1.76791 2.05206
-1.41196 -1.76793 2.04387
-1.40552 -1.76841 2.0362
-1.39946 -1.76881 2.02844
-1.39426 -1.76903 2.02047
-1.38574 -1.76994 2.01328
-1.37992 -1.77029 2.00544
-1.37085 -1.7713 1.99836
-1.36153 -1.77237 1.99132
-1.34917 -1.77406 1.98497
-1.33632 -1.77585 1.97872
-1.32301 -1.77773 1.97255
-1.30929 -1.77969 1.96645
-1.28899 -1.783 1.96182
-1.2583 -1.78843 1.95948
-1.28738 -1.81614 2.45405
-1.31632 -1.80922 2.43624
-1.33402 -1.80466 2.42164
-1.34765 -1.80094 2.40822
-1.36091 -1.7973 2.39495
-1.37376 -1.79376 2.38182
-1.38242 -1.79108 2.36989
-1.39145 -1.78834 2.35788
-1.39653 -1.78641 2.34698
-1.40394 -1.78401 2.33547
-1.40837 -1.78222 2.32479
-1.41382 -1.78023 2.31386
-1.41779 -1.77854 2.30334
-1.42144 -1.77692 2.29293
-1.42834 -1.77463 2.28166
-1.43133 -1.77316 2.27146
-1.43239 -1.77208 2.26179
-1.43486 -1.77071 2.25175
-1.43697 -1.76942 2.24183
-1.43873 -1.7682 2.232
-1.43912 -1.76726 2.22255
-1.44032 -1.76616 2.2129
-1.44042 -1.76529 2.20354
-1.44104 -1.76431 2.19406
-1.44128 -1.76341 2.18468
-1.44087 -1.76264 2.17548
-1.44052 -1.76187 2.16628
-1.4398 -1.76117 2.15717
-1.43887 -1.76051 2.14813
-1.43783 -1.75988 2.13912
-1.4363 -1.75934 2.13023
-1.43172 -1.75944 2.12211
-1.43028 -1.75889 2.11322
-1.42798 -1.75852 2.10453
-1.42531 -1.75822 2.09595
-1.42226 -1.758 2.08746
-1.41697 -1.75824 2.07951
-1.41473 -1.75786 2.07083
-1.41095 -1.75779 2.06252
-1.40513 -1.75814 2.0547
-1.39927 -1.7585 2.04689
-1.39446 -1.75864 2.03882
-1.3863 -1.75946 2.03154
-1.38086 -1.75973 2.02361
-1.37213 -1.76067 2.01645
-1.36356 -1.76158 2.00925
-1.35684 -1.76211 2.0016
-1.34734 -1.76321 1.99459
-1.33472 -1.76494 1.98829
-1.32163 -1.76676 1.98207
-1.30205 -1.7699 1.97731
-1.28185 -1.77317 1.97266
-1.25128 -1.77854 1.97031
-1.25416 -1.81146 2.47315
-1.29472 -1.80218 2.45198
-1.31967 -1.79614 2.4353
-1.33686 -1.79171 2.42085
-1.35061 -1.78799 2.4074
-1.35991 -1.7852 2.39522
-1.37251 -1.78173 2.38217
-1.378 -1.77973 2.37111
-1.38693 -1.77702 2.35912
-1.3946 -1.77458 2.34751
-1.39921 -1.77276 2.33676
-1.40715 -1.77027 2.32512
-1.41117 -1.76858 2.31457
-1.41489 -1.76696 2.30412
-1.41829 -1.7654 2.29377
-1.41955 -1.76429 2.284
-1.42597 -1.76211 2.27288
-1.4285 -1.76074 2.26281
-1.42931 -1.75972 2.25321
-1.4313 -1.75846 2.24331
-1.43294 -1.75728 2.23351
-1.43326 -1.75636 2.22407
-1.43433 -1.75529 2.21445
-1.43435 -1.75444 2.2051
-1.43485 -1.75349 2.19565
-1.43496 -1.75262 2.1863
-1.43447 -1.75188 2.17711
-1.434 -1.75113 2.16793
-1.4299 -1.75113 2.15967
-1.42901 -1.75047 2.1506
-1.42776 -1.74988 2.14163
-1.42656 -1.74928 2.13266
-1.42472 -1.74882 2.12385
-1.4225 -1.74843 2.11513
-1.4199 -1.74812 2.10652
-1.41482 -1.74831 2.09851
-1.41167 -1.74812 2.09004
-1.40816 -1.74799 2.08165
-1.40428 -1.74794 2.07335
-1.39861 -1.74826 2.06549
-1.39421 -1.74832 2.05731
-1.3883 -1.74868 2.0495
-1.38138 -1.74925 2.04192
-1.37517 -1.74967 2.03417
-1.36437 -1.75103 2.02749
-1.36084 -1.7509 2.01909
-1.34922 -1.75242 2.01258
-1.33706 -1.75405 2.00618
-1.32729 -1.75519 1.99922
-1.31429 -1.75698 1.99298
-1.29483 -1.76008 1.98819
-1.28088 -1.76206 1.98212
-1.25059 -1.76734 1.97974
-1.27271 -1.79515 2.4679
-1.30172 -1.78831 2.45001
-1.31944 -1.7838 2.43536
-1.33652 -1.77942 2.42094
-1.34974 -1.77584 2.40764
-1.35883 -1.77311 2.39552
-1.36816 -1.77033 2.38337
-1.37646 -1.76777 2.37153
-1.38516 -1.76513 2.35961
-1.38995 -1.76329 2.34878
-1.39808 -1.76077 2.33707
-1.40229 -1.75905 2.32644
-1.40621 -1.7574 2.31591
-1.40982 -1.75581 2.30548
-1.41311 -1.75428 2.29515
-1.41607 -1.75283 2.28493
-1.42059 -1.75106 2.27431
-1.42301 -1.74972 2.26426
-1.42162 -1.74915 2.25523
-1.42562 -1.74749 2.2448
-1.42713 -1.74634 2.23503
-1.42487 -1.74596 2.22625
-1.42832 -1.74441 2.216
-1.42888 -1.74345 2.20651
-1.42573 -1.74325 2.19798
-1.42861 -1.74183 2.18792
-1.42491 -1.74174 2.17954
-1.42416 -1.74105 2.17042
-1.42329 -1.74039 2.16133
-1.42212 -1.73979 2.15233
-1.42056 -1.73927 2.14343
-1.41597 -1.73936 2.13529
-1.4145 -1.73883 2.12638
-1.41217 -1.73846 2.11768
-1.40947 -1.73817 2.10908
-1.40639 -1.73796 2.10057
-1.40109 -1.7382 2.09261
-1.39748 -1.7381 2.08424
-1.39043 -1.73869 2.0767
-1.38778 -1.73839 2.06809
-1.38146 -1.73883 2.06036
-1.37544 -1.73921 2.05256
-1.36817 -1.73985 2.04505
-1.36185 -1.74029 2.03731
-1.35313 -1.74121 2.03013
-1.34163 -1.74269 2.02358
-1.33227 -1.74375 2.01653
-1.31987 -1.74541 2.01016
-1.30697 -1.74717 2.0039
-1.29362 -1.74902 1.99772
-1.27375 -1.75217 1.99301
-1.25331 -1.75544 1.98839
-1.23954 -1.79034 2.48705
-1.28001 -1.78119 2.46584
-1.30515 -1.77519 2.44905
-1.32269 -1.77075 2.43445
-1.33618 -1.76713 2.42104
-1.34558 -1.76436 2.4088
-1.35826 -1.76091 2.39568
-1.36679 -1.75832 2.38375
-1.37565 -1.75566 2.37175
-1.38061 -1.7538 2.36085
-1.3853 -1.75199 2.35005
-1.39332 -1.74951 2.33836
-1.39743 -1.74782 2.32775
-1.40125 -1.7462 2.31725
-1.40475 -1.74464 2.30684
-1.40793 -1.74315 2.29654
-1.41077 -1.74173 2.28634
-1.41172 -1.74069 2.27666
-1.4175 -1.73868 2.26572
-1.41601 -1.73814 2.25671
-1.41761 -1.73698 2.24689
-1.4213 -1.73539 2.23655
-1.41893 -1.73503 2.22779
-1.41892 -1.7342 2.21843
-1.41938 -1.73327 2.20896
-1.41946 -1.73241 2.19959
-1.41894 -1.73168 2.19039
-1.41843 -1.73095 2.18119
-1.4176 -1.73028 2.17208
-1.4165 -1.72967 2.16304
-1.41213 -1.72972 2.15484
-1.41089 -1.72914 2.14585
-1.40902 -1.72868 2.13702
-1.40677 -1.72831 2.12829
-1.40414 -1.728 2.11966
-1.39905 -1.7282 2.11164
-1.39587 -1.72801 2.10315
-1.38923 -1.72851 2.0955
-1.3868 -1.72817 2.08682
-1.3811 -1.72848 2.07894
-1.37526 -1.72882 2.07109
-1.37051 -1.72895 2.06298
-1.36244 -1.72974 2.05565
-1.35408 -1.73058 2.04839
-1.34839 -1.73089 2.04048
-1.33947 -1.73185 2.03333
-1.32769 -1.73338 2.02684
-1.31814 -1.73446 2.01981
-1.30548 -1.73616 2.0135
-1.28641 -1.73914 2.00864
-1.26665 -1.74225 2.00391
-1.24629 -1.74548 1.99928
-1.19918 -1.75404 2.0007
-1.25445 -1.77479 2.48282
-1.28724 -1.76727 2.4638
-1.30497 -1.76281 2.4491
-1.32215 -1.75847 2.4346
-1.33543 -1.75493 2.42124
-1.34463 -1.75221 2.40906
-1.354 -1.74946 2.39686
-1.36242 -1.74691 2.38495
-1.37118 -1.74429 2.37298
-1.37605 -1.74245 2.3621
-1.38316 -1.74017 2.35063
-1.38855 -1.73824 2.33965
-1.39257 -1.73658 2.32907
-1.39628 -1.73499 2.31859
-1.39967 -1.73347 2.3082
-1.40273 -1.73201 2.29793
-1.40546 -1.73062 2.28775
-1.40784 -1.7293 2.27769
-1.40854 -1.72832 2.26808
-1.41038 -1.72712 2.25819
-1.41186 -1.72599 2.2484
-1.41207 -1.72511 2.23895
-1.41298 -1.72409 2.22934
-1.4129 -1.72328 2.21999
-1.41323 -1.72238 2.21054
-1.41317 -1.72156 2.2012
-1.41258 -1.72085 2.19201
-1.41194 -1.72015 2.18284
-1.40778 -1.72015 2.17456
-1.40677 -1.71952 2.1655
-1.40536 -1.71898 2.15653
-1.40357 -1.71851 2.14768
-1.39887 -1.71862 2.13955
-1.39651 -1.71827 2.13083
-1.39377 -1.71799 2.12222
-1.38864 -1.71819 2.1142
-1.38535 -1.71802 2.10572
-1.38028 -1.71821 2.09768
-1.37464 -1.71851 2.08977
-1.3703 -1.71855 2.08155
-1.36442 -1.71889 2.0737
-1.35461 -1.72002 2.06678
-1.35142 -1.71983 2.05828
-1.34073 -1.72114 2.05155
-1.33189 -1.72207 2.04437
-1.32021 -1.72357 2.03785
-1.31074 -1.72462 2.0308
-1.29817 -1.72629 2.02446
-1.28512 -1.72806 2.01821
-1.26881 -1.73046 2.0127
-1.2393 -1.73549 2.01018
-1.20231 -1.74198 2.00932
-1.26556 -1.76005 2.47966
-1.28714 -1.75485 2.46382
-1.30461 -1.75047 2.4492
-1.32186 -1.74615 2.43468
-1.33136 -1.74339 2.42238
-1.34412 -1.73997 2.4092
-1.35276 -1.73739 2.39721
-1.36168 -1.73475 2.38516
-1.36672 -1.7329 2.37421
-1.37409 -1.73057 2.36264
-1.37847 -1.72886 2.35191
-1.38379 -1.72695 2.34095
-1.3877 -1.72533 2.33039
-1.3913 -1.72377 2.31993
-1.39458 -1.72228 2.30957
-1.39753 -1.72085 2.29932
-1.40014 -1.7195 2.28917
-1.40095 -1.7185 2.27952
-1.40303 -1.71725 2.26954
-1.40474 -1.71608 2.25967
-1.40609 -1.71498 2.24991
-1.40623 -1.71413 2.24048
-1.40701 -1.71314 2.23089
-1.40685 -1.71235 2.22155
-1.40705 -1.71148 2.21213
-1.40359 -1.71134 2.20366
-1.40292 -1.71065 2.19448
-1.40218 -1.70998 2.18532
-1.4012 -1.70934 2.17623
-1.39986 -1.70879 2.16724
-1.39538 -1.70886 2.15904
-1.39347 -1.70841 2.1502
-1.39119 -1.70804 2.14146
-1.38626 -1.7082 2.13337
-1.38342 -1.70794 2.12477
-1.3802 -1.70776 2.11627
-1.37485 -1.708 2.10829
-1.36963 -1.70821 2.10027
-1.36395 -1.70852 2.09236
-1.35773 -1.70893 2.08458
-1.35173 -1.7093 2.07674
-1.34366 -1.71007 2.0694
-1.33604 -1.71076 2.06194
-1.32961 -1.71121 2.05419
-1.31821 -1.71264 2.0476
-1.30891 -1.71366 2.04051
-1.29659 -1.71527 2.03411
-1.28092 -1.71753 2.02847
-1.26765 -1.71933 2.02226
-1.24182 -1.72359 2.01892
-1.21161 -1.72871 2.01654
-1.2288 -1.75578 2.49989
-1.26922 -1.74684 2.47862
-1.29063 -1.7417 2.46284
-1.30441 -1.7381 2.44925
-1.32124 -1.73389 2.43486
-1.33054 -1.73119 2.42261
-1.33995 -1.72846 2.41037
-1.34849 -1.72592 2.39839
-1.35731 -1.72332 2.38637
-1.36226 -1.7215 2.37544
-1.3695 -1.71922 2.3639
-1.37378 -1.71753 2.35319
-1.37776 -1.7159 2.34259
-1.38282 -1.71406 2.33171
-1.38631 -1.71254 2.32127
-1.38948 -1.71108 2.31094
-1.39232 -1.70968 2.30071
-1.39481 -1.70836 2.29059
-1.39555 -1.70739 2.28095
-1.3975 -1.70617 2.271
-1.39909 -1.70503 2.26116
-1.39935 -1.70415 2.25167
-1.40038 -1.70313 2.242
-1.40103 -1.70218 2.23244
-1.398 -1.70195 2.22384
-1.39757 -1.70122 2.21457
-1.39728 -1.70045 2.20528
-1.39654 -1.69978 2.19611
-1.39566 -1.69913 2.18698
-1.39139 -1.69916 2.17871
-1.38994 -1.69863 2.16974
-1.38811 -1.69817 2.16086
-1.38589 -1.69779 2.15209
-1.381 -1.69794 2.14399
-1.37823 -1.69767 2.13536
-1.37308 -1.69786 2.12732
-1.36976 -1.6977 2.11883
-1.36302 -1.69821 2.11118
-1.35899 -1.69819 2.10286
-1.35161 -1.69883 2.09535
-1.3469 -1.69894 2.08719
-1.34086 -1.69931 2.07935
-1.33061 -1.7005 2.07252
-1.32204 -1.70137 2.06527
-1.31319 -1.70229 2.05807
-1.30152 -1.70376 2.05154
-1.2893 -1.70534 2.04511
-1.27948 -1.70645 2.03811
-1.26055 -1.70934 2.03321
-1.2409 -1.71236 2.02845
-1.21444 -1.71671 2.02523
-1.24004 -1.74101 2.49668
-1.26918 -1.73437 2.47863
-1.29038 -1.72931 2.46291
-1.30399 -1.72577 2.44937
-1.31725 -1.72229 2.43598
-1.3301 -1.71891 2.42274
-1.33885 -1.71634 2.41067
-1.34782 -1.71372 2.39858
-1.35293 -1.71188 2.38757
-1.36045 -1.70956 2.37593
-1.36491 -1.70784 2.36515
-1.36909 -1.70619 2.35447
-1.37297 -1.70459 2.34389
-1.37654 -1.70306 2.33341
-1.38132 -1.70129 2.32262
-1.38438 -1.69986 2.31231
-1.38709 -1.6985 2.30211
-1.38946 -1.69721 2.29201
-1.39013 -1.69626 2.28238
-1.39196 -1.69508 2.27246
-1.39343 -1.69397 2.26264
-1.39119 -1.69359 2.25381
-1.39118 -1.69277 2.2444
-1.39173 -1.69185 2.23486
-1.39189 -1.691 2.22542
-1.39138 -1.69028 2.21617
-1.39095 -1.68955 2.2069
-1.38692 -1.68952 2.19856
-1.38599 -1.68889 2.18943
-1.38453 -1.68837 2.18045
-1.38004 -1.68843 2.17223
-1.37862 -1.6879 2.16325
-1.37577 -1.68764 2.15462
-1.37083 -1.6878 2.14652
-1.36795 -1.68755 2.13791
-1.36163 -1.68797 2.13014
-1.35932 -1.68761 2.12139
-1.3525 -1.68814 2.11375
-1.34837 -1.68813 2.10544
-1.3409 -1.68878 2.09795
-1.33312 -1.68949 2.09052
-1.32801 -1.68967 2.08244
-1.31963 -1.6905 2.07514
-1.30864 -1.69183 2.06846
-1.29959 -1.69278 2.0613
-1.28763 -1.6943 2.05481
-1.2723 -1.69647 2.0491
-1.25933 -1.69817 2.04282
-1.24311 -1.70051 2.03727
-1.21711 -1.70475 2.03396
-1.17054 -1.71297 2.03535
-1.1921 -1.73879 2.52018
-1.24385 -1.72773 2.4956
-1.27275 -1.72119 2.47762
-1.29025 -1.7169 2.46294
-1.30377 -1.71339 2.44944
-1.31657 -1.71004 2.43617
-1.32602 -1.70735 2.42388
-1.33467 -1.70481 2.41183
-1.34354 -1.70224 2.39976
-1.34857 -1.70042 2.38878
-1.35596 -1.69814 2.37717
-1.36032 -1.69646 2.36641
-1.3644 -1.69483 2.35575
-1.36817 -1.69327 2.34519
-1.37163 -1.69177 2.33474
-1.37476 -1.69034 2.32438
-1.37926 -1.68863 2.31368
-1.38186 -1.68731 2.30351
-1.38411 -1.68605 2.29344
-1.38264 -1.68552 2.28437
-1.38305 -1.68462 2.27481
-1.38441 -1.68354 2.26502
-1.3854 -1.68254 2.25533
-1.38532 -1.68174 2.24593
-1.38573 -1.68085 2.23641
-1.3825 -1.68066 2.22785
-1.38192 -1.67996 2.2186
-1.38139 -1.67926 2.20935
-1.3805 -1.67862 2.2002
-1.37619 -1.67865 2.19193
-1.375 -1.67807 2.18286
-1.3733 -1.6776 2.17393
-1.3681 -1.6778 2.16589
-1.36641 -1.67732 2.15696
-1.36284 -1.67721 2.14851
-1.35768 -1.6774 2.14045
-1.35127 -1.67784 2.1327
-1.3489 -1.67749 2.12395
-1.34049 -1.67832 2.11668
-1.33609 -1.67837 2.10843
-1.3302 -1.6787 2.10054
-1.32038 -1.6798 2.09359
-1.31209 -1.6806 2.08626
-1.30352 -1.68145 2.07899
-1.29223 -1.68283 2.07236
-1.283 -1.6838 2.06523
-1.27077 -1.68536 2.05879
-1.25522 -1.68756 2.05311
-1.23613 -1.69043 2.04824
-1.21633 -1.69344 2.0435
-1.18971 -1.69776 2.04031
-1.2109 -1.72251 2.51481
-1.25133 -1.71374 2.49347
-1.2727 -1.70872 2.47764
-1.28996 -1.70451 2.46303
-1.30328 -1.70107 2.44957
-1.31259 -1.69843 2.43729
-1.32195 -1.69577 2.42501
-1.3305 -1.69327 2.41299
-1.33927 -1.69074 2.40095
-1.34421 -1.68895 2.38998
-1.35146 -1.68671 2.3784
-1.35573 -1.68506 2.36767
-1.3597 -1.68347 2.35703
-1.36337 -1.68194 2.3465
-1.36671 -1.68047 2.33607
-1.36973 -1.67907 2.32574
-1.37073 -1.67806 2.31597
-1.37323 -1.67676 2.30581
-1.37538 -1.67553 2.29576
-1.37591 -1.67461 2.28616
-1.37751 -1.67349 2.27628
-1.37873 -1.67244 2.26651
-1.3763 -1.67211 2.25771
-1.37615 -1.67133 2.24832
-1.37645 -1.67046 2.23882
-1.37637 -1.66967 2.22943
-1.37571 -1.66899 2.2202
-1.37504 -1.66832 2.21098
-1.37089 -1.66832 2.20265
-1.36965 -1.66775 2.19359
-1.36522 -1.6678 2.18533
-1.36342 -1.66735 2.17642
-1.35812 -1.66757 2.16839
-1.35636 -1.6671 2.15947
-1.35264 -1.66702 2.15104
-1.34743 -1.66722 2.14299
-1.34266 -1.66734 2.13482
-1.33712 -1.66761 2.12684
-1.32996 -1.66818 2.11926
-1.32367 -1.66859 2.11145
-1.31766 -1.66895 2.10358
-1.30957 -1.6697 2.0962
-1.3012 -1.67051 2.08888
-1.2902 -1.67182 2.08218
-1.28114 -1.67276 2.075
-1.26634 -1.6748 2.06917
-1.25385 -1.67639 2.06278
-1.23808 -1.67861 2.05714
-1.21871 -1.68152 2.05231
-1.19255 -1.68572 2.04903
-1.12931 -1.69702 2.0543
-1.22221 -1.70773 2.51157
-1.25136 -1.70123 2.49346
-1.27264 -1.69626 2.47765
-1.28617 -1.69281 2.4641
-1.2994 -1.68941 2.45067
-1.31221 -1.6861 2.43739
-1.31789 -1.68418 2.42615
-1.3299 -1.68103 2.41316
-1.335 -1.67922 2.40213
-1.33985 -1.67746 2.39119
-1.34698 -1.67527 2.37964
-1.35114 -1.67365 2.36893
-1.35501 -1.67209 2.35831
-1.35856 -1.67059 2.3478
-1.36179 -1.66915 2.3374
-1.3629 -1.66813 2.32758
-1.36562 -1.66679 2.31734
-1.368 -1.66553 2.30721
-1.37002 -1.66433 2.29719
-1.37048 -1.66344 2.28759
-1.37195 -1.66235 2.27774
-1.37305 -1.66133 2.268
-1.3705 -1.66102 2.25923
-1.37027 -1.66026 2.24985
-1.37044 -1.65942 2.24038
-1.36701 -1.65928 2.23185
-1.36628 -1.65862 2.22263
-1.3655 -1.65797 2.21342
-1.36433 -1.6574 2.20433
-1.35994 -1.65744 2.19605
-1.3582 -1.65697 2.18711
-1.35355 -1.65707 2.17891
-1.35125 -1.65671 2.17011
-1.3455 -1.65702 2.16218
-1.34246 -1.6568 2.15358
-1.3372 -1.65701 2.14552
-1.33227 -1.65716 2.13738
-1.32668 -1.65743 2.12941
-1.31944 -1.65802 2.12183
-1.31188 -1.65866 2.11432
-1.30402 -1.65937 2.10688
-1.29377 -1.66053 2.10001
-1.28519 -1.66137 2.09272
-1.27633 -1.66226 2.08549
-1.26465 -1.66369 2.07893
-1.25241 -1.66522 2.07247
-1.23686 -1.66739 2.06679
-1.21777 -1.67022 2.06191
-1.1919 -1.67434 2.05858
-1.16512 -1.67863 2.05542
-1.22619 -1.69441 2.51043
-1.25143 -1.68871 2.49344
-1.26895 -1.6845 2.4787
-1.28601 -1.68039 2.46414
-1.29553 -1.67773 2.45175
-1.30824 -1.67447 2.4385
-1.31691 -1.67198 2.42642
-1.32572 -1.66947 2.41432
-1.33074 -1.66769 2.40331
-1.3355 -1.66597 2.39239
-1.33998 -1.66429 2.38156
-1.34655 -1.66222 2.37018
-1.35031 -1.6607 2.35959
-1.35168 -1.65962 2.34967
-1.35496 -1.65819 2.33925
-1.3579 -1.65682 2.32893
-1.3605 -1.65552 2.31872
-1.36276 -1.65428 2.30861
-1.36133 -1.65376 2.2995
-1.36172 -1.65288 2.28992
-1.36308 -1.65182 2.28008
-1.36407 -1.65083 2.27036
-1.36397 -1.65005 2.26094
-1.36438 -1.64918 2.25139
-1.3612 -1.64899 2.24278
-1.36086 -1.64825 2.23344
-1.36006 -1.64761 2.22423
-1.35598 -1.6476 2.21586
-1.35487 -1.64701 2.20674
-1.35026 -1.6471 2.19852
-1.34885 -1.64657 2.18948
-1.34616 -1.64629 2.18077
-1.34128 -1.64642 2.17261
-1.33544 -1.64674 2.1647
-1.33335 -1.64635 2.15584
-1.32699 -1.64677 2.14805
-1.3203 -1.64724 2.14034
-1.31627 -1.64722 2.13196
-1.30893 -1.64782 2.1244
-1.30128 -1.64848 2.1169
-1.29134 -1.64957 2.10995
-1.28296 -1.65037 2.10262
-1.27429 -1.65121 2.09534
-1.26288 -1.65258 2.08871
-1.24809 -1.65459 2.08287
-1.23558 -1.65616 2.07646
-1.21981 -1.65835 2.07081
-1.19447 -1.66234 2.06738
-1.16813 -1.66652 2.06413
-1.18955 -1.68971 2.53077
-1.23005 -1.68112 2.50933
-1.2515 -1.67619 2.49342
-1.26884 -1.67205 2.47873
-1.28224 -1.66866 2.46521
-1.29169 -1.66604 2.45284
-1.30429 -1.66282 2.43961
-1.31285 -1.66037 2.42756
-1.31804 -1.65857 2.41646
-1.32649 -1.65615 2.40449
-1.33115 -1.65446 2.39359
-1.33554 -1.65281 2.38278
-1.33964 -1.65123 2.37208
-1.34343 -1.6497 2.36147
-1.34692 -1.64824 2.35097
-1.35007 -1.64684 2.34057
-1.3529 -1.6455 2.33028
-1.35538 -1.64423 2.32009
-1.35418 -1.64366 2.3109
-1.35597 -1.64252 2.30093
-1.35629 -1.64167 2.29136
-1.35752 -1.64064 2.28155
-1.35513 -1.6403 2.27271
-1.35495 -1.63954 2.2633
-1.35525 -1.63869 2.25377
-1.35517 -1.63791 2.24435
-1.35153 -1.63781 2.23585
-1.35065 -1.63719 2.22665
-1.34962 -1.63659 2.21749
-1.3453 -1.63662 2.20918
-1.3437 -1.63614 2.20018
-1.33912 -1.63621 2.19194
-1.33627 -1.63596 2.18326
-1.33134 -1.63611 2.17511
-1.32741 -1.63606 2.1667
-1.32214 -1.63627 2.15863
-1.31553 -1.63673 2.15089
-1.30859 -1.63725 2.14322
-1.30427 -1.63727 2.13491
-1.29843 -1.63759 2.12696
-1.28881 -1.63861 2.11994
-1.28063 -1.63936 2.11255
-1.27216 -1.64017 2.10522
-1.25819 -1.64201 2.09921
-1.2465 -1.64342 2.09263
-1.23698 -1.64442 2.08551
-1.21868 -1.64706 2.08046
-1.20269 -1.64927 2.07485
-1.17702 -1.6533 2.07147
-1.13442 -1.66048 2.07201
-1.19731 -1.67562 2.52854
-1.23028 -1.66853 2.50926
-1.25152 -1.66367 2.49341
-1.26518 -1.66026 2.47977
-1.2785 -1.65692 2.46627
-1.28786 -1.65434 2.45392
-1.30034 -1.65116 2.44072
-1.30579 -1.64932 2.42953
-1.3139 -1.64698 2.41761
-1.31876 -1.64526 2.40663
-1.32334 -1.64359 2.39574
-1.33008 -1.64151 2.38428
-1.33395 -1.63998 2.37363
-1.33537 -1.63892 2.36367
-1.33875 -1.63748 2.35318
-1.34182 -1.63611 2.3428
-1.34454 -1.6348 2.33253
-1.34692 -1.63356 2.32236
-1.34895 -1.63238 2.3123
-1.34937 -1.63151 2.30268
-1.35084 -1.63044 2.2928
-1.34869 -1.63006 2.28388
-1.34944 -1.62913 2.27421
-1.34919 -1.62839 2.26481
-1.34616 -1.62817 2.25614
-1.34596 -1.62742 2.24674
-1.3452 -1.62678 2.23749
-1.34128 -1.62673 2.22906
-1.34022 -1.62615 2.2199
-1.33576 -1.6262 2.21162
-1.3344 -1.62567 2.20255
-1.32941 -1.62582 2.1944
-1.32712 -1.62547 2.18557
-1.32142 -1.62575 2.1776
-1.31733 -1.62574 2.16922
-1.31201 -1.62595 2.16115
-1.3053 -1.62643 2.15342
-1.29827 -1.62696 2.14577
-1.29093 -1.62755 2.13818
-1.28327 -1.6282 2.13067
-1.27532 -1.6289 2.12322
-1.26493 -1.63006 2.11635
-1.25625 -1.6309 2.10906
-1.2473 -1.63178 2.10182
-1.23269 -1.63373 2.09593
-1.22033 -1.63525 2.08947
-1.19898 -1.63844 2.08513
-1.1796 -1.64126 2.08029
-1.14732 -1.64648 2.07845
-1.2013 -1.66227 2.52739
-1.2304 -1.65596 2.50923
-1.24797 -1.65183 2.49442
-1.26154 -1.64847 2.4808
-1.27477 -1.64517 2.46732
-1.28405 -1.64262 2.45499
-1.29641 -1.63949 2.44182
-1.30179 -1.63768 2.43065
-1.30978 -1.63537 2.41876
-1.31454 -1.63368 2.4078
-1.31902 -1.63204 2.39694
-1.32323 -1.63046 2.38617
-1.32713 -1.62893 2.3755
-1.33073 -1.62747 2.36494
-1.334 -1.62606 2.35448
-1.33694 -1.62472 2.34412
-1.33955 -1.62344 2.33387
-1.34028 -1.62252 2.32414
-1.34042 -1.62171 2.31458
-1.34078 -1.62085 2.30497
-1.34214 -1.61981 2.29511
-1.34313 -1.61884 2.28535
-1.34053 -1.61855 2.27655
-1.34021 -1.61782 2.26716
-1.34026 -1.61703 2.25768
-1.33677 -1.6169 2.24912
-1.33594 -1.61628 2.23988
-1.33504 -1.61566 2.23067
-1.3308 -1.61568 2.22232
-1.32624 -1.61574 2.21405
-1.32481 -1.61523 2.20498
-1.31972 -1.6154 2.19685
-1.31731 -1.61507 2.18804
-1.31152 -1.61537 2.18008
-1.30726 -1.61538 2.17174
-1.30189 -1.61561 2.16367
-1.29509 -1.61609 2.15595
-1.28797 -1.61664 2.14831
-1.28053 -1.61724 2.14074
-1.27278 -1.6179 2.13323
-1.26474 -1.61862 2.12579
-1.25422 -1.61979 2.11895
-1.24545 -1.62063 2.11166
-1.23111 -1.62251 2.10571
-1.21624 -1.62448 2.09986
-1.20361 -1.62604 2.09345
-1.18196 -1.62926 2.08916
-1.15631 -1.63322 2.08579
-1.11994 -1.63916 2.08487
-1.14611 -1.66083 2.55315
-1.2017 -1.6496 2.52728
-1.22694 -1.64406 2.51022
-1.248 -1.63931 2.49441
-1.26141 -1.636 2.48084
-1.27106 -1.6334 2.46837
-1.28025 -1.63088 2.45606
-1.2925 -1.6278 2.44292
-1.29779 -1.62602 2.43176
-1.30566 -1.62375 2.41991
-1.31032 -1.62209 2.40897
-1.31471 -1.62048 2.39813
-1.31881 -1.61893 2.38738
-1.3226 -1.61744 2.37674
-1.32609 -1.616 2.3662
-1.32924 -1.61463 2.35577
-1.33207 -1.61332 2.34544
-1.33125 -1.61269 2.33611
-1.33191 -1.61178 2.32639
-1.33387 -1.61064 2.31633
-1.33547 -1.60956 2.30639
-1.33669 -1.60855 2.29655
-1.33434 -1.60821 2.28767
-1.33414 -1.60747 2.27823
-1.33443 -1.60664 2.26867
-1.33119 -1.60646 2.26004
-1.33049 -1.60582 2.25075
-1.32671 -1.60574 2.24227
-1.32571 -1.60515 2.23307
-1.3214 -1.60517 2.22473
-1.3198 -1.60469 2.21569
-1.31524 -1.60476 2.20742
-1.31243 -1.60451 2.19869
-1.30752 -1.60464 2.19051
-1.30163 -1.60496 2.18256
-1.29541 -1.60533 2.1747
-1.2918 -1.60523 2.16618
-1.2849 -1.60573 2.15848
-1.27768 -1.60628 2.15085
-1.27015 -1.6069 2.14329
-1.26231 -1.60757 2.13579
-1.25417 -1.6083 2.12837
-1.24071 -1.61 2.12222
-1.22945 -1.6113 2.11552
-1.22022 -1.61222 2.10833
-1.20524 -1.6142 2.10249
-1.18682 -1.6168 2.09745
-1.16488 -1.62005 2.09321
-1.13283 -1.62515 2.09132
-1.16516 -1.64461 2.54766
-1.20192 -1.63696 2.52721
-1.22721 -1.63146 2.51014
-1.24448 -1.62745 2.49542
-1.25781 -1.62418 2.48186
-1.26738 -1.62161 2.46941
-1.27648 -1.61913 2.45712
-1.28512 -1.61674 2.44499
-1.2938 -1.61434 2.43288
-1.29876 -1.61264 2.42183
-1.30611 -1.61049 2.41014
-1.3104 -1.60891 2.39932
-1.31439 -1.60739 2.3886
-1.31808 -1.60593 2.37798
-1.32145 -1.60452 2.36747
-1.32117 -1.6038 2.35796
-1.32389 -1.60251 2.34765
-1.32466 -1.6016 2.33789
-1.32685 -1.60041 2.32775
-1.32868 -1.5993 2.31772
-1.33014 -1.59826 2.3078
-1.32703 -1.59806 2.29911
-1.32795 -1.59711 2.28936
-1.32531 -1.59682 2.28055
-1.32549 -1.59602 2.27101
-1.32216 -1.59586 2.26239
-1.32138 -1.59523 2.25312
-1.3206 -1.59461 2.24385
-1.31643 -1.5946 2.23546
-1.31202 -1.59464 2.22713
-1.31064 -1.59413 2.21803
-1.3057 -1.59426 2.20984
-1.30272 -1.59404 2.20115
-1.29776 -1.59418 2.19297
-1.29177 -1.59451 2.18504
-1.28545 -1.5949 2.17719
-1.28036 -1.59507 2.16902
-1.27472 -1.59533 2.161
-1.26741 -1.5959 2.15338
-1.25978 -1.59653 2.14583
-1.24705 -1.59809 2.13952
-1.23869 -1.59884 2.13213
-1.23004 -1.59965 2.12481
-1.21589 -1.60147 2.11879
-1.20394 -1.60288 2.11223
-1.18871 -1.60489 2.10644
-1.16726 -1.60802 2.1021
-1.14774 -1.61081 2.09727
-1.10564 -1.61769 2.09774
-1.16926 -1.6312 2.54648
-1.20237 -1.62429 2.52708
-1.22381 -1.61954 2.51111
-1.24099 -1.61558 2.49641
-1.25078 -1.61298 2.48386
-1.26371 -1.60981 2.47045
-1.27272 -1.60737 2.45818
-1.28125 -1.60502 2.44608
-1.28982 -1.60266 2.43399
-1.29469 -1.60098 2.42296
-1.29929 -1.59935 2.41203
-1.30272 -1.59795 2.40144
-1.30662 -1.59645 2.39074
-1.31021 -1.59502 2.38013
-1.31348 -1.59364 2.36964
-1.31454 -1.59267 2.35976
-1.3173 -1.59139 2.34944
-1.31972 -1.59018 2.33922
-1.32178 -1.58903 2.32911
-1.32025 -1.58854 2.31997
-1.32048 -1.58773 2.31038
-1.31845 -1.58733 2.30139
-1.31925 -1.58642 2.29166
-1.31967 -1.58557 2.28204
-1.31658 -1.58537 2.27334
-1.31593 -1.58472 2.26402
-1.3123 -1.58462 2.25547
-1.3114 -1.58402 2.24623
-1.30718 -1.58402 2.23784
-1.30571 -1.58352 2.22875
-1.30122 -1.58358 2.22044
-1.29618 -1.58373 2.21226
-1.29377 -1.58341 2.20342
-1.28802 -1.58369 2.19542
-1.28193 -1.58403 2.18751
-1.27551 -1.58444 2.17967
-1.26877 -1.5849 2.17191
-1.26169 -1.58542 2.16422
-1.2543 -1.586 2.15661
-1.2466 -1.58664 2.14907
-1.23658 -1.58769 2.14208
-1.22813 -1.58846 2.1347
-1.21426 -1.59021 2.12863
-1.20513 -1.5911 2.12139
-1.19032 -1.59301 2.1155
-1.17209 -1.59554 2.11041
-1.15035 -1.59871 2.10613
-1.12454 -1.6026 2.10277
-1.06548 -1.6125 2.10721
-1.17369 -1.61774 2.5452
-1.2026 -1.61166 2.52702
-1.22044 -1.6076 2.51208
-1.23752 -1.60369 2.4974
-1.24724 -1.60113 2.48486
-1.26007 -1.598 2.47148
-1.26897 -1.59559 2.45924
-1.27437 -1.59383 2.44801
-1.28245 -1.59158 2.43605
-1.28724 -1.58993 2.42504
-1.29176 -1.58833 2.41412
-1.29599 -1.58679 2.4033
-1.29993 -1.5853 2.39258
-1.30356 -1.58387 2.38196
-1.30687 -1.58249 2.37145
-1.30984 -1.58118 2.36104
-1.31248 -1.57994 2.35074
-1.31153 -1.57934 2.34142
-1.31348 -1.57822 2.33134
-1.31382 -1.57739 2.32169
-1.31202 -1.57696 2.31263
-1.31307 -1.576 2.30281
-1.31373 -1.57512 2.29311
-1.31089 -1.57487 2.28434
-1.31035 -1.57421 2.27497
-1.30698 -1.57406 2.26635
-1.30632 -1.57342 2.25703
-1.30223 -1.5734 2.2486
-1.29796 -1.57341 2.24021
-1.29662 -1.57289 2.23108
-1.29182 -1.573 2.22283
-1.28668 -1.57317 2.21468
-1.28415 -1.57287 2.20585
-1.2783 -1.57317 2.19787
-1.27211 -1.57352 2.18997
-1.26559 -1.57394 2.18215
-1.25875 -1.57442 2.1744
-1.25158 -1.57495 2.16673
-1.24409 -1.57554 2.15913
-1.23629 -1.57619 2.1516
-1.22612 -1.57726 2.14464
-1.21481 -1.57854 2.13794
-1.20359 -1.57979 2.13121
-1.18905 -1.58165 2.12527
-1.17398 -1.58359 2.11943
-1.15274 -1.58665 2.11504
-1.13337 -1.58936 2.11017
-1.10115 -1.59437 2.10831
-1.17401 -1.60505 2.54511
-1.19957 -1.59961 2.52789
-1.21711 -1.59565 2.51303
-1.23408 -1.59179 2.49838
-1.24373 -1.58926 2.48586
-1.25644 -1.58618 2.4725
-1.26209 -1.58438 2.46118
-1.27056 -1.58207 2.44908
-1.27564 -1.58038 2.43795
-1.28321 -1.57824 2.42616
-1.28763 -1.57667 2.41526
-1.29176 -1.57516 2.40447
-1.29558 -1.5737 2.39377
-1.2991 -1.5723 2.38318
-1.30229 -1.57096 2.37269
-1.30188 -1.57027 2.3632
-1.30442 -1.56905 2.35292
-1.30506 -1.56817 2.34317
-1.30384 -1.56763 2.33392
-1.30549 -1.56657 2.32392
-1.30677 -1.56558 2.31403
-1.30453 -1.56523 2.30508
-1.30431 -1.56451 2.2956
-1.30155 -1.56425 2.2868
-1.30153 -1.5635 2.27728
-1.29806 -1.56336 2.26868
-1.29714 -1.56277 2.25941
-1.29313 -1.56274 2.25095
-1.29178 -1.56223 2.24181
-1.28735 -1.56227 2.23346
-1.28245 -1.56239 2.22523
-1.27721 -1.56258 2.21708
-1.27455 -1.5623 2.20828
-1.2686 -1.56261 2.20031
-1.26231 -1.56298 2.19243
-1.25569 -1.56342 2.18462
-1.24875 -1.56391 2.17689
-1.24148 -1.56445 2.16923
-1.23389 -1.56506 2.16164
-1.22126 -1.56656 2.15529
-1.21292 -1.56729 2.14787
-1.2043 -1.56808 2.1405
-1.19022 -1.56984 2.13445
-1.17559 -1.57169 2.12852
-1.15756 -1.57415 2.12337
-1.14173 -1.57621 2.11767
-1.1137 -1.58044 2.11485
-1.07758 -1.58611 2.1139
-1.10781 -1.60514 2.57416
-1.17082 -1.59298 2.54603
-1.19634 -1.5876 2.52881
-1.2138 -1.58368 2.51398
-1.23066 -1.57987 2.49936
-1.24024 -1.57737 2.48685
-1.24941 -1.57495 2.47449
-1.2584 -1.57256 2.46221
-1.26677 -1.57029 2.45014
-1.27175 -1.56863 2.43904
-1.27648 -1.56702 2.42803
-1.28093 -1.56546 2.41712
-1.28421 -1.56411 2.40655
-1.28795 -1.56268 2.39587
-1.29136 -1.5613 2.3853
-1.29247 -1.56035 2.37537
-1.29538 -1.55907 2.36497
-1.29795 -1.55785 2.35467
-1.29696 -1.55727 2.34535
-1.29885 -1.55618 2.33526
-1.30036 -1.55515 2.32529
-1.29836 -1.55476 2.31626
-1.29826 -1.55402 2.30674
-1.29574 -1.55372 2.29786
-1.29596 -1.55293 2.28827
-1.29274 -1.55275 2.27959
-1.29194 -1.55214 2.27027
-1.28818 -1.55206 2.26174
-1.28406 -1.55205 2.25329
-1.28277 -1.55153 2.24413
-1.27811 -1.55161 2.23583
-1.27311 -1.55175 2.22761
-1.26776 -1.55195 2.21948
-1.26577 -1.55156 2.2105
-1.25989 -1.55185 2.20251
-1.25367 -1.55221 2.1946
-1.24711 -1.55263 2.18676
-1.23877 -1.55336 2.17937
-1.23139 -1.55392 2.17173
-1.22092 -1.55503 2.16484
-1.21294 -1.5557 2.15733
-1.20252 -1.55679 2.15041
-1.18873 -1.55849 2.14429
-1.17691 -1.55983 2.13768
-1.15945 -1.56217 2.13241
-1.14402 -1.56414 2.12662
-1.12237 -1.56722 2.1223
-1.09661 -1.57101 2.11892
-1.0376 -1.58067 2.12337
-1.12704 -1.58896 2.56859
-1.17117 -1.58028 2.54593
-1.19315 -1.57557 2.52973
-1.21034 -1.57173 2.51497
-1.22384 -1.56855 2.5013
-1.23336 -1.56608 2.4888
-1.24258 -1.56367 2.47642
-1.25474 -1.56074 2.46325
-1.25662 -1.55964 2.45299
-1.26788 -1.55687 2.44012
-1.2725 -1.55529 2.42914
-1.27354 -1.55435 2.41917
-1.27761 -1.55287 2.40837
-1.28138 -1.55144 2.39768
-1.28483 -1.55007 2.38709
-1.28796 -1.54876 2.3766
-1.28752 -1.54809 2.3671
-1.28999 -1.5469 2.35683
-1.2921 -1.54578 2.34666
-1.29069 -1.54528 2.33745
-1.29089 -1.54449 2.32782
-1.28897 -1.54408 2.31876
-1.28982 -1.54318 2.30898
-1.29029 -1.54235 2.2993
-1.28731 -1.54214 2.29054
-1.28358 -1.54205 2.28198
-1.28311 -1.54139 2.27258
-1.27924 -1.54132 2.26406
-1.27801 -1.5408 2.25486
-1.27365 -1.54082 2.24647
-1.2689 -1.54092 2.23819
-1.26428 -1.54099 2.22986
-1.259 -1.54118 2.22171
-1.25543 -1.54107 2.21312
-1.25029 -1.54123 2.20493
-1.24396 -1.5416 2.19703
-1.2373 -1.54203 2.18921
-1.22601 -1.54328 2.18254
-1.21855 -1.54385 2.17491
-1.21078 -1.54447 2.16734
-1.2027 -1.54515 2.15985
-1.18941 -1.54674 2.15361
-1.18061 -1.54754 2.14627
-1.16632 -1.54931 2.14024
-1.14606 -1.55212 2.13564
-1.13053 -1.55409 2.12986
-1.10557 -1.55772 2.12632
-1.07342 -1.5626 2.12444
-1.13132 -1.57548 2.56735
-1.16843 -1.56812 2.54672
-1.18969 -1.56358 2.53073
-1.20708 -1.55973 2.5159
-1.21709 -1.5572 2.50322
-1.22994 -1.55416 2.48978
-1.23906 -1.55179 2.47742
-1.24772 -1.54949 2.46522
-1.25291 -1.54782 2.45403
-1.25785 -1.54619 2.44293
-1.26523 -1.54414 2.43116
-1.26949 -1.54263 2.42029
-1.27345 -1.54118 2.40952
-1.27711 -1.53978 2.39885
-1.28044 -1.53845 2.38829
-1.28023 -1.53774 2.37871
-1.28291 -1.53652 2.36836
-1.28207 -1.53592 2.35897
-1.28258 -1.53508 2.34922
-1.28439 -1.53402 2.33914
-1.2827 -1.53357 2.33001
-1.28379 -1.53264 2.32014
-1.28142 -1.53232 2.3112
-1.28106 -1.53164 2.30174
-1.27815 -1.53141 2.29295
-1.27793 -1.5307 2.28346
-1.27431 -1.5306 2.27487
-1.27034 -1.53056 2.26637
-1.26908 -1.53004 2.25717
-1.26476 -1.53005 2.24876
-1.26008 -1.53014 2.24045
-1.25504 -1.53028 2.23222
-1.24966 -1.53048 2.22409
-1.24393 -1.53075 2.21603
-1.23786 -1.53107 2.20806
-1.23145 -1.53145 2.20017
-1.22471 -1.53189 2.19236
-1.21763 -1.53239 2.18463
-1.21023 -1.53295 2.17697
-1.20065 -1.53388 2.16984
-1.18975 -1.53504 2.16302
-1.17636 -1.53664 2.1568
-1.16505 -1.53787 2.15006
-1.15046 -1.53967 2.14409
-1.13534 -1.54156 2.13822
-1.11407 -1.54452 2.13382
-1.08614 -1.54863 2.13096
-1.05004 -1.55416 2.13
-1.13218 -1.56263 2.5671
-1.16497 -1.55609 2.54772
-1.18655 -1.55153 2.53163
-1.20044 -1.54832 2.5178
-1.21369 -1.54524 2.50419
-1.22654 -1.54222 2.49074
-1.23556 -1.53989 2.47841
-1.24101 -1.53818 2.46711
-1.24921 -1.53599 2.45507
-1.25405 -1.53439 2.44399
-1.25863 -1.53284 2.433
-1.26292 -1.53134 2.42211
-1.26366 -1.53047 2.41222
-1.26736 -1.52907 2.40153
-1.27075 -1.52774 2.39094
-1.27381 -1.52646 2.38046
-1.27335 -1.5258 2.37095
-1.27574 -1.52464 2.36068
-1.27778 -1.52354 2.35052
-1.27633 -1.52306 2.34131
-1.27648 -1.52229 2.33167
-1.27451 -1.5219 2.32261
-1.27528 -1.52103 2.31283
-1.27262 -1.52076 2.30397
-1.27263 -1.52002 2.2944
-1.26926 -1.51987 2.28573
-1.26533 -1.51982 2.27721
-1.26144 -1.51976 2.26868
-1.2602 -1.51924 2.25946
-1.25576 -1.51928 2.25108
-1.25097 -1.51938 2.24278
-1.24583 -1.51954 2.23458
-1.24034 -1.51976 2.22645
-1.2345 -1.52004 2.21842
-1.22833 -1.52038 2.21046
-1.22181 -1.52077 2.20259
-1.21496 -1.52123 2.1948
-1.20778 -1.52174 2.18708
-1.20028 -1.52231 2.17943
-1.18783 -1.52373 2.173
-1.17956 -1.52442 2.16553
-1.16605 -1.52603 2.15932
-1.15193 -1.52773 2.15325
-1.13725 -1.52953 2.14729
-1.12203 -1.53143 2.14143
-1.10064 -1.53438 2.13704
-1.07514 -1.53804 2.13359
-1.02396 -1.54612 2.13621
-1.1292 -1.55044 2.56797
-1.16193 -1.54397 2.54859
-1.18004 -1.54005 2.5335
-1.19704 -1.53633 2.51877
-1.20705 -1.53383 2.50609
-1.21645 -1.53145 2.49361
-1.22885 -1.52854 2.48031
-1.23744 -1.52629 2.46812
-1.24257 -1.52466 2.45693
-1.24698 -1.52314 2.44596
-1.25147 -1.52162 2.43499
-1.25567 -1.52015 2.42412
-1.25958 -1.51873 2.41335
-1.26317 -1.51737 2.40269
-1.26644 -1.51607 2.39213
-1.2662 -1.51537 2.38254
-1.26881 -1.51418 2.37219
-1.26793 -1.5136 2.36279
-1.26838 -1.51279 2.35305
-1.26701 -1.51229 2.34381
-1.26839 -1.51132 2.33384
-1.26939 -1.51041 2.32398
-1.26697 -1.5101 2.31503
-1.26421 -1.50984 2.30618
-1.26359 -1.50922 2.29678
-1.26029 -1.50906 2.28808
-1.25665 -1.50896 2.27947
-1.25559 -1.50841 2.2702
-1.25133 -1.50842 2.26176
-1.24678 -1.50847 2.25339
-1.24189 -1.50859 2.24511
-1.23719 -1.50867 2.23678
-1.23177 -1.50888 2.22863
-1.226 -1.50914 2.22057
-1.21989 -1.50947 2.21259
-1.21343 -1.50985 2.20469
-1.20524 -1.51053 2.19723
-1.19795 -1.51105 2.18952
-1.18762 -1.5121 2.18257
-1.17971 -1.51273 2.175
-1.16671 -1.51423 2.16868
-1.1531 -1.51584 2.16249
-1.14402 -1.51667 2.15517
-1.1241 -1.51935 2.15047
-1.10877 -1.52124 2.14463
-1.08411 -1.52473 2.14101
-1.05569 -1.52886 2.13824
-1.12969 -1.53765 2.56783
-1.15894 -1.53183 2.54945
-1.17664 -1.52801 2.53447
-1.19389 -1.52428 2.51967
-1.20368 -1.52184 2.50705
-1.2131 -1.51947 2.49456
-1.22209 -1.51718 2.48222
-1.22749 -1.5155 2.47092
-1.23565 -1.51335 2.45887
-1.24044 -1.51179 2.44779
-1.24496 -1.51027 2.4368
-1.24919 -1.50881 2.42592
-1.25313 -1.5074 2.41513
-1.25355 -1.50659 2.40533
-1.25687 -1.50529 2.39475
-1.25986 -1.50404 2.38427
-1.25937 -1.50339 2.37475
-1.26168 -1.50227 2.36448
-1.26054 -1.50173 2.35516
-1.26215 -1.50073 2.34511
-1.26034 -1.50031 2.33599
-1.26023 -1.4996 2.32641
-1.25789 -1.49928 2.31744
-1.2582 -1.4985 2.30777
-1.25515 -1.4983 2.299
-1.25175 -1.49815 2.29032
-1.248 -1.49807 2.28173
-1.24679 -1.49755 2.27248
-1.24257 -1.49755 2.26402
-1.23809 -1.4976 2.25563
-1.23327 -1.4977 2.24732
-1.22808 -1.49786 2.2391
-1.22255 -1.49808 2.23097
-1.21668 -1.49836 2.22293
-1.21045 -1.4987 2.21497
-1.20389 -1.4991 2.20709
-1.19699 -1.49955 2.19929
-1.18543 -1.5008 2.19264
-1.17773 -1.50139 2.18502
-1.16704 -1.50249 2.17813
-1.15658 -1.50354 2.17117
-1.14283 -1.50516 2.165
-1.13104 -1.50644 2.15833
-1.111 -1.50912 2.15365
-1.09258 -1.51152 2.14854
-1.07075 -1.5145 2.14422
-1.03623 -1.51963 2.14289
-1.12339 -1.52602 2.56965
-1.1526 -1.52026 2.55128
-1.17362 -1.5159 2.53534
-1.18407 -1.51337 2.52248
-1.19715 -1.51039 2.50891
-1.2065 -1.50805 2.49643
-1.21546 -1.50577 2.48409
-1.22402 -1.50357 2.4719
-1.22909 -1.50197 2.46071
-1.23391 -1.50041 2.44961
-1.24115 -1.49844 2.43786
-1.24528 -1.49701 2.427
-1.24591 -1.49617 2.41713
-1.24943 -1.49484 2.40646
-1.25263 -1.49357 2.39591
-1.25236 -1.49289 2.38631
-1.25489 -1.49173 2.37597
-1.25398 -1.49116 2.36657
