ply
format ascii 1.0
comment Created by Open3D
element vertex 1733
property double x
property double y
property double z
end_header
-1.0434 -0.97606 2.22905
-1.01988 -0.975958 2.23008
-0.782963 -0.975895 2.33771
-0.849504 -0.975872 2.29352
-0.774293 -0.975888 2.32012
-1.04639 -0.976001 2.17284
-0.91256 -0.976077 2.2286
-0.934368 -0.976194 2.20645
-0.667291 -0.976523 2.32822
-0.980616 -0.976701 2.16015
-0.726807 -0.976918 2.27556
-0.725407 -0.977176 2.26465
-0.86951 -0.977565 2.18066
-0.712523 -0.977882 2.24739
-0.886357 -0.978397 2.14821
-0.641681 -0.978795 2.25857
-0.949635 -0.979386 2.09212
-0.589086 -0.979992 2.25988
-1.0659 -0.98063 2.00885
-0.790526 -0.981371 2.13365
-0.804353 -0.982102 2.11386
-0.525743 -0.982867 2.24018
-0.710625 -0.983945 2.13394
-0.791347 -0.984925 2.08
-0.77046 -0.985804 2.07711
-0.844089 -0.987405 2.02508
-0.602208 -0.988874 2.13111
-0.480978 -0.990807 2.17556
-0.479494 -0.992843 2.15983
-0.46667 -0.997067 2.14398
-0.898122 -0.985242 2.50839
-0.692106 -0.980904 2.60921
-0.859622 -0.978988 2.5183
-0.832661 -0.976874 2.52508
-0.76888 -0.975492 2.54877
-0.633894 -0.973477 2.60944
-0.733456 -0.972611 2.55043
-0.711499 -0.971351 2.55304
-1.02479 -0.970539 2.38709
-0.902984 -0.96997 2.43818
-0.812729 -0.968835 2.47474
-0.738373 -0.968114 2.50246
-0.979742 -0.967635 2.37181
-0.98125 -0.966974 2.3615
-0.966516 -0.966346 2.35926
-1.10111 -0.965956 2.28183
-0.896148 -0.965396 2.37457
-0.910681 -0.965072 2.35704
-0.82143 -0.964823 2.39124
-0.858901 -0.964551 2.36214
-0.928364 -0.964313 2.31697
-0.926721 -0.964111 2.30727
-1.16729 -0.963928 2.17643
-0.745687 -0.963782 2.37659
-0.944388 -0.963674 2.26652
-0.827376 -0.963604 2.31421
-0.822881 -0.963572 2.30555
-0.95626 -0.96366 2.22768
-1.06602 -0.963687 2.16176
-0.926201 -0.963801 2.22042
-0.891048 -0.963887 2.22681
-0.748364 -0.96403 2.28682
-1.02139 -0.964176 2.13897
-0.918874 -0.964526 2.17839
-0.765632 -0.964752 2.24347
-0.733854 -0.965117 2.24747
-0.669438 -0.965402 2.26797
-0.689389 -0.965728 2.24619
-0.71135 -0.966245 2.22291
-0.803847 -0.966651 2.16463
-0.851243 -0.967231 2.12846
-0.829273 -0.967835 2.12689
-0.859502 -0.968391 2.09933
-0.856211 -0.96909 2.08816
-0.546948 -0.969854 2.22978
-0.554459 -0.970721 2.21274
-0.53602 -0.971644 2.2085
-1.03944 -0.97247 1.94357
-0.591048 -0.973647 2.15361
-0.713702 -0.975015 2.07759
-0.661798 -0.976709 2.08796
-0.638357 -0.978226 2.08452
-0.625372 -0.980764 2.07311
-0.559617 -0.984372 2.08516
-0.916442 -0.971133 2.49006
-0.638397 -0.968036 2.62445
-0.674017 -0.965452 2.60098
-1.00205 -0.964065 2.4288
-0.928362 -0.96204 2.45888
-0.528393 -0.960731 2.6506
-0.962444 -0.959881 2.42434
-0.546648 -0.958647 2.62386
-0.728408 -0.957852 2.52367
-0.747835 -0.957294 2.50413
-1.01538 -0.956188 2.36177
-0.82314 -0.955486 2.44842
-0.886532 -0.955019 2.40675
-0.823426 -0.954378 2.42873
-0.884113 -0.953969 2.3883
-1.02494 -0.953393 2.30818
-0.850242 -0.953314 2.38471
-0.87573 -0.95279 2.36217
-1.0302 -0.952495 2.27462
-0.979629 -0.952233 2.28952
-0.751391 -0.952006 2.39318
-0.93019 -0.951814 2.29324
-0.948064 -0.951641 2.27372
-0.9344 -0.951479 2.26995
-0.635794 -0.951409 2.40844
-0.719426 -0.951461 2.35551
-0.751399 -0.951349 2.32881
-0.945614 -0.951329 2.22077
-1.17516 -0.951455 2.09471
-0.811225 -0.951572 2.26541
-0.725031 -0.951668 2.29728
-0.764035 -0.951812 2.26644
-0.874894 -0.951968 2.19963
-0.828058 -0.952296 2.21124
-0.765056 -0.95251 2.23121
-1.02768 -0.952765 2.08826
-0.735299 -0.953209 2.22233
-0.839233 -0.953544 2.15851
-0.770567 -0.953942 2.18081
-1.14963 -0.954475 1.9789
-0.750936 -0.954907 2.16612
-0.736639 -0.955513 2.16068
-0.521622 -0.956155 2.25549
-0.861255 -0.95683 2.07287
-0.712748 -0.957654 2.13392
-0.848071 -0.958406 2.05322
-0.492768 -0.959179 2.21776
-0.654903 -0.960281 2.1227
-0.577815 -0.961458 2.14702
-0.549702 -0.96247 2.14726
-0.563265 -0.964241 2.12461
-0.354229 -0.966122 2.21291
-0.628642 -0.968102 2.05918
-0.547579 -0.972688 2.07604
-0.986278 -0.962884 2.4447
-0.740281 -0.957036 2.56902
-1.02908 -0.953993 2.42001
-1.05091 -0.951929 2.40242
-0.767656 -0.950574 2.53588
-0.977982 -0.949251 2.4225
-0.777306 -0.947967 2.51457
-1.05479 -0.947134 2.36658
-0.746834 -0.945926 2.51218
-1.05725 -0.945149 2.34765
-0.565553 -0.944602 2.58367
-0.622508 -0.943525 2.54658
-0.786749 -0.942842 2.45498
-0.661261 -0.942387 2.50773
-1.18171 -0.941766 2.23791
-1.13919 -0.94166 2.24839
-0.612762 -0.941087 2.50192
-0.83462 -0.940738 2.3808
-0.857043 -0.940421 2.35932
-1.0668 -0.939953 2.24455
-0.976567 -0.939704 2.27925
-0.817222 -0.939683 2.34798
-0.928217 -0.939486 2.28195
-0.996521 -0.939313 2.23722
-0.723647 -0.939172 2.36301
-0.746594 -0.939067 2.3408
-0.750247 -0.939114 2.32787
-1.119 -0.939065 2.13262
-0.805223 -0.939056 2.27854
-1.14287 -0.939147 2.0985
-0.895338 -0.939195 2.21116
-0.760016 -0.939439 2.26722
-1.14926 -0.939565 2.06129
-0.68096 -0.939719 2.28405
-0.807157 -0.940053 2.20911
-0.650103 -0.940277 2.27606
-0.761188 -0.94062 2.20863
-0.526836 -0.940902 2.31408
-0.869229 -0.941224 2.13104
-0.915628 -0.941723 2.09552
-0.814233 -0.942253 2.13382
-0.458094 -0.942669 2.29977
-0.834499 -0.943253 2.099
-0.656692 -0.943872 2.17523
-0.608999 -0.944525 2.18629
-0.466689 -0.945211 2.24456
-0.746741 -0.946187 2.09086
-0.620663 -0.946958 2.14075
-0.723818 -0.94787 2.07562
-0.812994 -0.949019 2.01682
-0.459585 -0.950239 2.1791
-0.645991 -0.951628 2.07097
-0.33491 -0.953075 2.21139
-0.632415 -0.955412 2.04503
-0.432361 -0.95945 2.12268
-0.750138 -0.94713 2.5571
-0.779343 -0.942958 2.54042
-0.762091 -0.940436 2.54342
-0.820561 -0.939076 2.50604
-0.953808 -0.937744 2.43125
-1.19864 -0.936445 2.30062
-1.12975 -0.935185 2.32679
-1.18487 -0.93437 2.28998
-1.12722 -0.933188 2.31041
-1.01999 -0.93243 2.35469
-1.02422 -0.931894 2.34275
-0.918958 -0.931188 2.38595
-0.646317 -0.93051 2.5128
-1.14961 -0.930053 2.25119
-0.806046 -0.929435 2.41338
-0.768293 -0.929036 2.42217
-0.837122 -0.928666 2.37761
-1.13017 -0.928147 2.2213
-0.962091 -0.927843 2.29506
-0.80932 -0.927572 2.36109
-0.880352 -0.927536 2.31466
-0.721543 -0.927143 2.38401
-0.875438 -0.92696 2.29651
-0.616852 -0.926966 2.41479
-0.866725 -0.926835 2.27918
-0.972963 -0.926742 2.21529
-0.804285 -0.92679 2.28851
-0.754583 -0.926753 2.30246
-0.961302 -0.926754 2.1881
-0.696791 -0.926847 2.30913
-1.04261 -0.927057 2.12468
-0.585854 -0.927025 2.34214
-0.799144 -0.92729 2.22382
-1.0746 -0.927445 2.07469
-0.757486 -0.927751 2.22145
-0.848275 -0.927964 2.1645
-0.814807 -0.928216 2.16956
-0.669953 -0.928644 2.22985
-0.715265 -0.929004 2.19523
-0.774533 -0.929476 2.15332
-0.866384 -0.929867 2.09533
-0.730777 -0.930387 2.15071
-0.617686 -0.93088 2.1949
-0.734899 -0.931502 2.12357
-0.810219 -0.932175 2.07303
-0.763574 -0.932959 2.08317
-0.488198 -0.933677 2.20782
-0.715594 -0.934535 2.0807
-0.433377 -0.935313 2.20857
-0.801556 -0.936436 2.01028
-0.746236 -0.937728 2.02324
-0.616863 -0.938986 2.0733
-0.736196 -0.940791 1.99743
-0.861899 -0.943115 1.91688
-0.574255 -0.946656 2.03951
-0.792376 -0.932544 2.52793
-0.60569 -0.930026 2.61569
-0.967579 -0.927544 2.42914
-0.909375 -0.926206 2.4501
-0.740618 -0.924896 2.52631
-0.968847 -0.923621 2.40399
-0.840706 -0.922387 2.45978
-1.00881 -0.921589 2.36647
-1.0611 -0.920434 2.33192
-1.06637 -0.919695 2.31994
-0.620715 -0.919171 2.53293
-0.849562 -0.918483 2.40906
-0.802764 -0.91801 2.42253
-0.94207 -0.91738 2.34333
-0.933352 -0.916963 2.33765
-0.788805 -0.916397 2.40026
-0.798248 -0.91604 2.38537
-0.688796 -0.915715 2.42986
-0.787361 -0.915479 2.37014
-0.608727 -0.915203 2.44912
-0.669031 -0.914961 2.40855
-1.12504 -0.914754 2.17005
-0.700939 -0.914745 2.37112
-0.77242 -0.914582 2.32478
-0.937748 -0.914446 2.23145
-0.935368 -0.914389 2.22178
-1.02503 -0.914439 2.16582
-0.655062 -0.914412 2.33987
-1.18434 -0.914489 2.06403
-0.579555 -0.914519 2.35534
-0.526059 -0.914622 2.37082
-0.958202 -0.91484 2.14318
-0.918735 -0.914978 2.15154
-0.566452 -0.915125 2.31629
-0.814859 -0.915444 2.18023
-0.866201 -0.915667 2.14296
-0.802715 -0.915989 2.16283
-0.82773 -0.916268 2.13855
-0.664724 -0.916587 2.20817
-0.938363 -0.917069 2.05902
-0.877874 -0.917565 2.07689
-0.621934 -0.917976 2.1927
-0.428764 -0.918541 2.2767
-0.499891 -0.919062 2.22865
-0.671461 -0.919673 2.13013
-0.563635 -0.920439 2.17085
-0.793142 -0.921242 2.04279
-0.625635 -0.921969 2.11343
-0.702902 -0.923019 2.06076
-0.559003 -0.92392 2.11907
-0.516481 -0.925085 2.12592
-0.843143 -0.926406 1.9477
-0.436991 -0.928082 2.13485
-0.748637 -0.930029 1.96229
-0.637707 -0.933383 1.99691
-0.802414 -0.923414 2.51387
-0.704736 -0.918899 2.56169
-0.894862 -0.916424 2.46106
-0.688112 -0.914634 2.55735
-0.897601 -0.913318 2.44448
-0.616351 -0.912032 2.57694
-0.922011 -0.910782 2.4159
-0.813066 -0.909573 2.46209
-0.90338 -0.908792 2.40767
-0.722982 -0.907665 2.48944
-0.754956 -0.907128 2.46366
-0.610986 -0.906432 2.52624
-0.716602 -0.905764 2.46397
-0.862224 -0.905303 2.38122
-0.824058 -0.904869 2.39031
-0.64929 -0.904289 2.46806
-0.956204 -0.903914 2.30449
-0.772377 -0.903653 2.38601
-0.78195 -0.903325 2.37101
-0.707692 -0.903028 2.39786
-1.01347 -0.902764 2.23461
-0.990138 -0.902564 2.23576
-0.965929 -0.902351 2.23738
-1.07033 -0.90233 2.17423
-0.880169 -0.902176 2.25869
-0.887496 -0.902052 2.24433
-0.8694 -0.902078 2.2423
-0.990839 -0.902008 2.17075
-0.837622 -0.90212 2.23606
-0.765466 -0.902045 2.26133
-1.1021 -0.902209 2.08157
-0.83114 -0.902269 2.20588
-0.829698 -0.902382 2.19529
-0.713795 -0.902633 2.24156
-0.69747 -0.902788 2.23829
-0.77661 -0.903074 2.18694
-0.71602 -0.903285 2.20564
-0.540245 -0.903592 2.28167
-0.682899 -0.903948 2.19835
-0.898645 -0.904286 2.07852
-0.998514 -0.904631 2.0166
-0.710201 -0.905105 2.14841
-0.77856 -0.905615 2.10177
-0.790678 -0.906159 2.08314
-1.00176 -0.90663 1.96523
-0.823916 -0.907347 2.04107
-0.493584 -0.907991 2.19335
-0.672835 -0.908667 2.09073
-0.534106 -0.909374 2.14699
-0.432699 -0.910399 2.18367
-0.642242 -0.911274 2.06528
-0.565085 -0.912413 2.08945
-0.640057 -0.913702 2.0371
-0.679991 -0.915347 2.00121
-0.401616 -0.917249 2.12367
-0.744642 -0.919588 1.93412
-0.712291 -0.908816 2.5509
-0.779347 -0.904812 2.51539
-0.587747 -0.903026 2.60414
-0.880105 -0.901083 2.45133
-0.950941 -0.899801 2.40777
-1.18243 -0.898553 2.28384
-0.929049 -0.897741 2.40133
-0.977061 -0.896743 2.3686
-0.839756 -0.895981 2.42798
-0.953168 -0.894881 2.36283
-1.0192 -0.894704 2.31916
-0.813442 -0.893679 2.41347
-0.647388 -0.893203 2.48659
-0.731437 -0.892583 2.43504
-0.929252 -0.892161 2.32612
-0.730409 -0.891878 2.41521
-0.839045 -0.8915 2.35079
-0.781792 -0.891152 2.36925
-0.752653 -0.890834 2.37359
-0.640396 -0.890608 2.41926
-0.773157 -0.89034 2.34254
-0.840218 -0.890106 2.29859
-0.832016 -0.889905 2.29218
-0.93327 -0.889893 2.23057
-0.761119 -0.889744 2.30601
-0.926471 -0.88963 2.21262
-0.809943 -0.889659 2.25979
-0.774295 -0.8896 2.26676
-0.905178 -0.889654 2.19016
-0.845973 -0.88973 2.20854
-0.632566 -0.889819 2.30399
-0.598923 -0.889915 2.30954
-1.04831 -0.890004 2.07358
-0.796958 -0.890255 2.18756
-0.694117 -0.890399 2.22757
-0.724566 -0.890671 2.20057
-0.817017 -0.890871 2.14277
-0.613591 -0.891111 2.23279
-0.816132 -0.891505 2.11939
-1.12368 -0.891829 1.95368
-0.800009 -0.892268 2.10325
-0.8934 -0.892642 2.04445
-0.821874 -0.893107 2.06785
-0.696943 -0.893632 2.11777
-0.772163 -0.894191 2.0675
-0.740016 -0.894783 2.07081
-0.529035 -0.895407 2.16343
-0.810748 -0.896063 2.00959
-0.77132 -0.897017 2.01545
-0.695335 -0.897752 2.0402
-0.513779 -0.8986 2.11738
-0.676313 -0.899714 2.02172
-0.631279 -0.900972 2.02939
-0.458723 -0.902285 2.10063
-0.468903 -0.904043 2.07914
-0.508761 -0.90631 2.04126
-0.642792 -0.894684 2.57665
-0.614271 -0.89182 2.58644
-0.906037 -0.890061 2.43353
-0.64083 -0.888155 2.5595
-0.827052 -0.886896 2.45825
-1.01084 -0.885672 2.35816
-0.726989 -0.884878 2.49089
-0.701089 -0.884279 2.49418
-0.741493 -0.883155 2.46562
-0.677322 -0.882434 2.48839
-0.837562 -0.881909 2.39848
-0.90976 -0.881238 2.35297
-0.518599 -0.880761 2.53867
-0.756618 -0.880145 2.41015
-0.643329 -0.879722 2.4568
-0.800563 -0.879327 2.36813
-0.806202 -0.87896 2.3552
-0.922852 -0.87871 2.28648
-0.890125 -0.87839 2.29262
-0.487055 -0.878101 2.48387
-0.633807 -0.877844 2.40013
-1.01397 -0.877621 2.19961
-0.855017 -0.877595 2.26812
-0.649948 -0.877422 2.36009
-0.600648 -0.877285 2.37408
-0.716458 -0.877298 2.30512
-0.942483 -0.877214 2.18131
-0.679493 -0.877253 2.30168
-0.743208 -0.877223 2.25888
-0.72875 -0.877287 2.25491
-0.529769 -0.877403 2.34307
-0.860956 -0.877501 2.16618
-0.52571 -0.877608 2.32248
-0.657186 -0.877845 2.24506
-0.562729 -0.877979 2.28089
-0.815877 -0.878152 2.1428
-0.766097 -0.878479 2.15575
-1.0199 -0.878767 2.017
-0.715816 -0.879032 2.15725
-0.803631 -0.879444 2.10113
-0.645553 -0.879767 2.1682
-0.656458 -0.880197 2.15046
-0.860466 -0.88062 2.03618
-0.549687 -0.881076 2.17919
-0.33743 -0.881617 2.27268
-0.598315 -0.88219 2.12949
-0.792948 -0.882795 2.01932
-0.908846 -0.883432 1.94841
-0.660949 -0.884184 2.05904
-0.61801 -0.885077 2.06675
-0.653617 -0.8859 2.03538
-0.70853 -0.886988 1.99353
-0.808131 -0.887873 1.92993
-0.351445 -0.889496 2.14223
-0.52154 -0.891149 2.041
-0.512695 -0.893023 2.02853
-0.377023 -0.896724 2.07385
-0.709675 -0.88639 2.53162
-0.797659 -0.880569 2.49027
-0.633328 -0.878812 2.56544
-0.766877 -0.876902 2.49209
-0.668187 -0.875211 2.53438
-0.779264 -0.873976 2.4707
-0.876694 -0.872777 2.41379
-0.587581 -0.872 2.54914
-0.624545 -0.871412 2.521
-0.942853 -0.870315 2.35348
-0.777858 -0.869778 2.42623
-0.994734 -0.8691 2.30841
-0.671829 -0.868609 2.46003
-0.63333 -0.867984 2.4698
-0.768912 -0.867545 2.39206
-0.914139 -0.867258 2.30912
-0.576897 -0.866597 2.4684
-0.764597 -0.866492 2.36377
-1.15467 -0.866153 2.15857
-1.00608 -0.865844 2.22264
-0.635383 -0.865629 2.39751
-0.726569 -0.865369 2.34157
-0.614184 -0.865142 2.38733
-0.675367 -0.865111 2.34579
-0.927547 -0.864934 2.20915
-0.790131 -0.864925 2.26685
-0.610181 -0.8648 2.34614
-0.807906 -0.86484 2.23614
-0.90747 -0.864744 2.17559
-0.823284 -0.864834 2.20641
-0.713386 -0.864833 2.25034
-0.648102 -0.864907 2.27174
-0.963762 -0.865081 2.1024
-1.00698 -0.86518 2.06948
-0.710577 -0.865289 2.20635
-0.595291 -0.865528 2.25228
-0.751698 -0.865691 2.16258
-0.612072 -0.866001 2.22046
-0.885706 -0.866275 2.07182
-0.558066 -0.866529 2.22386
-0.711811 -0.866924 2.1348
-0.617579 -0.867233 2.16996
-0.743492 -0.867642 2.09475
-0.641762 -0.868056 2.13334
-0.195077 -0.868492 2.34433
-0.533917 -0.869014 2.16229
-0.665019 -0.869569 2.08401
-0.66552 -0.870156 2.07092
-0.601237 -0.870774 2.09011
-0.52369 -0.871501 2.11559
-0.522881 -0.872177 2.10284
-0.480146 -0.873173 2.11007
-0.476832 -0.873992 2.09809
-0.580577 -0.875095 2.0317
-0.519515 -0.876324 2.0473
-0.549857 -0.87792 2.01603
-0.516949 -0.879727 2.01569
-0.512819 -0.881973 1.99955
-0.606827 -0.870747 2.57761
-0.48875 -0.867519 2.63327
-0.956323 -0.865186 2.39399
-0.884796 -0.863913 2.42171
-0.896489 -0.862252 2.40881
-0.828772 -0.861041 2.43453
-1.02151 -0.860254 2.32899
-0.788018 -0.859485 2.43654
-0.849813 -0.858531 2.39694
-0.68733 -0.857812 2.4689
-0.71249 -0.857276 2.44659
-1.05245 -0.856278 2.26809
-0.949532 -0.856113 2.30889
-0.479598 -0.855494 2.53438
-0.911606 -0.855054 2.30846
-0.768317 -0.854641 2.37012
-0.788292 -0.854255 2.35009
-0.652302 -0.853754 2.40835
-0.792117 -0.853428 2.32826
-0.734696 -0.853348 2.34614
-0.827622 -0.853068 2.28939
-0.85976 -0.85282 2.26295
-1.10712 -0.852775 2.12835
-0.389149 -0.852576 2.47684
-0.622515 -0.85241 2.34958
-0.766265 -0.852405 2.26668
-0.644563 -0.852291 2.31682
-0.765509 -0.85231 2.24526
-0.644145 -0.852336 2.29483
-0.591822 -0.852292 2.31009
-0.525236 -0.852403 2.33203
-0.598524 -0.85247 2.28417
-0.529473 -0.852609 2.30726
-0.651685 -0.85271 2.23483
-0.780172 -0.85282 2.15923
-0.667995 -0.853064 2.20358
-0.801928 -0.853199 2.12518
-0.727314 -0.853493 2.15058
-0.641952 -0.853753 2.18146
-0.743555 -0.853997 2.11889
-0.707423 -0.854373 2.12479
-0.800298 -0.854669 2.06641
-0.907138 -0.855059 2.00077
-0.679619 -0.855495 2.10216
-0.513673 -0.85588 2.1729
-0.742161 -0.856384 2.04606
-0.575723 -0.856921 2.11657
-0.65933 -0.857489 2.06194
-0.834173 -0.858089 1.96159
-0.742483 -0.858791 1.99417
-0.348684 -0.859448 2.17793
-0.32103 -0.860134 2.17851
-0.723436 -0.86115 1.96302
-0.692949 -0.861968 1.96456
-0.680846 -0.863431 1.95488
-0.501842 -0.864683 2.02926
-0.353309 -0.865982 2.08823
-0.384098 -0.868601 2.05332
-0.845557 -0.856605 2.44933
-0.704702 -0.853858 2.51536
-0.636466 -0.85216 2.54252
-1.01435 -0.850908 2.34553
-0.581587 -0.849681 2.55384
-0.88947 -0.848484 2.39179
-0.839432 -0.847322 2.40863
-0.559226 -0.846728 2.53913
-0.598148 -0.845637 2.51136
-0.973397 -0.844937 2.31445
-0.713661 -0.844413 2.43458
-0.758665 -0.84376 2.4027
-0.61036 -0.843282 2.46702
-0.91391 -0.842829 2.30537
-0.846578 -0.8424 2.3291
-0.848378 -0.841857 2.31858
-0.781712 -0.841485 2.34185
-0.80733 -0.841379 2.31827
-0.723065 -0.841049 2.35024
-0.838243 -0.84075 2.28242
-0.494107 -0.840545 2.444
-1.0901 -0.840424 2.13529
-0.7101 -0.840203 2.31485
-0.712229 -0.840042 2.30319
-0.649993 -0.839997 2.3234
-0.610408 -0.83986 2.33254
-0.876672 -0.839864 2.18835
-0.713839 -0.839779 2.25897
-0.666475 -0.839808 2.27153
-0.881701 -0.839845 2.15278
-0.643249 -0.839941 2.26069
-1.02195 -0.839961 2.06024
-0.562954 -0.840039 2.27847
-0.875927 -0.840219 2.11042
-0.875759 -0.840321 2.09916
-0.907014 -0.84055 2.07182
-0.721338 -0.840775 2.15294
-0.895164 -0.840955 2.05444
-0.850671 -0.841201 2.0649
-0.708649 -0.841435 2.12415
-0.754868 -0.841792 2.08891
-0.571497 -0.842164 2.16841
-0.831055 -0.842448 2.0267
-0.528812 -0.842867 2.16547
-0.64697 -0.84324 2.09417
-0.527412 -0.843727 2.14137
-0.650616 -0.844246 2.06707
-0.735512 -0.844797 2.01182
-0.818388 -0.845378 1.95747
-0.558734 -0.845989 2.07427
-0.580312 -0.846438 2.05096
-0.664742 -0.847361 1.9947
-0.375946 -0.848116 2.12557
-0.42828 -0.849146 2.08498
-0.551885 -0.850238 2.00853
-0.558514 -0.851086 1.99132
-0.595921 -0.852689 1.95627
-0.299675 -0.854374 2.08774
-0.36057 -0.857863 2.03474
-0.696259 -0.843494 2.51255
-0.624744 -0.840789 2.54394
-0.615685 -0.839534 2.54047
-0.885785 -0.83789 2.39845
-0.828233 -0.836686 2.41915
-0.724276 -0.835513 2.46302
-0.99749 -0.834378 2.31823
-0.870462 -0.833795 2.37214
-0.679275 -0.83308 2.45849
-1.10591 -0.832535 2.2355
-0.840703 -0.831538 2.35965
-0.817941 -0.831362 2.3604
-0.540507 -0.83074 2.4897
-0.690156 -0.830287 2.40502
-0.869775 -0.829858 2.30529
-0.76736 -0.829455 2.34652
-0.959409 -0.829079 2.24046
-0.693478 -0.828836 2.36303
-0.774347 -0.828505 2.31245
-0.755569 -0.828203 2.31162
-0.618278 -0.827933 2.36997
-0.795386 -0.827871 2.27054
-0.764031 -0.827648 2.2758
-0.742967 -0.827608 2.27539
-0.983023 -0.827433 2.14482
-1.11935 -0.827407 2.06568
-0.658651 -0.827406 2.28499
-0.877714 -0.827299 2.16472
-0.990632 -0.827336 2.09712
-1.06625 -0.827366 2.04817
-0.68208 -0.827343 2.22928
-0.594489 -0.827461 2.26169
-0.745002 -0.827532 2.17517
-0.608793 -0.827697 2.23174
-0.586405 -0.827792 2.2316
-1.03683 -0.828006 1.99469
-0.633313 -0.828219 2.18476
-0.538572 -0.828389 2.22056
-0.873719 -0.828622 2.04122
-0.724788 -0.828846 2.10394
-0.658289 -0.829183 2.12509
-0.925694 -0.829459 1.97947
-0.666558 -0.82981 2.09688
-0.802581 -0.830213 2.01653
-0.671561 -0.830574 2.06983
-0.576795 -0.831044 2.10465
-0.685401 -0.831546 2.03768
-0.37036 -0.831944 2.18284
-0.434688 -0.832487 2.13784
-0.789684 -0.833061 1.9474
-0.588762 -0.833664 2.03481
-0.869507 -0.834295 1.88128
-0.87885 -0.835239 1.86242
-0.736981 -0.835993 1.91976
-0.559818 -0.837039 1.99378
-0.632424 -0.837848 1.94365
-0.4889 -0.83939 1.99917
-0.418596 -0.841016 2.01775
-0.510119 -0.843122 1.95379
-0.690869 -0.835267 2.50248
-0.72569 -0.830367 2.48644
-1.00999 -0.828121 2.33888
-0.621777 -0.826472 2.52607
-0.839717 -0.824857 2.41014
-0.787644 -0.823677 2.42811
-0.602531 -0.82253 2.51254
-0.796734 -0.821786 2.40628
-0.96401 -0.821205 2.31305
-0.573541 -0.820153 2.49999
-0.751448 -0.81962 2.40136
-0.975245 -0.818968 2.28013
-0.914263 -0.818479 2.30085
-0.770852 -0.818012 2.36274
-0.975855 -0.817721 2.24995
-0.841047 -0.817022 2.30821
-0.701483 -0.816889 2.36729
-0.818811 -0.816513 2.2986
-0.872673 -0.816164 2.26158
-0.861555 -0.815845 2.25698
-0.805469 -0.815757 2.27421
-0.614322 -0.815482 2.35951
-0.897772 -0.815239 2.20742
-0.540631 -0.815187 2.37509
-0.882288 -0.81499 2.19377
-0.840506 -0.814961 2.2037
-0.802854 -0.814814 2.2119
-0.813238 -0.814807 2.19568
-0.799759 -0.814808 2.19137
-0.705373 -0.814753 2.22768
-0.954223 -0.814786 2.09211
-0.733659 -0.814826 2.19122
-0.73083 -0.814931 2.18127
-0.721779 -0.814995 2.17455
-0.756011 -0.815146 2.14592
-0.500342 -0.815234 2.26243
-0.662077 -0.815434 2.1699
-0.96645 -0.815634 2.00604
-0.814316 -0.815795 2.07055
-0.697964 -0.816015 2.11698
-0.663945 -0.816229 2.12226
-0.627996 -0.816548 2.12816
-0.909109 -0.816813 1.9757
-0.870253 -0.817145 1.983
-0.480994 -0.817461 2.16555
-0.620634 -0.817883 2.0833
-0.692641 -0.81824 2.03506
-0.904408 -0.818704 1.91659
-0.717085 -0.819137 1.99775
-0.418725 -0.819665 2.13411
-0.535892 -0.820281 2.06241
-0.520806 -0.820866 2.05692
-0.769792 -0.821479 1.91928
-0.456174 -0.822119 2.06284
-0.551427 -0.822834 2.0017
-0.556167 -0.823834 1.98485
-0.670609 -0.824935 1.91278
-0.591475 -0.826046 1.93744
-0.526019 -0.827244 1.95494
-0.273123 -0.828869 2.06468
-0.230999 -0.831828 2.06447
-0.825492 -0.820683 2.42734
-0.68939 -0.816662 2.49471
-0.562664 -0.815017 2.5512
-0.64466 -0.813396 2.5033
-0.556318 -0.812204 2.53947
-0.783108 -0.811038 2.41803
-0.515022 -0.809905 2.54398
-0.699439 -0.809169 2.44261
-0.888787 -0.808239 2.33934
-0.774157 -0.807551 2.38742
-0.885871 -0.80702 2.3219
-0.828088 -0.806508 2.3411
-1.03543 -0.805887 2.22805
-0.678411 -0.805421 2.39677
-0.657885 -0.804979 2.39718
-0.791676 -0.804561 2.32038
-0.662095 -0.8043 2.37483
-0.527502 -0.803923 2.43212
-0.703177 -0.803574 2.33421
-0.641647 -0.803253 2.35483
-0.945271 -0.803162 2.19222
-0.608058 -0.802885 2.35056
-0.659555 -0.802639 2.31447
-1.12125 -0.802583 2.07273
-0.881513 -0.802492 2.18181
-0.812529 -0.802324 2.20575
-0.671272 -0.802304 2.26538
-0.847947 -0.802292 2.16602
-0.734109 -0.802189 2.2122
-0.632202 -0.802201 2.25206
-0.57102 -0.802246 2.27146
-0.750576 -0.80228 2.17052
-0.992057 -0.802371 2.03845
-0.582525 -0.802429 2.23198
-0.878291 -0.802561 2.07263
-0.61714 -0.802648 2.19188
-0.574878 -0.80275 2.20163
-0.765587 -0.802939 2.09462
-0.83264 -0.803173 2.04929
-0.696549 -0.80338 2.10561
-0.631646 -0.803585 2.12634
-0.535392 -0.803886 2.16243
-0.704699 -0.804115 2.06597
-0.603623 -0.804455 2.10433
-0.665188 -0.80476 2.06147
-0.465929 -0.805088 2.14895
-0.698557 -0.805443 2.02038
-0.765821 -0.805893 1.97417
-0.686876 -0.806374 2.00096
-0.703559 -0.806737 1.98031
-0.51462 -0.807258 2.06193
-0.506274 -0.807808 2.05314
-0.702689 -0.808387 1.94187
-0.496064 -0.809261 2.0311
-0.610599 -0.809909 1.96049
-0.39633 -0.810624 2.05405
-0.524125 -0.811637 1.97553
-0.728225 -0.812405 1.85967
-0.898317 -0.813537 1.75955
-0.403853 -0.815084 1.99024
-0.249702 -0.817096 2.04913
-0.694508 -0.806519 2.48401
-0.432712 -0.803519 2.61172
-0.870856 -0.8019 2.3858
-0.675073 -0.800703 2.47573
-0.665457 -0.799139 2.47361
-0.885146 -0.797998 2.35573
-0.862783 -0.79689 2.3588
-0.808853 -0.796306 2.37624
-0.830156 -0.795605 2.35639
-0.751279 -0.795056 2.38624
-0.748249 -0.794074 2.37939
-0.762718 -0.793575 2.36246
-1.08114 -0.793271 2.193
-0.754262 -0.792806 2.34666
-0.728784 -0.792093 2.35036
-0.921956 -0.791948 2.2431
-0.723199 -0.791556 2.33253
-0.816039 -0.791191 2.27609
-1.07043 -0.791076 2.13815
-0.951369 -0.790753 2.18756
-0.884592 -0.790458 2.21075
-0.711519 -0.790376 2.28646
-0.858921 -0.790126 2.20244
-0.598183 -0.789907 2.3224
-0.969052 -0.789861 2.12604
-0.924303 -0.789822 2.13747
-0.794835 -0.789764 2.19132
-0.638578 -0.78964 2.25877
-0.754945 -0.789638 2.18953
-0.712281 -0.789643 2.19979
-0.707287 -0.789677 2.19112
-0.662104 -0.789704 2.20257
-0.865622 -0.789696 2.08977
-0.9325 -0.789809 2.04492
-1.17623 -0.789877 1.91178
-0.6598 -0.790034 2.15843
-0.761077 -0.790128 2.09643
-0.532178 -0.790305 2.19925
-0.43491 -0.790525 2.2361
-0.65985 -0.79072 2.11193
-0.926939 -0.790915 1.96668
-0.771064 -0.79113 2.03284
-0.69438 -0.791415 2.05916
-0.401832 -0.791676 2.19349
-0.88466 -0.791975 1.94
-0.695488 -0.792286 2.02247
-0.548168 -0.792689 2.08369
-0.351571 -0.793123 2.16943
-0.756642 -0.793404 1.95484
-0.492999 -0.793881 2.07394
-0.668814 -0.794388 1.9732
-0.440772 -0.794745 2.07488
-0.439445 -0.79529 2.06255
-0.402179 -0.796118 2.0672
-0.586406 -0.796733 1.96182
-0.481733 -0.79741 2.00066
-0.531551 -0.798072 1.96228
-0.603501 -0.799109 1.91151
-0.616357 -0.800164 1.8902
-0.367015 -0.801296 1.99968
-0.242134 -0.802841 2.04545
-0.27405 -0.805668 2.00823
-0.733217 -0.793315 2.45331
-0.713912 -0.790762 2.45872
-0.701579 -0.789166 2.45806
-0.626426 -0.787595 2.48879
-0.703563 -0.786441 2.44224
-0.677523 -0.785314 2.44724
-0.82107 -0.78422 2.36738
-0.815917 -0.78364 2.36045
-0.739379 -0.782609 2.39051
-0.697306 -0.782072 2.40194
-0.7872 -0.781553 2.34736
-0.828655 -0.780934 2.3173
-0.627098 -0.780458 2.40835
-0.793129 -0.780005 2.31555
-0.609697 -0.779729 2.39698
-0.645336 -0.779312 2.36929
-0.402251 -0.778921 2.4809
-0.491351 -0.778556 2.42635
-0.619222 -0.778438 2.35168
-1.03476 -0.778114 2.13381
-0.742268 -0.777818 2.26987
-0.722559 -0.777733 2.26891
-1.05018 -0.777481 2.0948
-0.967653 -0.777358 2.12537
-0.757032 -0.777307 2.21977
-0.741933 -0.777131 2.2168
-0.598052 -0.777102 2.27776
-0.639638 -0.777065 2.24602
-0.888749 -0.777058 2.11042
-0.907082 -0.777057 2.09019
-1.03074 -0.776993 2.0175
-0.857429 -0.777017 2.09302
-0.864907 -0.777086 2.078
-1.1872 -0.777132 1.90564
-0.930064 -0.777248 2.02277
-0.643945 -0.777393 2.15429
-0.471744 -0.777479 2.22904
-0.901683 -0.777644 2.00246
-0.587424 -0.777813 2.14796
-0.604574 -0.777966 2.1278
-0.484743 -0.77822 2.1758
-0.607804 -0.778412 2.10255
-0.441551 -0.778659 2.17376
-0.698505 -0.7789 2.03339
-0.727074 -0.779167 2.00712
-0.375398 -0.779523 2.17065
-0.869512 -0.779818 1.91149
-0.85123 -0.780167 1.90834
-0.543338 -0.780598 2.0497
-0.602346 -0.780916 2.00798
-0.673066 -0.781387 1.95987
-0.565504 -0.781887 2.00079
-0.669243 -0.782415 1.93595
-0.487009 -0.78297 2.01398
-0.528034 -0.783552 1.98027
-0.404613 -0.784191 2.02857
-0.396233 -0.784821 2.01936
-0.483338 -0.785782 1.96121
-0.553792 -0.786496 1.91224
-0.508102 -0.787563 1.92006
-0.556487 -0.789031 1.87937
-0.348553 -0.79095 1.96516
-0.333426 -0.795006 1.94673
-0.485862 -0.779568 2.56717
-0.836666 -0.777586 2.38608
-0.694383 -0.776017 2.45041
-0.857739 -0.774475 2.36189
-0.643654 -0.773345 2.46096
-0.803004 -0.772244 2.37326
-0.720439 -0.771527 2.40544
-0.582528 -0.770606 2.4659
-0.910247 -0.770053 2.2925
-0.78621 -0.769398 2.3453
-0.652624 -0.768882 2.40247
-0.572347 -0.76827 2.43329
-0.731531 -0.767796 2.34399
-0.715578 -0.767344 2.34221
-0.708538 -0.766915 2.33591
-1.01326 -0.766511 2.17366
-0.695556 -0.766371 2.32184
-0.797713 -0.766004 2.26079
-0.779307 -0.765665 2.25994
-0.50603 -0.765555 2.38583
-0.647006 -0.765257 2.30518
-1.03751 -0.764988 2.09969
-0.759982 -0.764912 2.22761
-0.800347 -0.764843 2.19657
-0.654269 -0.764632 2.2592
-0.932347 -0.764543 2.10937
-1.08714 -0.764509 2.02101
-0.632766 -0.764462 2.23728
-0.670623 -0.764365 2.20759
-0.848416 -0.76436 2.10764
-0.73065 -0.764373 2.15542
-0.506886 -0.764391 2.25617
-0.775116 -0.764449 2.1108
-0.799703 -0.764489 2.08731
-0.649848 -0.764592 2.15082
-0.834656 -0.764655 2.04714
-0.544437 -0.764864 2.18048
-0.728246 -0.764958 2.07719
-0.591164 -0.765115 2.13412
-0.494463 -0.765259 2.17091
-0.875589 -0.765437 1.96866
-0.744321 -0.765677 2.02239
-0.497791 -0.765861 2.13394
-0.832455 -0.766129 1.9546
-0.752916 -0.766396 1.98236
-0.752332 -0.766614 1.9708
-0.643965 -0.766969 2.01265
-0.755604 -0.767354 1.94438
-0.404414 -0.767602 2.10799
-0.688456 -0.76803 1.95335
-0.559332 -0.768486 2.00518
-0.166203 -0.7688 2.1895
-0.451034 -0.769295 2.03419
-0.725619 -0.769818 1.88389
-0.661358 -0.770367 1.9029
-0.459722 -0.770942 1.99049
-0.485458 -0.771568 1.9642
-0.40527 -0.772189 1.99086
-0.363113 -0.773163 1.99721
-0.494567 -0.773838 1.91781
-0.512864 -0.774887 1.8936
-0.569894 -0.776334 1.84852
-0.294038 -0.778225 1.96819
-0.833851 -0.766348 2.38191
-0.549158 -0.764786 2.51747
-0.791729 -0.763239 2.38941
-0.820807 -0.761719 2.36806
-0.544346 -0.760605 2.49834
-0.655089 -0.759518 2.43497
-0.73944 -0.758929 2.38335
-0.80769 -0.757899 2.34111
-0.978479 -0.757348 2.2462
-0.884927 -0.756702 2.28376
-0.767666 -0.755884 2.33372
-0.725911 -0.755694 2.34404
-0.937667 -0.75522 2.22847
-0.553275 -0.754662 2.41125
-0.709703 -0.754235 2.32324
-0.850156 -0.753831 2.24315
-0.894782 -0.753689 2.21018
-0.739147 -0.753323 2.27804
-0.630353 -0.752983 2.3224
-0.681864 -0.752871 2.28591
-0.654803 -0.752572 2.2893
-0.607372 -0.75248 2.30222
-0.808049 -0.752313 2.19133
-0.88996 -0.752085 2.14003
-0.854692 -0.752026 2.14677
-0.71515 -0.751927 2.20579
-0.936856 -0.751888 2.08399
-0.604486 -0.75175 2.23955
-0.938838 -0.751733 2.06135
-0.779275 -0.751721 2.1301
-0.845654 -0.751726 2.08582
-0.815859 -0.751738 2.08961
-0.490905 -0.751784 2.24086
-0.535115 -0.751819 2.20756
-0.88225 -0.75191 2.02261
-0.786755 -0.751967 2.05909
-0.846054 -0.752096 2.01793
-0.779365 -0.75223 2.03974
-0.875797 -0.752333 1.98009
-0.617344 -0.752529 2.09756
-0.734994 -0.752695 2.02707
-0.637898 -0.752858 2.06397
-0.665036 -0.753091 2.0385
-0.507064 -0.753306 2.10563
-0.576088 -0.753499 2.05935
-0.752142 -0.753809 1.95913
-0.670376 -0.754019 1.98816
-0.611166 -0.754372 2.0054
-0.307893 -0.754599 2.14511
-0.579856 -0.754995 1.99659
-0.360168 -0.75542 2.09378
-0.573102 -0.755873 1.97455
-0.689948 -0.756172 1.9039
-0.584473 -0.756662 1.94371
-0.441458 -0.757179 2.00218
-0.694025 -0.757722 1.86274
-0.603045 -0.75829 1.89497
-0.572549 -0.758901 1.89678
-0.506937 -0.759513 1.91613
-0.609906 -0.760163 1.85103
-0.609237 -0.761137 1.83651
-0.482928 -0.762167 1.88456
-0.509018 -0.763592 1.8549
-0.284366 -0.765454 1.9489
-0.62267 -0.753501 2.47513
-0.824751 -0.75158 2.36847
-0.668142 -0.750061 2.44002
-0.689306 -0.74894 2.42154
-0.793324 -0.747481 2.36268
-0.860025 -0.74642 2.32132
-0.597438 -0.745842 2.44318
-0.660455 -0.745169 2.40254
-0.654979 -0.744622 2.39578
-1.06036 -0.744092 2.18356
-0.644604 -0.743474 2.38219
-0.700596 -0.742692 2.34548
-0.996845 -0.74251 2.18679
-0.569414 -0.74206 2.39079
-0.608944 -0.741632 2.36124
-0.835014 -0.741228 2.23837
-0.830334 -0.740987 2.23037
-0.576787 -0.740715 2.3469
-0.657525 -0.740374 2.29653
-1.00203 -0.740258 2.11355
-0.670305 -0.739957 2.26929
-0.690147 -0.739684 2.24917
-0.662728 -0.739601 2.25206
-0.659233 -0.739524 2.24298
-0.795841 -0.73939 2.16403
-0.680199 -0.739204 2.21139
-0.743908 -0.739161 2.1686
-0.781878 -0.739097 2.13875
-0.672341 -0.739075 2.18251
-0.799926 -0.739053 2.10772
-0.764775 -0.739052 2.11422
-0.81942 -0.739059 2.0758
-0.477803 -0.739073 2.23548
-0.444947 -0.739123 2.24066
-0.8048 -0.73916 2.04953
-0.769151 -0.739255 2.05594
-0.564507 -0.739373 2.14678
-0.543236 -0.739495 2.1459
-0.628174 -0.739591 2.09201
-0.807164 -0.739733 1.99093
-0.664658 -0.739879 2.05058
-0.752045 -0.740078 1.99509
-0.536407 -0.740252 2.0912
-0.59169 -0.74042 2.05186
-0.685769 -0.740686 1.99277
-0.640981 -0.740872 2.00339
-0.648504 -0.741181 1.9874
-0.720317 -0.741384 1.93965
-0.570356 -0.741735 2.00223
-0.584836 -0.741955 1.98307
-0.479347 -0.742348 2.02324
-0.633368 -0.742769 1.93355
-0.473999 -0.743044 2.00108
-0.658094 -0.743503 1.89618
-0.594857 -0.743988 1.91484
-0.612636 -0.744261 1.89377
-0.53081 -0.745036 1.9206
-0.356697 -0.745596 1.99436
-0.414497 -0.745914 1.95308
-0.272634 -0.746797 2.00946
-0.470317 -0.74743 1.89699
-0.39057 -0.748393 1.92196
-0.509553 -0.749405 1.84734
-0.308039 -0.750806 1.93142
-0.379199 -0.752638 1.87745
-0.726316 -0.740631 2.41097
-0.695655 -0.738739 2.42072
-0.971241 -0.737242 2.2762
-0.658125 -0.735775 2.42598
-0.82044 -0.7347 2.3369
-0.834017 -0.733999 2.32106
-0.840941 -0.733081 2.30924
-0.894168 -0.732522 2.27319
-0.689031 -0.731557 2.3676
-0.839044 -0.73104 2.28306
-0.885067 -0.730541 2.25047
-0.594013 -0.730249 2.38578
-0.729574 -0.72978 2.30835
-0.866377 -0.729332 2.23025
-0.653028 -0.728906 2.32717
-0.57313 -0.728503 2.3573
-0.874307 -0.728125 2.19683
-0.610809 -0.72799 2.31791
-0.62562 -0.727649 2.30052
-0.883349 -0.727531 2.16094
-0.745596 -0.727313 2.21944
-0.804672 -0.727131 2.17941
-0.863161 -0.726951 2.13968
-0.546661 -0.72687 2.28711
-0.524649 -0.726652 2.28776
-0.617009 -0.726538 2.23088
-0.77192 -0.726491 2.1425
-1.02079 -0.72645 2.00712
-0.824196 -0.726391 2.09454
-0.942093 -0.726371 2.02458
-0.721476 -0.726353 2.12387
-0.75096 -0.726355 2.09804
-0.846335 -0.726364 2.03924
-0.664412 -0.726403 2.11898
-0.815101 -0.726434 2.03245
-0.72553 -0.726529 2.06581
-0.722747 -0.726626 2.05578
-0.625088 -0.726685 2.09331
-0.721915 -0.726803 2.03339
-0.593918 -0.726957 2.08574
-0.80851 -0.727093 1.96687
-0.518554 -0.727232 2.10024
-0.502141 -0.727377 2.09683
-0.604336 -0.727599 2.03382
-0.495983 -0.727761 2.0763
-0.415239 -0.727927 2.10496
-0.70516 -0.728205 1.94786
-0.921335 -0.728388 1.82798
-0.599744 -0.728709 1.97647
-0.548828 -0.728909 1.99006
-0.6803 -0.729271 1.91184
-0.906927 -0.729488 1.78658
-0.375416 -0.72989 2.03968
-0.411995 -0.73032 2.00861
-0.35798 -0.730776 2.02273
-0.58521 -0.731048 1.89692
-0.322351 -0.731539 2.01531
-0.540186 -0.732055 1.89323
-0.750808 -0.732605 1.77461
-0.484513 -0.733165 1.8944
-0.467319 -0.733746 1.88953
-0.518571 -0.734657 1.84912
-0.31191 -0.735287 1.93876
-0.318377 -0.736265 1.92043
-0.449855 -0.737625 1.83804
-0.441519 -0.739407 1.82383
-0.501314 -0.727364 2.5123
-0.564677 -0.725875 2.47392
-0.569404 -0.724402 2.46486
-0.714531 -0.722956 2.38556
-0.707665 -0.721898 2.38108
-0.75938 -0.72131 2.34586
-0.581532 -0.720299 2.42679
-0.642247 -0.719744 2.38701
-0.720969 -0.719105 2.33851
-1.06814 -0.718279 2.15641
-0.648071 -0.717783 2.35689
-0.730333 -0.717306 2.30616
-0.594821 -0.717029 2.36368
-0.475187 -0.716584 2.41382
-0.816507 -0.716248 2.23313
-0.645475 -0.715846 2.30885
-0.879727 -0.715611 2.18139
-0.838535 -0.715329 2.19181
-0.85116 -0.714987 2.17553
-0.715773 -0.714866 2.23253
-0.732923 -0.714563 2.21388
-0.683776 -0.71446 2.2277
-0.673291 -0.714273 2.22249
-0.820662 -0.714115 2.13825
-0.888105 -0.713967 2.09394
-0.596206 -0.713903 2.22902
-0.688484 -0.713794 2.17218
-0.840889 -0.713749 2.08504
-0.444737 -0.71368 2.27227
-0.805547 -0.713656 2.08087
-0.591012 -0.713629 2.17715
-0.697073 -0.713626 2.11304
-0.418483 -0.71363 2.24124
-0.487715 -0.713641 2.1955
-0.649372 -0.713738 2.10323
-0.859514 -0.71377 1.98696
-0.649753 -0.713855 2.08044
-0.553574 -0.713909 2.11725
-0.379713 -0.714017 2.19269
-0.423347 -0.714129 2.15937
-0.771523 -0.714242 1.97378
-0.517367 -0.714367 2.0893
-0.531213 -0.714547 2.0706
-0.8393 -0.714685 1.90494
-0.380362 -0.714828 2.12278
-0.821357 -0.715064 1.89029
-0.537115 -0.715223 2.02069
-0.589798 -0.715473 1.98229
-0.594407 -0.715678 1.96809
-0.545695 -0.715973 1.9802
-0.642626 -0.716191 1.91977
-0.585645 -0.71655 1.93575
-0.595233 -0.71676 1.91901
-0.262888 -0.717159 2.07249
-0.701084 -0.717585 1.84059
-0.414667 -0.717834 1.97167
-0.416058 -0.718295 1.95801
-0.678138 -0.718543 1.81483
-0.724124 -0.719039 1.7787
-0.561125 -0.719821 1.84591
-0.429863 -0.720101 1.89924
-0.288991 -0.720662 1.95623
-0.469579 -0.72154 1.8512
-0.343669 -0.722148 1.90048
-0.31753 -0.723092 1.89849
-0.198674 -0.724411 1.9413
-0.500387 -0.72544 1.77497
-0.584353 -0.714455 2.45849
-0.639058 -0.712625 2.42562
-0.450078 -0.71118 2.51343
-0.610524 -0.710116 2.42536
-0.60268 -0.709074 2.42139
-0.708565 -0.708155 2.36019
-0.829364 -0.707495 2.29073
-0.581105 -0.706628 2.4065
-0.937384 -0.706101 2.2189
-0.803444 -0.705797 2.2757
-0.795676 -0.705006 2.27104
-0.727411 -0.704532 2.29559
-0.655899 -0.704079 2.32171
-0.713243 -0.703902 2.28249
-0.724767 -0.703479 2.26702
-0.829831 -0.703078 2.20472
-0.85172 -0.702702 2.18393
-0.757232 -0.702561 2.22054
-0.635549 -0.702426 2.27073
-0.544534 -0.702098 2.30625
-0.779505 -0.701869 2.17845
-0.817168 -0.701762 2.14889
-0.618375 -0.701499 2.2381
-0.599929 -0.701412 2.23653
-0.553085 -0.701257 2.24941
-0.936262 -0.701188 2.04697
-0.55128 -0.701127 2.22858
-0.435552 -0.701023 2.27573
-0.724359 -0.700981 2.12038
-0.599963 -0.700917 2.17172
-0.770294 -0.700895 2.07555
-0.660998 -0.700872 2.11919
-0.697278 -0.700872 2.08996
-0.788642 -0.700878 2.03317
-0.862534 -0.700941 1.9849
-0.88142 -0.700987 1.9642
-0.42974 -0.701021 2.17882
-0.804045 -0.701107 1.98026
-0.479991 -0.701197 2.13086
-0.650977 -0.701271 2.03399
-0.576723 -0.701379 2.05961
-0.602028 -0.701528 2.0353
-0.506115 -0.701643 2.07172
-0.551947 -0.701763 2.03724
-0.467487 -0.701927 2.06774
-0.513234 -0.702094 2.03312
-0.459105 -0.702304 2.04826
-0.632001 -0.702459 1.9501
-0.558739 -0.702739 1.97452
-0.568405 -0.702911 1.9579
-0.653787 -0.703106 1.90332
-0.525995 -0.703419 1.95485
-0.611401 -0.703627 1.9002
-0.673284 -0.703996 1.85665
-0.873706 -0.704202 1.74447
-0.539223 -0.704609 1.89894
-0.525838 -0.705042 1.89274
-0.570881 -0.705279 1.8581
-0.689596 -0.705745 1.78569
-0.837698 -0.705988 1.69948
-0.432347 -0.706745 1.88789
-0.243844 -0.707272 1.96879
-0.45953 -0.707545 1.84863
-0.345259 -0.708391 1.89107
-0.309841 -0.708977 1.89513
-0.526583 -0.709888 1.77174
-0.460451 -0.710845 1.78956
-0.519419 -0.712166 1.74327
-0.474729 -0.701523 2.50103
-0.630897 -0.699723 2.41747
-0.687902 -0.698302 2.38232
-0.699929 -0.697255 2.36848
-0.853235 -0.696322 2.28365
-0.504807 -0.695321 2.44995
-0.713026 -0.694762 2.33649
-0.741168 -0.694126 2.31334
-0.856188 -0.693291 2.24744
-0.71835 -0.692784 2.30689
-0.63606 -0.692494 2.33785
-0.575161 -0.692014 2.35877
-0.680946 -0.691552 2.2963
-0.62669 -0.691111 2.3138
-0.750323 -0.690769 2.24202
-0.700195 -0.690528 2.25678
-0.585577 -0.69014 2.30431
-0.809137 -0.689849 2.18242
-0.691748 -0.68964 2.23073
-0.700715 -0.689383 2.21604
-0.620954 -0.689262 2.24524
-0.531048 -0.688972 2.28012
-0.824534 -0.68887 2.12263
-0.688056 -0.688683 2.18044
-0.497654 -0.688599 2.26484
-0.897359 -0.688449 2.05443
-0.669458 -0.688383 2.15753
-0.743116 -0.688272 2.11001
-0.812656 -0.688226 2.06431
-0.817924 -0.688186 2.05073
-0.782353 -0.688128 2.05764
-0.44106 -0.688108 2.21727
-0.432962 -0.688091 2.21029
-0.848007 -0.688138 1.9915
-0.607037 -0.688147 2.10086
-0.469062 -0.688161 2.1587
-0.547922 -0.688212 2.10798
-0.594875 -0.688288 2.07312
-0.755769 -0.68833 1.98142
-0.512194 -0.688452 2.09164
-0.75157 -0.688535 1.96054
-0.831027 -0.688634 1.90933
-0.397032 -0.688731 2.11484
-0.620846 -0.688857 1.99134
-0.531559 -0.688973 2.02443
-0.624998 -0.68917 1.96582
-0.915282 -0.689303 1.80904
-0.50663 -0.68944 2.00171
-0.742139 -0.689691 1.87184
-0.534273 -0.689844 1.96404
-0.697249 -0.690135 1.87026
-0.422079 -0.690305 1.99603
-0.670594 -0.690491 1.8599
-0.543289 -0.690821 1.91107
-0.649793 -0.691019 1.84587
-0.512929 -0.691397 1.90161
-0.512147 -0.6916 1.89002
-0.614294 -0.692014 1.82609
-0.263889 -0.692451 1.98831
-0.688663 -0.692677 1.76382
-0.711582 -0.693143 1.73925
-0.570341 -0.693633 1.79663
-0.568771 -0.694135 1.78412
-0.725748 -0.694397 1.69333
-0.499015 -0.695212 1.79203
-0.488394 -0.695777 1.78372
-0.506932 -0.696358 1.76075
-0.326788 -0.697258 1.83572
-0.314124 -0.698523 1.82535
-0.659555 -0.700898 1.63108
-0.729655 -0.68857 2.36132
-0.529574 -0.6868 2.45593
-0.591462 -0.685403 2.41836
-0.687517 -0.684372 2.36252
-0.888485 -0.683451 2.2539
-0.498531 -0.682467 2.44098
-0.616007 -0.681913 2.37291
-0.682771 -0.681371 2.33018
-0.597625 -0.680761 2.36365
-0.820458 -0.679959 2.24382
-0.682399 -0.679473 2.30336
-0.410924 -0.679276 2.42862
-0.664585 -0.678817 2.29224
-0.794996 -0.678377 2.21743
-0.774165 -0.677958 2.21818
-0.577685 -0.677793 2.30587
-0.95369 -0.677406 2.10811
-0.764312 -0.677043 2.19297
-0.577819 -0.676904 2.27559
-0.755289 -0.676641 2.17668
-0.726113 -0.676454 2.18083
-0.823491 -0.676227 2.12186
-0.487394 -0.676122 2.27918
-0.578435 -0.675929 2.22326
-0.782024 -0.675841 2.11069
-0.633036 -0.67576 2.17438
-0.799477 -0.675616 2.0806
-0.708272 -0.675553 2.11533
-0.679605 -0.675447 2.11897
-0.751879 -0.675404 2.0719
-0.48735 -0.675337 2.19332
-0.966621 -0.675314 1.94268
-0.638165 -0.675298 2.09587
-0.793466 -0.675331 2.007
-0.52869 -0.675327 2.12831
-0.86981 -0.675341 1.9466
-0.709945 -0.675395 2.01522
-0.788644 -0.675418 1.96469
-0.880559 -0.675486 1.90737
-0.789465 -0.675563 1.94151
-0.451482 -0.675644 2.09908
-0.442696 -0.67573 2.09204
-0.586709 -0.675819 2.00857
-0.499938 -0.675913 2.04048
-0.708194 -0.676011 1.92485
-0.790765 -0.676181 1.87177
-0.550048 -0.676296 1.98055
-0.598005 -0.676416 1.94498
-0.677569 -0.676539 1.89358
-0.468305 -0.676774 1.98613
-0.453327 -0.676914 1.98192
-0.571654 -0.677189 1.9105
-0.612444 -0.677345 1.87833
-0.523432 -0.677659 1.9104
-0.505256 -0.67783 1.90763
-0.548516 -0.678181 1.87339
-0.575435 -0.678369 1.848
-0.634033 -0.678558 1.80675
-0.358687 -0.67895 1.93161
-0.716702 -0.679368 1.73966
-0.202125 -0.679579 1.98488
-0.548456 -0.68002 1.79865
-0.667049 -0.680253 1.72718
-0.608098 -0.680968 1.74238
-0.322167 -0.68122 1.87306
-0.435936 -0.681738 1.80272
-0.532943 -0.682529 1.73955
-0.222763 -0.682806 1.8822
-0.314638 -0.683975 1.81988
-0.242519 -0.684569 1.84207
-0.0860688 -0.686156 1.90198
-0.62142 -0.675596 2.40322
-0.916656 -0.673857 2.2502
-0.739966 -0.672483 2.33195
-0.796292 -0.671806 2.29485
-0.572126 -0.670561 2.39998
-0.750726 -0.669913 2.30169
-0.674356 -0.669044 2.33168
-0.789984 -0.668508 2.26454
-0.696217 -0.667985 2.30206
-0.633874 -0.667401 2.32411
-0.690454 -0.666911 2.28638
-0.790865 -0.666437 2.22669
-0.626977 -0.665982 2.29911
-0.693231 -0.665546 2.25639
-0.592927 -0.66537 2.29603
-0.710657 -0.664964 2.2275
-0.603251 -0.664645 2.27122
-1.02246 -0.664429 2.05128
-0.831699 -0.664142 2.13659
-0.603593 -0.663814 2.24073
-0.735104 -0.66369 2.16432
-0.660094 -0.663571 2.19115
-0.781371 -0.663349 2.12022
-0.8569 -0.663247 2.07173
-0.815168 -0.66306 2.0822
-0.727889 -0.662976 2.11505
-0.509459 -0.662897 2.21346
-0.680622 -0.662759 2.1173
-0.78549 -0.662699 2.054
-0.592488 -0.662599 2.13979
-0.855459 -0.662559 1.99736
-0.818986 -0.662525 2.00463
-0.687006 -0.662517 2.05955
-0.730753 -0.662502 2.02664
-0.857061 -0.662493 1.95242
-0.555522 -0.662529 2.09195
-0.709067 -0.662545 2.00401
-0.62652 -0.662564 2.03411
-0.66395 -0.66262 2.00408
-0.599747 -0.66268 2.02484
-0.73237 -0.662744 1.94716
-0.632859 -0.662812 1.98554
-0.541996 -0.662885 2.01957
-0.5133 -0.662962 2.0225
-0.50933 -0.663043 2.01304
-0.824549 -0.663186 1.84373
-0.523267 -0.663284 1.98286
-0.602667 -0.663386 1.93162
-0.456534 -0.66357 1.99281
-0.567813 -0.6637 1.9255
-0.779849 -0.663823 1.80785
-0.627295 -0.66407 1.87196
-0.513408 -0.664209 1.91719
-0.562654 -0.664352 1.88083
-0.29148 -0.664649 2.00401
-0.361033 -0.664807 1.95742
-0.357214 -0.665139 1.94676
-0.465413 -0.66531 1.88078
-0.651575 -0.665485 1.77579
-0.481611 -0.665863 1.84797
-0.463492 -0.666052 1.84505
-0.598674 -0.666452 1.76454
-0.369627 -0.666869 1.86605
-0.709996 -0.667093 1.6837
-0.426968 -0.667537 1.81206
-0.409103 -0.668016 1.80767
-0.395567 -0.668242 1.80223
-0.202031 -0.668747 1.88553
-0.447406 -0.669536 1.74807
-0.569993 -0.670081 1.67309
-0.34677 -0.670915 1.76967
-0.248002 -0.672137 1.80223
-0.475207 -0.673407 1.67154
-0.772074 -0.66337 2.31304
-0.722932 -0.660894 2.33491
-0.641579 -0.659544 2.36902
-0.360718 -0.658958 2.50024
-0.613065 -0.657652 2.36743
-0.929941 -0.657091 2.19975
-0.672432 -0.656465 2.31951
-0.709551 -0.655627 2.29274
-0.761623 -0.655109 2.25737
-0.579597 -0.654606 2.33901
-0.579874 -0.654119 2.32946
-0.754178 -0.653649 2.23285
-0.837357 -0.653196 2.18176
-0.867969 -0.652944 2.15622
-0.687551 -0.652585 2.2366
-0.787515 -0.652181 2.17698
-0.185706 -0.651799 2.46817
-0.798619 -0.651646 2.15115
-0.581601 -0.651498 2.24908
-0.710691 -0.65116 2.17469
-0.612821 -0.650901 2.21348
-0.788621 -0.650779 2.11493
-0.736198 -0.650663 2.13047
-0.832537 -0.650448 2.07201
-0.593851 -0.650349 2.18062
-0.501907 -0.650168 2.21619
-0.558609 -0.650087 2.17705
-0.435346 -0.650012 2.22787
-0.818721 -0.649879 2.02559
-0.628665 -0.649823 2.10974
-0.640972 -0.649729 2.09286
-0.680553 -0.649729 2.06197
-0.427533 -0.649697 2.1775
-0.727996 -0.649653 2.01635
-0.586312 -0.649673 2.07601
-0.502382 -0.649667 2.1069
-0.560941 -0.649668 2.06651
-0.704464 -0.649704 1.98351
-0.449789 -0.649737 2.0996
-0.581847 -0.649787 2.02227
-0.517748 -0.649822 2.04307
-0.380722 -0.649884 2.10022
-0.419621 -0.649943 2.06942
-0.636094 -0.650004 1.94982
-0.543768 -0.650094 1.9845
-0.68206 -0.650172 1.90391
-0.563982 -0.650267 1.95144
-0.380715 -0.650414 2.03133
-0.561899 -0.650513 1.9292
-0.504028 -0.650616 1.94658
-0.70461 -0.650827 1.83426
-0.610065 -0.650946 1.8699
-0.73995 -0.651069 1.7933
-0.60656 -0.651197 1.84831
-0.591531 -0.651464 1.84352
-0.675421 -0.651604 1.78983
-0.569267 -0.651753 1.83111
-0.419875 -0.651902 1.89401
-0.515309 -0.652222 1.83373
-0.540277 -0.652561 1.80858
-0.227035 -0.652731 1.95329
-0.419519 -0.65292 1.84505
-0.527703 -0.653098 1.77899
-0.56441 -0.653483 1.74773
-0.550961 -0.653906 1.74136
-0.506388 -0.654103 1.75157
-0.527852 -0.654531 1.72769
-0.318579 -0.654999 1.81899
-0.394152 -0.655453 1.76791
-0.346489 -0.655697 1.7794
-0.613096 -0.6562 1.63255
-0.258957 -0.657019 1.79458
-0.284799 -0.658151 1.76511
-0.333198 -0.659043 1.72546
-0.283532 -0.660629 1.73152
-0.360486 -0.650675 2.50546
-0.792916 -0.648657 2.28512
-0.508585 -0.647321 2.42077
-0.76014 -0.646006 2.28845
-0.588358 -0.645041 2.36658
-0.665564 -0.64417 2.31991
-0.844689 -0.643625 2.2211
-0.684429 -0.643023 2.29223
-0.746094 -0.642216 2.25317
-0.745368 -0.641718 2.24418
-0.793138 -0.641236 2.21091
-0.826815 -0.640771 2.18463
-0.727482 -0.640323 2.22482
-0.54261 -0.640136 2.30679
-0.765864 -0.639716 2.1856
-0.466733 -0.639542 2.32468
-0.673913 -0.639152 2.21144
-0.700492 -0.638838 2.18821
-0.790991 -0.638688 2.13241
-0.644387 -0.638351 2.19588
-0.56945 -0.638217 2.22274
-0.749495 -0.637964 2.12258
-0.726387 -0.637846 2.12348
-0.487967 -0.637733 2.23202
-0.768804 -0.637524 2.08131
-0.657398 -0.637429 2.12628
-0.717335 -0.637255 2.0859
-0.755292 -0.637176 2.05612
-0.813313 -0.637104 2.01629
-0.501337 -0.636979 2.16168
-0.514772 -0.636925 2.14408
-0.541056 -0.636912 2.11988
-0.629822 -0.636835 2.06471
-0.542605 -0.636807 2.09734
-0.616637 -0.636813 2.04919
-0.611948 -0.636787 2.04054
-0.483135 -0.636809 2.09375
-0.915418 -0.636812 1.8665
-0.571836 -0.636821 2.02715
-0.683662 -0.636858 1.95997
-0.40856 -0.6369 2.08624
-0.758856 -0.636945 1.8998
-0.514626 -0.636994 2.0106
-0.707066 -0.637049 1.90303
-0.821095 -0.637107 1.83466
-0.500732 -0.63717 1.98346
-0.554726 -0.637236 1.94507
-0.473738 -0.637307 1.97414
-0.813488 -0.637453 1.79252
-0.697537 -0.63754 1.83899
-0.575012 -0.637631 1.88874
-0.635564 -0.637726 1.84692
-0.428482 -0.637932 1.93842
-0.524997 -0.638041 1.87855
-0.402213 -0.63816 1.92829
-0.550024 -0.638402 1.84216
-0.504852 -0.638539 1.853
-0.590531 -0.638671 1.79842
-0.188414 -0.638807 1.98772
-0.530485 -0.639106 1.80418
-0.485957 -0.639255 1.81462
-0.422369 -0.639581 1.83376
-0.36818 -0.639761 1.84887
-0.601658 -0.639927 1.7202
-0.407952 -0.640095 1.80511
-0.292533 -0.640465 1.84992
-0.432747 -0.640852 1.76683
-0.34147 -0.641062 1.80031
-0.220046 -0.641496 1.84778
-0.228483 -0.641917 1.83037
-0.4876 -0.64215 1.68851
-0.401077 -0.642631 1.71827
-0.137549 -0.643128 1.83644
-0.520403 -0.643938 1.62989
-0.347636 -0.645055 1.69963
-0.319109 -0.646255 1.69681
-0.643323 -0.637619 2.35189
-0.665655 -0.635638 2.33663
-0.545125 -0.634327 2.39041
-0.522506 -0.633037 2.39521
-0.922135 -0.632157 2.1874
-0.615579 -0.63123 2.33289
-0.490658 -0.630692 2.38614
-0.566 -0.630166 2.33923
-0.810955 -0.629588 2.20773
-0.698659 -0.629089 2.25457
-0.98316 -0.628603 2.10298
-0.668705 -0.628134 2.25082
-0.687217 -0.627681 2.23214
-0.660179 -0.62749 2.23523
-0.715666 -0.627064 2.19798
-0.882765 -0.626657 2.10486
-0.759971 -0.626322 2.15642
-0.835544 -0.625956 2.10893
-0.654979 -0.625805 2.18867
-0.799314 -0.625659 2.10595
-0.404903 -0.625383 2.29313
-0.428223 -0.625252 2.27086
