ply
format ascii 1.0
comment Created by Open3D
element vertex 1800
property double x
property double y
property double z
end_header
0.0204908 0.14771 1.28186
0.0924019 0.147555 1.31026
0.0902218 0.147438 1.3007
0.00824277 0.147261 1.25275
0.127957 0.147144 1.30415
-0.0123514 0.147028 1.22556
0.0840516 0.146911 1.26534
0.0654098 0.146795 1.2476
0.0306113 0.14668 1.22179
0.0714526 0.146564 1.23382
0.026473 0.146449 1.20294
0.0141007 0.146334 1.18837
0.0513143 0.14622 1.19861
-0.0266 0.146106 1.1513
-0.0230617 0.145992 1.14471
-0.0983238 0.145878 1.09874
-0.0014599 0.145765 1.13884
-0.0840954 0.145652 1.0892
-0.000775839 0.14554 1.12255
0.0268256 0.145427 1.12804
-0.000109324 0.145316 1.10628
0.00164042 0.145204 1.09886
-0.0227027 0.145093 1.07841
0.068091 0.144982 1.11554
0.0286004 0.144871 1.08753
-0.00050845 0.144723 1.06575
0.00841174 0.144613 1.06197
-0.0404556 0.144503 1.0293
-0.00444584 0.144394 1.03908
0.00386256 0.144285 1.03502
-0.0539506 0.144231 0.996405
-0.0313095 0.144122 0.999523
0.0106435 0.144014 1.0123
0.0453357 0.143906 1.02146
-0.0694498 0.143799 0.955889
0.00848093 0.143692 0.986681
-0.10578 0.143585 0.921384
0.0180559 0.143479 0.975142
-0.0860352 0.143373 0.914944
-0.0795873 0.143267 0.910022
-0.0704453 0.143214 0.904961
-0.0644583 0.143109 0.899823
-0.0983371 0.143004 0.874758
-0.065659 0.142899 0.882978
-0.0243821 0.142795 0.895504
-0.0146591 0.142691 0.892259
-0.0215418 0.142588 0.880717
-0.0219648 0.142536 0.870922
0.0184153 0.142433 0.883024
-0.159932 0.142331 0.785769
-0.115363 0.142229 0.799977
-0.0578209 0.142127 0.820677
-0.155434 0.142025 0.763805
-0.039565 0.141975 0.812196
-0.0742165 0.141874 0.786817
-0.217386 0.141733 0.708356
-0.0692091 0.141633 0.774407
-0.143855 0.141533 0.729052
-0.0797597 0.141433 0.753072
-0.0736501 0.141383 0.746624
-0.106427 0.141284 0.722219
-0.0911345 0.141185 0.721853
-0.0426889 0.141087 0.738068
-0.114731 0.140989 0.694043
-0.140048 0.14094 0.671912
-0.0568803 0.140843 0.705502
-0.113079 0.140746 0.669413
-0.149859 0.140649 0.643038
-0.139322 0.140601 0.638856
-0.127418 0.140504 0.636832
-0.147308 0.140409 0.618914
-0.0410052 0.140313 0.664097
-0.107382 0.140265 0.621479
-0.190919 0.140171 0.571751
-0.0902303 0.140076 0.614138
-0.233112 0.139982 0.534744
-0.113218 0.139935 0.585282
-0.138345 0.139841 0.564773
-0.0636781 0.139748 0.594164
-0.0905472 0.139655 0.57279
-0.106227 0.139609 0.55556
-0.120316 0.139517 0.540583
-0.111617 0.139425 0.537003
-0.162651 0.139333 0.503559
-0.138566 0.139287 0.50623
-0.160596 0.139196 0.487294
-0.125773 0.139106 0.496788
-0.154493 0.139061 0.473069
-0.106454 0.138971 0.489177
-0.151852 0.138881 0.458568
-0.176901 0.138836 0.436697
-0.182087 0.138747 0.4262
-0.145456 0.138658 0.436613
-0.0999527 0.138529 0.452807
-0.142547 0.138485 0.422185
-0.160594 0.138397 0.405271
-0.185806 0.138309 0.384776
-0.17583 0.138266 0.38045
-0.219824 0.138179 0.350568
-0.147219 0.138092 0.378987
-0.109528 0.138049 0.38853
-0.187084 0.137963 0.341872
-0.197741 0.137878 0.328665
-0.0986062 0.137835 0.368941
-0.23187 0.13775 0.294434
-0.136515 0.137666 0.334236
-0.114455 0.137624 0.335984
-0.134803 0.13754 0.317938
-0.167459 0.137456 0.293739
-0.183703 0.137415 0.276344
-0.12385 0.137332 0.298402
-0.14284 0.137249 0.281038
-0.182736 0.137208 0.251826
-0.115251 0.137126 0.277702
-0.126104 0.137044 0.264408
-0.129405 0.137004 0.253503
-0.114148 0.136923 0.253265
-0.180782 0.136842 0.212081
-0.130933 0.136802 0.22776
-0.234189 0.136722 0.168266
-0.201438 0.136642 0.176775
-0.125099 0.136603 0.205706
-0.157344 0.136523 0.181717
-0.0634451 0.136484 0.219433
-0.139207 0.136406 0.173687
-0.179448 0.136328 0.145699
-0.117302 0.136289 0.167545
-0.183971 0.136211 0.126344
-0.139526 0.136134 0.140697
-0.26075 0.136096 0.0708645
-0.101917 0.13602 0.142411
-0.167781 0.135982 0.100263
-0.186069 0.135906 0.0832489
-0.175617 0.13583 0.0806018
-0.172831 0.135793 0.072784
-0.162061 0.135718 0.0702947
-0.169868 0.135681 0.0571844
-0.117527 0.135607 0.0754791
-0.159565 0.135533 0.0465814
-0.191306 0.135496 0.0215084
-0.122148 0.135423 0.0482068
-0.149368 0.135386 0.0253977
-0.143693 0.135314 0.0203516
1.42558 0.193533 2.87447
1.32525 0.192211 2.83
1.27131 0.191161 2.80491
1.2134 0.190313 2.77496
1.26542 0.189558 2.7987
1.24439 0.188897 2.78463
1.20247 0.188254 2.75992
1.19221 0.18769 2.74995
1.09624 0.187052 2.69831
1.10509 0.186506 2.69777
1.0719 0.186052 2.67489
1.04121 0.185599 2.65329
1.01117 0.18515 2.63204
1.01881 0.184702 2.62965
1.01761 0.184257 2.62287
0.934786 0.183903 2.57392
0.971286 0.183551 2.58464
0.83218 0.183114 2.50895
0.922157 0.182766 2.54646
0.839989 0.182334 2.49929
0.8915 0.182077 2.51619
0.897966 0.181736 2.51196
0.800658 0.181307 2.45734
0.809879 0.181057 2.45312
0.822277 0.180715 2.45202
0.869477 0.180383 2.46821
0.756699 0.180129 2.40318
0.751208 0.179801 2.39305
0.632331 0.179465 2.32642
0.777597 0.179142 2.39168
0.717997 0.178808 2.35474
0.799538 0.178572 2.38675
0.69484 0.178324 2.3259
0.717981 0.178092 2.32872
0.728501 0.177763 2.32692
0.680127 0.177435 2.29571
0.724505 0.177291 2.30775
0.691628 0.176965 2.28432
0.660201 0.176641 2.26164
0.630048 0.176399 2.23822
0.618751 0.17618 2.22385
0.540209 0.175939 2.17626
0.548903 0.17562 2.17372
0.620381 0.175381 2.20118
0.49632 0.175144 2.13089
0.57513 0.174933 2.16159
0.518411 0.174698 2.125
0.508549 0.174463 2.11186
0.591981 0.174229 2.14539
0.478395 0.173996 2.08042
0.511936 0.173764 2.08903
0.440288 0.173533 2.04507
0.557346 0.173226 2.09688
0.525974 0.173073 2.07168
0.486307 0.172845 2.04375
0.56056 0.172618 2.0728
0.474888 0.172391 2.02189
0.444331 0.172166 1.99856
0.470884 0.171941 2.0038
0.444805 0.171718 1.98274
0.434664 0.171495 1.96966
0.365355 0.171346 1.92563
0.409999 0.171123 1.94001
0.412887 0.1709 1.93354
0.343456 0.170642 1.89162
0.352562 0.17042 1.8883
0.399144 0.170199 1.90374
0.344876 0.170052 1.86734
0.340683 0.169832 1.85743
0.365429 0.169686 1.86058
0.30953 0.169467 1.82485
0.339246 0.169248 1.83195
0.33595 0.169103 1.82113
0.400468 0.168886 1.84567
0.381952 0.168741 1.82727
0.312957 0.168487 1.78585
0.350646 0.168271 1.79703
0.321907 0.168127 1.77357
0.307293 0.167912 1.75864
0.246768 0.16777 1.71932
0.303598 0.167556 1.74015
0.279682 0.167414 1.71917
0.30828 0.167201 1.72591
0.269785 0.167059 1.69767
0.32358 0.166848 1.71704
0.254052 0.166707 1.67331
0.228518 0.166496 1.65306
0.242359 0.166317 1.65187
0.238447 0.166107 1.64246
0.249728 0.165968 1.6392
0.119013 0.165759 1.56642
0.136497 0.165621 1.5663
0.184402 0.165482 1.58139
0.216518 0.165275 1.59008
0.206392 0.165138 1.57618
0.268484 0.165001 1.59841
0.190429 0.164795 1.55205
0.202308 0.164659 1.54921
0.150576 0.164523 1.51457
0.112622 0.164387 1.48683
0.207568 0.164183 1.52702
0.178266 0.164048 1.50364
0.23116 0.163805 1.52374
0.137757 0.16367 1.46834
0.191234 0.163536 1.48639
0.175201 0.163402 1.46969
0.180297 0.163269 1.46357
0.179844 0.163069 1.45617
0.140595 0.162937 1.4279
0.191152 0.162804 1.44455
0.0077871 0.162672 1.34424
0.20449 0.16254 1.43399
0.196583 0.162344 1.42292
0.129533 0.162213 1.38081
0.173812 0.162082 1.39437
0.0614514 0.161952 1.32963
0.104846 0.161822 1.34278
0.164242 0.161692 1.36393
0.0811658 0.161456 1.31635
-0.0207817 0.161327 1.25686
0.106514 0.161198 1.312
0.119143 0.16107 1.30983
0.134114 0.160942 1.30883
0.0111542 0.160815 1.23888
0.0151759 0.160688 1.23243
0.0697299 0.160561 1.25125
0.0589905 0.160434 1.23744
-0.00388626 0.160308 1.19757
0.0373709 0.160182 1.20978
0.0191737 0.159994 1.19376
0.0734885 0.159869 1.21252
0.0396821 0.159745 1.18722
-0.00612566 0.159621 1.15593
-0.0203437 0.159497 1.14045
0.0598052 0.159373 1.17216
-0.020353 0.15925 1.12373
-0.00606907 0.159127 1.12252
0.0620885 0.159005 1.14826
0.0133405 0.158838 1.11665
0.0372311 0.158716 1.12028
0.0227222 0.158594 1.10472
0.0566598 0.158473 1.11339
0.050823 0.158352 1.10219
-0.0245129 0.158232 1.05624
0.0148715 0.158112 1.06766
-0.124282 0.157992 0.989814
0.0292137 0.157873 1.05831
-0.0443782 0.157754 1.01326
0.0160511 0.157635 1.03523
0.0280996 0.157576 1.03153
-0.0141964 0.157458 1.00216
-0.0651929 0.15734 0.96844
-0.0115283 0.157223 0.987062
0.069512 0.157106 1.01938
-0.0233532 0.156989 0.964749
-0.0409327 0.156873 0.94777
-0.0841839 0.156757 0.917961
-0.00218269 0.156642 0.950786
-0.113333 0.156527 0.887042
-0.0717301 0.156469 0.898192
-0.0429346 0.156355 0.904435
-0.0500682 0.156241 0.89272
0.00678064 0.15608 0.914219
-0.104275 0.155967 0.850561
-0.0765854 0.155854 0.856282
-0.0651745 0.155741 0.853871
-0.0325445 0.155629 0.862074
-0.029424 0.155517 0.855529
-0.145566 0.155461 0.787873
-0.122947 0.155349 0.79109
-0.145231 0.155238 0.77186
-0.0102856 0.155128 0.831251
-0.100071 0.155017 0.778282
0.0291624 0.154907 0.834827
-0.104313 0.154853 0.758544
-0.106184 0.154743 0.749548
-0.105613 0.154634 0.741779
-0.0711384 0.154526 0.750966
-0.149799 0.154418 0.703591
-0.0898251 0.154364 0.724062
-0.0634315 0.154256 0.729225
-0.162625 0.154149 0.671598
-0.0712541 0.154042 0.709258
-0.0456267 0.153936 0.71405
-0.185476 0.153883 0.634639
-0.0564023 0.153777 0.691164
-0.0390743 0.153672 0.691821
-0.113001 0.153567 0.646854
-0.000789753 0.153462 0.69496
-0.0822582 0.15341 0.644766
-0.117791 0.153306 0.61901
-0.125269 0.153155 0.608644
-0.170538 0.153051 0.578032
-0.140575 0.153 0.58358
-0.144431 0.152897 0.573683
-0.0925207 0.152795 0.591672
-0.0991345 0.152693 0.580402
-0.142183 0.152642 0.549464
-0.077138 0.152541 0.574031
-0.144816 0.15244 0.53224
-0.11487 0.15234 0.539263
-0.135806 0.15229 0.5194
-0.137963 0.15219 0.510379
-0.117391 0.15209 0.512725
-0.142867 0.151991 0.492049
-0.0930406 0.151942 0.507585
-0.178343 0.151844 0.457002
-0.186611 0.151746 0.444938
-0.182817 0.151697 0.437471
-0.126115 0.1516 0.457899
-0.102028 0.151503 0.46202
-0.211363 0.151406 0.399432
-0.149255 0.151358 0.421138
-0.101123 0.151262 0.437289
-0.114148 0.151167 0.422863
-0.187166 0.151119 0.377018
-0.0767615 0.151024 0.424311
-0.162741 0.15093 0.373413
-0.169087 0.150883 0.360916
-0.0942654 0.150789 0.390423
-0.102926 0.150696 0.37819
-0.111869 0.150649 0.364404
-0.176901 0.150556 0.323989
-0.154065 0.150464 0.327508
-0.1084 0.150418 0.341037
-0.0961863 0.150326 0.339249
-0.115149 0.150235 0.321872
-0.161876 0.15019 0.289215
-0.120107 0.150099 0.302207
-0.184081 0.149959 0.263874
-0.208204 0.149869 0.243925
-0.236965 0.149824 0.220268
-0.117171 0.149735 0.27228
-0.234816 0.149646 0.205572
-0.133744 0.149602 0.24684
-0.167056 0.149514 0.222301
-0.160382 0.14947 0.216375
-0.152461 0.149382 0.212454
-0.180991 0.149295 0.190306
-0.154999 0.149252 0.194047
-0.153162 0.149165 0.187083
-0.156596 0.14908 0.177483
-0.203404 0.149037 0.144832
-0.107057 0.148951 0.185122
-0.11712 0.148866 0.172206
-0.166345 0.148824 0.138353
-0.188601 0.14874 0.11934
-0.138258 0.148698 0.135275
-0.1688 0.148614 0.11212
-0.263633 0.148531 0.0568159
-0.235408 0.14849 0.0616983
-0.185954 0.148407 0.0785375
-0.147979 0.148325 0.0896345
-0.195703 0.148284 0.0565479
-0.303941 0.148203 -0.00546304
-0.102346 0.148163 0.0861135
-0.14197 0.148082 0.0584085
-0.146925 0.148002 0.0480346
-0.146924 0.147962 0.0388191
-0.112967 0.147882 0.0478993
-0.149883 0.147842 0.0202281
-0.198517 0.147763 -0.0119894
1.45035 0.210217 2.87933
1.39411 0.208668 2.85846
1.37566 0.207533 2.85104
1.29454 0.206694 2.80836
1.23349 0.205803 2.77656
1.21028 0.204992 2.76267
1.18604 0.204379 2.74562
1.17391 0.203688 2.73578
1.09904 0.20318 2.69211
1.04101 0.202592 2.65805
1.14737 0.202007 2.70623
1.03398 0.20152 2.6432
1.07003 0.201035 2.65492
1.05132 0.200554 2.63929
0.950946 0.200075 2.58285
0.899609 0.199693 2.54957
0.994799 0.199314 2.58958
0.961206 0.198844 2.56657
0.915887 0.198564 2.53497
1.00148 0.19819 2.57024
0.89023 0.197634 2.50985
0.843274 0.197361 2.47746
0.814672 0.196997 2.45564
0.941461 0.196628 2.51164
0.848199 0.196269 2.45751
0.754626 0.196005 2.40185
0.819982 0.195549 2.42859
0.783975 0.195288 2.40173
0.840032 0.194926 2.42249
0.745313 0.19467 2.36628
0.785531 0.1944 2.37778
0.832747 0.194058 2.39395
0.718047 0.193701 2.32943
0.716227 0.193452 2.31968
0.757147 0.193098 2.33302
0.706851 0.192854 2.29904
0.773649 0.192503 2.32535
0.754234 0.192328 2.30579
0.701966 0.192002 2.27224
0.614525 0.191655 2.22149
0.750446 0.191482 2.27966
0.615649 0.191163 2.20485
0.640213 0.190906 2.20876
0.549667 0.190564 2.15654
0.541416 0.190423 2.14221
0.620561 0.190169 2.17346
0.60404 0.189831 2.15829
0.648639 0.189579 2.17231
0.604848 0.189327 2.14216
0.511127 0.188993 2.08845
0.458436 0.188827 2.05248
0.567177 0.188613 2.09805
0.528504 0.188366 2.07051
0.55205 0.18812 2.07409
0.568051 0.187875 2.07392
0.555176 0.187631 2.05932
0.479325 0.187388 2.01325
0.568066 0.187146 2.04949
0.421502 0.186905 1.96809
0.348822 0.186545 1.92574
0.540262 0.186306 2.01338
0.492158 0.186068 1.98126
0.47836 0.185907 1.96496
0.42115 0.185666 1.92839
0.462635 0.185426 1.94119
0.399051 0.185187 1.90148
0.375083 0.185028 1.88017
0.427278 0.184668 1.90057
0.41626 0.184509 1.88578
0.419286 0.184272 1.87945
0.3486 0.184035 1.83629
0.312813 0.183878 1.80917
0.349251 0.183643 1.8196
0.411103 0.183486 1.84133
0.374089 0.183252 1.81508
0.376528 0.183018 1.80857
0.360572 0.18274 1.79371
0.32435 0.182585 1.76648
0.283964 0.182353 1.73862
0.321157 0.182199 1.74812
0.37497 0.181968 1.7674
0.370667 0.181814 1.75618
0.342207 0.181584 1.73436
0.20795 0.181431 1.6582
0.32176 0.181203 1.70754
0.298152 0.181051 1.68673
0.293291 0.180777 1.67766
0.270405 0.18055 1.65871
0.255874 0.180399 1.64249
0.178311 0.180248 1.59478
0.180119 0.180023 1.58822
0.282907 0.179873 1.63071
0.237382 0.179649 1.60052
0.232156 0.1795 1.58902
0.316742 0.179351 1.62245
0.255734 0.179129 1.58456
0.132223 0.178981 1.51397
0.178961 0.178712 1.53093
0.206794 0.178564 1.53605
0.195821 0.178418 1.52177
0.222286 0.178198 1.5277
0.129747 0.178052 1.47266
0.251475 0.177906 1.52478
0.195139 0.177761 1.48787
0.172278 0.177543 1.46919
0.137377 0.177399 1.44302
0.210587 0.177255 1.47092
0.114942 0.177111 1.41441
0.175677 0.176896 1.43758
0.208868 0.176753 1.44551
0.0930226 0.176561 1.37996
0.190303 0.176347 1.42144
0.144733 0.176205 1.39003
0.153333 0.176064 1.38572
0.0370314 0.175922 1.31897
0.182505 0.175782 1.38312
0.135841 0.175641 1.35121
0.121362 0.175431 1.33688
0.136227 0.175292 1.33576
0.181607 0.175152 1.3499
0.150006 0.175013 1.32557
0.0882246 0.174875 1.28615
0.114426 0.174737 1.29074
0.0358547 0.174599 1.24295
0.119365 0.174342 1.2788
0.0345673 0.174205 1.22792
0.120471 0.174068 1.26241
0.0243936 0.173932 1.20591
0.0427498 0.173796 1.20664
0.0648542 0.173661 1.20926
0.0429174 0.173526 1.18986
0.0539434 0.173391 1.18695
0.0967857 0.173256 1.19997
0.0459035 0.173122 1.16612
0.024116 0.172989 1.14684
0.0545051 0.172856 1.15365
0.0256969 0.172723 1.13088
-0.0199827 0.17259 1.09967
0.0210423 0.172458 1.11183
0.0490121 0.172326 1.11747
0.0819057 0.172195 1.12558
0.0411916 0.171946 1.09958
0.0557016 0.171815 1.09852
0.0341326 0.171685 1.07943
-0.0230645 0.171556 1.04253
0.0457123 0.171426 1.06863
-0.0215399 0.171362 1.02523
-0.00738576 0.171233 1.02403
0.0107317 0.171105 1.02483
-0.0457751 0.170977 0.988314
-0.00938875 0.170849 0.998256
-0.0430812 0.170722 0.973166
0.0167933 0.170595 0.994867
0.182201 0.170469 1.06934
-0.0661605 0.170343 0.93694
-0.00928018 0.170217 0.957165
-0.013275 0.170092 0.94696
-0.0673414 0.169967 0.911726
-0.0651972 0.169843 0.904604
-0.087757 0.169781 0.883651
0.016353 0.169657 0.927526
-0.0646605 0.169533 0.878845
-0.0575815 0.169356 0.875533
-0.0599338 0.169233 0.866202
-0.0566376 0.169111 0.859702
-0.0424815 0.168989 0.858639
-0.0927279 0.168868 0.825379
-0.136557 0.168747 0.795335
-0.0527171 0.168626 0.82913
-0.0963692 0.168566 0.797705
-0.0133497 0.168446 0.831103
0.0331325 0.168326 0.846238
-0.101303 0.168207 0.770919
-0.0863945 0.168088 0.770277
-0.06259 0.16797 0.774089
-0.0352414 0.167911 0.778202
-0.0251657 0.167793 0.775161
-0.12905 0.167676 0.715144
-0.129244 0.167559 0.706978
-0.110864 0.167443 0.708103
-0.0692542 0.167326 0.720847
-0.055173 0.167269 0.718363
-0.190757 0.167153 0.642522
-0.0499698 0.167038 0.70487
-0.130569 0.166924 0.656529
-0.127792 0.166754 0.651319
-0.170767 0.166697 0.62034
-0.0566011 0.166583 0.669402
-0.0612235 0.16647 0.659074
-0.0828653 0.166357 0.64024
-0.134764 0.166245 0.60628
-0.0992326 0.166189 0.614582
-0.0650071 0.166077 0.623693
-0.200847 0.165966 0.547776
-0.0734594 0.165855 0.603475
-0.0297735 0.1658 0.615874
-0.156167 0.16569 0.54469
-0.0384389 0.16558 0.595571
-0.082763 0.165471 0.565428
-0.152672 0.165416 0.521049
-0.0934376 0.165308 0.542693
-0.203569 0.1652 0.479657
-0.0730472 0.165092 0.536949
-0.0425407 0.165038 0.542796
-0.0743897 0.164931 0.51891
-0.0811726 0.164825 0.507559
-0.126182 0.164718 0.477097
-0.123686 0.164666 0.468956
-0.115958 0.16456 0.464869
-0.126126 0.164455 0.451836
-0.102374 0.164403 0.454336
-0.141369 0.164298 0.426895
-0.155233 0.164194 0.41202
-0.0419551 0.164091 0.460718
-0.0785213 0.164039 0.433075
-0.116501 0.163879 0.407749
-0.102292 0.163776 0.406925
-0.152774 0.163725 0.37234
-0.04851 0.163623 0.416549
-0.142052 0.163522 0.361855
-0.0871762 0.163421 0.381371
-0.14808 0.163371 0.34159
-0.00960203 0.163271 0.40291
-0.202006 0.163171 0.29879
-0.140064 0.163121 0.320442
-0.0627984 0.163022 0.351161
-0.0872155 0.162924 0.331038
-0.0713266 0.162875 0.329673
-0.11557 0.162777 0.29964
-0.0757438 0.162679 0.311641
-0.151045 0.162631 0.264691
-0.141369 0.162534 0.261619
-0.114775 0.162438 0.267007
-0.123542 0.16239 0.253332
-0.114569 0.162294 0.249911
-0.144917 0.162199 0.226828
-0.103845 0.162152 0.238081
-0.113226 0.162057 0.225483
-0.177004 0.161963 0.185686
-0.109292 0.161916 0.210267
-0.196361 0.161823 0.158825
-0.186472 0.161777 0.1545
-0.198645 0.161684 0.140507
-0.0855344 0.161592 0.189154
-0.18882 0.161546 0.128248
-0.125318 0.161455 0.152091
-0.180059 0.161364 0.11681
-0.158058 0.161319 0.118554
-0.168749 0.161228 0.105299
-0.178585 0.161139 0.0924682
-0.195785 0.161094 0.074618
-0.144729 0.161005 0.0922326
-0.0841605 0.160961 0.11327
-0.078558 0.160872 0.108157
-0.146858 0.160725 0.0678954
-0.0946955 0.160681 0.0847405
-0.133196 0.160594 0.0575784
-0.162643 0.160507 0.0349398
-0.216761 0.160464 -0.00135074
-0.215185 0.160378 -0.00847952
-0.109156 0.160335 0.0353067
-0.132269 0.16025 0.0158305
1.51631 0.226953 2.90519
1.48757 0.225291 2.89797
1.31319 0.224073 2.8125
1.31853 0.223171 2.81299
1.21566 0.222298 2.75913
1.24533 0.221449 2.77133
1.28871 0.220583 2.7907
1.18644 0.220033 2.73326
1.14867 0.219297 2.71056
1.13395 0.218769 2.69674
1.16987 0.218233 2.70843
1.17862 0.217609 2.70774
1.09981 0.21709 2.66196
0.981654 0.216575 2.59652
1.04157 0.216062 2.62015
1.05876 0.215653 2.62107
1.0597 0.215147 2.61524
0.950381 0.214744 2.55294
0.961779 0.214344 2.551
0.940431 0.213947 2.5327
0.887967 0.213553 2.49885
0.973521 0.213255 2.53272
0.869348 0.212766 2.47441
0.909684 0.21238 2.487
0.845209 0.212094 2.4458
0.868144 0.211714 2.44969
0.852101 0.211324 2.43427
0.847961 0.210949 2.42464
0.883067 0.210674 2.43325
0.735732 0.210288 2.35226
0.769222 0.210017 2.36007
0.77904 0.20973 2.35632
0.719642 0.209367 2.31909
0.74998 0.209103 2.32533
0.80324 0.208725 2.34474
0.739542 0.208465 2.30397
0.739325 0.20809 2.29668
0.74929 0.207928 2.29137
0.720125 0.207556 2.26964
0.738948 0.207305 2.27014
0.70494 0.206936 2.24602
0.704286 0.206782 2.2354
0.705022 0.206416 2.22869
0.628679 0.206142 2.18208
0.699481 0.205902 2.20857
0.680185 0.20563 2.19051
0.659612 0.20536 2.17183
0.696677 0.205126 2.18145
0.535456 0.204769 2.09386
0.657838 0.204502 2.1467
0.561276 0.204236 2.09009
0.589803 0.20401 2.09544
0.547527 0.203747 2.06599
0.595631 0.203485 2.08176
0.613242 0.203224 2.08229
0.630239 0.202963 2.08253
0.545962 0.202618 2.03353
0.544211 0.20236 2.02442
0.609141 0.202104 2.04868
0.481315 0.201848 1.97656
0.546109 0.201593 2.00077
0.547734 0.20134 1.99341
0.381867 0.200957 1.90446
0.457139 0.200789 1.93259
0.383165 0.200534 1.88756
0.481708 0.200277 1.92884
0.483269 0.200021 1.92165
0.433712 0.19985 1.8875
0.376592 0.199461 1.85325
0.43906 0.199207 1.87658
0.436415 0.199038 1.86595
0.381203 0.198784 1.83048
0.387778 0.198532 1.82592
0.369379 0.19823 1.80976
0.360616 0.197978 1.79757
0.367731 0.197811 1.79192
0.356684 0.197561 1.77863
0.372899 0.197311 1.77899
0.363794 0.197145 1.76528
0.289733 0.196845 1.72143
0.243173 0.196597 1.69047
0.303634 0.196432 1.71159
0.328311 0.196185 1.71628
0.275386 0.196021 1.68074
0.336078 0.195776 1.70347
0.320869 0.195613 1.68682
0.295989 0.195234 1.66918
0.26075 0.195072 1.64256
0.366096 0.194909 1.68623
0.285065 0.194667 1.63819
0.356572 0.194506 1.66498
0.280954 0.194264 1.61967
0.323261 0.194104 1.63189
0.271565 0.193944 1.59711
0.298467 0.193704 1.60311
0.304152 0.193411 1.59952
0.238151 0.193252 1.55765
0.250304 0.193094 1.55486
0.262078 0.192857 1.55337
0.262528 0.192699 1.54476
0.262489 0.192542 1.53591
0.182598 0.192307 1.48863
0.192252 0.19215 1.48466
0.212653 0.19186 1.4886
0.129212 0.191705 1.43811
0.167956 0.191549 1.44873
0.132801 0.191317 1.42389
0.270881 0.191163 1.4842
0.193818 0.191009 1.43696
0.185289 0.190855 1.42399
0.274257 0.190625 1.46126
0.16277 0.190473 1.39683
0.182317 0.19032 1.39794
0.210785 0.190035 1.40611
0.163107 0.189884 1.37364
0.136372 0.189733 1.35164
0.0769886 0.189582 1.31334
0.150381 0.189431 1.34143
0.0546502 0.189206 1.28645
0.1242 0.189057 1.31264
0.130234 0.188908 1.30709
0.0952337 0.188759 1.28103
0.138113 0.188611 1.29392
0.186895 0.188463 1.30977
0.141648 0.188315 1.27861
0.0891783 0.188036 1.24653
-0.0018509 0.187889 1.19252
0.0843683 0.187743 1.22713
0.198082 0.187597 1.27551
0.0923997 0.187451 1.2142
0.12074 0.187306 1.2199
0.0716044 0.187162 1.18688
0.0632206 0.187017 1.17424
0.149347 0.186873 1.20887
0.069448 0.18673 1.1605
0.0548932 0.186587 1.1448
0.0895005 0.186444 1.1537
0.0428558 0.186231 1.12346
0.043019 0.186029 1.11642
0.0550255 0.185887 1.11405
0.0207466 0.185746 1.08855
0.107633 0.185605 1.12363
0.0243801 0.185465 1.07366
-0.0276225 0.185325 1.03932
-0.0128417 0.185186 1.03837
-0.0011008 0.185047 1.03592
0.00083814 0.184909 1.02857
0.0380252 0.184771 1.03886
0.0482235 0.184633 1.03566
-0.00813336 0.184496 0.999186
-0.0198601 0.184359 0.985037
-0.0180707 0.184222 0.977654
-0.0200823 0.184086 0.968378
-0.0149352 0.183951 0.962688
0.0375358 0.183753 0.982034
0.00155982 0.183618 0.955804
0.0157284 0.183484 0.954654
-0.0280812 0.18335 0.924521
0.0456011 0.183283 0.951658
0.0283165 0.18315 0.934802
0.0241759 0.183017 0.924525
0.00726345 0.182884 0.907868
0.0436471 0.182752 0.917865
-0.00440812 0.182621 0.88565
-0.0422062 0.182489 0.858569
-0.0123396 0.182359 0.865326
-0.0529841 0.182228 0.836834
-0.0142348 0.182163 0.846568
-0.0206327 0.182034 0.835212
0.0030906 0.181904 0.838922
-0.155424 0.181776 0.751519
-0.0271883 0.181584 0.808963
-0.0375888 0.181456 0.795635
-0.0720974 0.181328 0.770258
-0.0100847 0.181201 0.793147
-0.101513 0.181074 0.739321
-0.0544579 0.181011 0.753271
-0.138175 0.180885 0.703312
0.0686531 0.18076 0.79863
-0.0552256 0.180634 0.728599
-0.00714591 0.18051 0.744552
-0.0783011 0.180448 0.699427
-0.0247954 0.180324 0.718104
-0.0822776 0.1802 0.681291
-0.0879398 0.180077 0.670392
-0.0546186 0.179954 0.678989
-0.0257978 0.179832 0.68534
-0.183825 0.179771 0.596813
0.016043 0.17965 0.688697
-0.0724285 0.179529 0.636414
-0.096905 0.179408 0.616133
-0.0830215 0.179348 0.613583
-0.0752602 0.179163 0.611017
-0.0849614 0.179044 0.598143
-0.0888679 0.178925 0.588169
-0.0799897 0.178806 0.584591
-0.0940717 0.178747 0.568089
-0.110818 0.178629 0.551707
-0.113354 0.178512 0.542432
-0.0322697 0.178395 0.574971
-0.109976 0.178278 0.528117
-0.061287 0.17822 0.543024
-0.0259713 0.178105 0.552688
-0.0688711 0.177989 0.523247
-0.158662 0.177875 0.470362
-0.096878 0.177817 0.491834
-0.0210304 0.177703 0.521776
-0.215802 0.17759 0.416409
-0.100582 0.177533 0.464613
-0.0402163 0.17742 0.486821
-0.0710177 0.177308 0.463447
-0.115471 0.177196 0.433248
-0.0884877 0.17714 0.43735
-0.0546127 0.177029 0.446321
-0.0134495 0.176918 0.458938
0.00626872 0.176863 0.459419
-0.0814803 0.176753 0.407584
-0.0560978 0.176576 0.414048
-0.08866 0.176467 0.389816
-0.141073 0.176413 0.354252
-0.208634 0.176304 0.312525
-0.128488 0.176196 0.344651
-0.134055 0.176089 0.333922
-0.100715 0.176035 0.341248
-0.20036 0.175929 0.283484
-0.208817 0.175822 0.271313
-0.126914 0.17577 0.302931
-0.082711 0.175664 0.317093
-0.144511 0.175559 0.278254
-0.121519 0.175507 0.280426
-0.0751205 0.175402 0.295688
-0.0818732 0.175299 0.284375
-0.0920563 0.175247 0.269968
-0.117358 0.175144 0.249382
-0.085839 0.175042 0.257207
-0.119399 0.17499 0.231119
-0.132579 0.174889 0.216595
-0.145632 0.174787 0.202134
-0.176907 0.174737 0.177198
-0.186712 0.174636 0.164361
-0.135849 0.174536 0.181858
-0.131333 0.174487 0.174824
-0.16838 0.174387 0.148367
-0.168815 0.174289 0.140213
-0.173097 0.174239 0.128787
-0.141417 0.174141 0.136692
-0.171606 0.174044 0.11366
-0.0942735 0.173995 0.143048
-0.0996317 0.173899 0.132431
-0.125299 0.173733 0.113572
-0.167671 0.173686 0.0831194
-0.141477 0.17359 0.0882828
-0.152997 0.173542 0.0732598
-0.112142 0.173448 0.0857524
-0.196245 0.173353 0.0357638
-0.101267 0.173306 0.0739952
-0.132193 0.173213 0.0505928
-0.0766723 0.17312 0.0704113
-0.14528 0.173073 0.0268548
-0.104999 0.172981 0.0390512
-0.0162731 0.172935 0.0741642
-0.0802439 0.172844 0.0342324
1.51212 0.244015 2.89312
1.45858 0.242319 2.87244
1.35146 0.240798 2.82309
1.36449 0.23975 2.82837
1.31789 0.238792 2.80288
1.39743 0.237975 2.83887
1.18498 0.237183 2.72865
1.16883 0.236375 2.71687
1.26049 0.235793 2.75633
1.17409 0.235012 2.70927
1.11107 0.234452 2.67125
1.15601 0.233993 2.68604
1.04651 0.233332 2.62617
1.04226 0.232783 2.61761
1.10147 0.232237 2.6408
1.02351 0.231802 2.59407
1.09339 0.231369 2.62128
0.936252 0.230939 2.53499
1.01036 0.230513 2.56433
0.943445 0.229983 2.52454
0.927602 0.229563 2.50893
0.943765 0.229146 2.50932
0.978371 0.228732 2.51895
0.962022 0.228322 2.5031
0.934901 0.228018 2.48051
0.94224 0.227718 2.47514
0.887701 0.227317 2.4402
0.860015 0.227007 2.41752
0.869511 0.226611 2.41462
0.868467 0.226218 2.40645
0.893963 0.225931 2.41018
0.880693 0.225646 2.39452
0.884741 0.225364 2.38752
0.745507 0.225062 2.30918
0.728888 0.224684 2.29322
0.82562 0.224409 2.33256
0.743159 0.224236 2.28093
0.743227 0.223939 2.27231
0.832811 0.223572 2.30944
0.886763 0.223307 2.32738
0.754157 0.223142 2.25067
0.789111 0.22285 2.25955
0.824684 0.222591 2.2683
0.871675 0.222335 2.28275
0.766254 0.222082 2.22098
0.652105 0.221926 2.15348
0.739023 0.221736 2.18703
0.716668 0.221526 2.16625
0.67381 0.221338 2.13492
0.697173 0.221134 2.13695
0.696287 0.221174 2.12334
0.715436 0.221253 2.11916
0.455487 0.213885 1.81686
0.470883 0.213561 1.81755
0.448208 0.213149 1.80067
0.398338 0.212972 1.76645
0.473284 0.212561 1.79844
0.432028 0.212385 1.76857
0.459196 0.211975 1.77674
0.390004 0.211799 1.73294
0.402042 0.21139 1.7336
0.382461 0.211215 1.71465
0.297484 0.210954 1.66445
0.436641 0.210633 1.72732
0.348222 0.210373 1.67545
0.369684 0.2102 1.67708
0.445562 0.209881 1.7084
0.346323 0.209622 1.65117
0.422209 0.20945 1.68007
0.352322 0.209193 1.63754
0.33112 0.208876 1.62042
0.311022 0.208705 1.60138
0.336903 0.20845 1.6068
0.312091 0.20828 1.58543
0.270836 0.208026 1.55731
0.308177 0.20771 1.56958
0.292824 0.207542 1.55299
0.258501 0.207374 1.52693
0.289964 0.207122 1.53523
0.205587 0.206808 1.48673
0.236886 0.206642 1.49353
0.286968 0.206475 1.50973
0.265591 0.206226 1.49168
0.194906 0.206061 1.44752
0.285414 0.205896 1.48397
0.142149 0.205584 1.40616
0.212248 0.20542 1.43244
0.203472 0.205174 1.42076
0.190711 0.205011 1.40564
0.281794 0.204848 1.44244
0.223305 0.204685 1.40448
0.206725 0.204442 1.38895
0.157725 0.204215 1.35694
0.22102 0.203973 1.38138
0.170609 0.203812 1.34751
0.129041 0.203652 1.31807
0.153305 0.203492 1.32155
0.10683 0.203333 1.28968
0.194685 0.203173 1.32498
0.0877697 0.202869 1.26563
0.13518 0.20271 1.28073
0.17631 0.202552 1.29271
0.064466 0.202316 1.22969
0.185142 0.202159 1.28146
0.103202 0.202003 1.23194
0.120863 0.201847 1.23222
0.169273 0.201691 1.24789
0.101393 0.201391 1.2082
0.158887 0.201236 1.22844
0.146184 0.201081 1.21359
0.0428479 0.200928 1.15343
0.163908 0.200774 1.20548
0.115567 0.200621 1.17284
0.130453 0.200468 1.17182
0.0652068 0.200316 1.13075
0.0834797 0.200164 1.13144
0.122093 0.200013 1.14231
0.103906 0.199717 1.12764
0.0484227 0.199567 1.09148
0.050173 0.199417 1.08396
0.0337989 0.199267 1.06738
0.0889219 0.199118 1.08655
0.0490541 0.19897 1.05824
0.038067 0.198821 1.04438
0.00910451 0.198673 1.02154
0.100609 0.198526 1.05894
0.029445 0.198379 1.01501
0.0230133 0.198233 1.00346
0.0724145 0.198016 1.02126
0.0845289 0.19787 1.01901
0.0255303 0.197725 0.9812
0.0190754 0.19758 0.969673
-0.00564062 0.197436 0.949023
-0.0479857 0.197292 0.919565
-0.0187095 0.197148 0.925924
0.0506697 0.197005 0.952342
0.0158924 0.196863 0.926689
0.0336502 0.196721 0.92731
-0.0401567 0.19665 0.88068
-0.00585805 0.196508 0.889585
-0.000577571 0.196225 0.886974
-0.0673699 0.196084 0.845353
0.0174326 0.196014 0.878062
-0.0188414 0.195875 0.851714
-0.00454044 0.195735 0.850659
-0.0105109 0.195597 0.839474
-0.104918 0.195458 0.784077
-0.0235701 0.19532 0.816563
-0.012275 0.195183 0.814029
0.015642 0.195046 0.81981
0.0148404 0.194978 0.809771
-0.0650141 0.194842 0.761679
-0.0385591 0.194706 0.766747
0.00999307 0.194571 0.782868
0.0149123 0.194362 0.778779
-0.0140026 0.194228 0.756185
0.0333578 0.194094 0.771733
0.0180135 0.19396 0.755933
-0.0936973 0.193827 0.691955
-0.0768005 0.193761 0.690826
-0.0244658 0.193629 0.708881
-0.0115299 0.193497 0.707242
-0.0420937 0.193366 0.683856
-0.0845339 0.193235 0.654536
0.00737745 0.19317 0.690943
0.0125801 0.193039 0.685454
-0.056612 0.19291 0.642772
-0.098715 0.192781 0.613638
-0.0290649 0.192652 0.640385
-0.0393427 0.192588 0.625723
-0.0267446 0.192385 0.625653
-0.0489024 0.192258 0.606515
-0.0542402 0.19213 0.595791
-0.071476 0.192004 0.57912
-0.0394768 0.191878 0.58707
-0.143301 0.191815 0.525672
-0.0918532 0.19169 0.543355
-0.0322606 0.191565 0.565112
-0.0347515 0.191441 0.555831
-0.100288 0.191379 0.513596
-0.0596056 0.191255 0.525908
-0.0912655 0.191132 0.502051
-0.100989 0.191009 0.489165
-0.146308 0.190887 0.458483
-0.0975674 0.190827 0.473409
-0.0672267 0.190705 0.480564
0.00956572 0.190585 0.510946
-0.00383364 0.190524 0.494814
-0.0735491 0.190404 0.451949
-0.143338 0.190208 0.410866
-0.111194 0.190089 0.41894
-0.0816161 0.189971 0.425733
-0.0479249 0.189911 0.433173
-0.052201 0.189794 0.423044
-0.0990466 0.189676 0.391632
0.0105089 0.189618 0.437015
-0.0945058 0.189501 0.376523
-0.0468614 0.189385 0.39236
-0.0846831 0.18927 0.365466
-0.164432 0.189212 0.316211
-0.143365 0.189098 0.318765
-0.0752157 0.188983 0.34486
-0.0964288 0.188926 0.324884
-0.090823 0.188813 0.319711
-0.108582 0.1887 0.302855
-0.169085 0.188588 0.264628
-0.0776681 0.188532 0.300979
-0.14585 0.18842 0.258915
-0.158203 0.188309 0.244765
-0.0751863 0.188254 0.276926
-0.0942917 0.188143 0.259402
-0.143547 0.188034 0.226802
-0.147733 0.187979 0.21537
-0.11714 0.187792 0.224663
-0.0837982 0.187683 0.233371
-0.0977192 0.187629 0.217085
-0.250926 0.187521 0.13252
-0.144222 0.187414 0.177909
-0.0894132 0.187361 0.195996
0.00681004 0.187254 0.236145
-0.128545 0.187149 0.160504
-0.109138 0.187096 0.160897
-0.0629045 0.186991 0.176051
-0.0811091 0.186886 0.158983
-0.165413 0.186834 0.107528
-0.136336 0.18673 0.114101
-0.131161 0.186627 0.108721
-0.130745 0.186576 0.0996315
-0.091815 0.186474 0.111129
-0.100036 0.186372 0.0990481
-0.216894 0.186321 0.031327
-0.143925 0.18622 0.0598406
-0.131991 0.18612 0.0578336
-0.150459 0.186069 0.0393127
-0.0484594 0.18597 0.082337
-0.102465 0.185871 0.0473556
-0.192025 0.185821 -0.00670668
-0.0472214 0.185723 0.0577148
-0.115136 0.185674 0.0144785
-0.189117 0.185577 -0.0304949
1.5899 0.261681 2.91662
1.52016 0.259376 2.89325
1.3944 0.257759 2.83448
1.32055 0.256498 2.79787
1.31953 0.255623 2.79348
1.40998 0.254635 2.83618
1.27427 0.25377 2.76453
1.30042 0.25291 2.77383
1.20696 0.252174 2.722
1.17626 0.251577 2.70005
1.12379 0.250852 2.66874
1.14369 0.250262 2.67213
1.09376 0.249779 2.63942
1.18005 0.249082 2.67738
1.08914 0.248618 2.62408
1.1273 0.248156 2.63534
1.05973 0.247694 2.59378
1.02224 0.24724 2.56722
0.982687 0.246676 2.54098
0.925529 0.246228 2.50461
1.00992 0.245784 2.53902
0.992732 0.245454 2.5213
1.04674 0.245016 2.54053
0.987285 0.244691 2.50169
0.959234 0.24437 2.47855
1.05167 0.244051 2.51566
0.952035 0.243625 2.45808
0.933593 0.243327 2.43956
0.909873 0.243018 2.41857
0.962695 0.242711 2.43585
0.939781 0.242407 2.41526
0.882712 0.241999 2.37895
0.824811 0.241808 2.33951
0.890977 0.241618 2.3621
0.923679 0.241349 2.369
0.862858 0.241164 2.32808
0.88456 0.241086 2.32707
0.79619 0.240932 2.27201
0.9084 0.240959 2.31489
0.871133 0.241044 2.28228
2.18613 0.269037 2.55922
0.215353 0.217098 1.25915
0.212138 0.216774 1.25171
0.197028 0.216533 1.23688
0.141437 0.21621 1.2033
0.18587 0.216046 1.21691
0.20689 0.215883 1.21882
0.16025 0.215561 1.18978
0.156677 0.215399 1.17942
0.201796 0.215237 1.19342
0.161212 0.214917 1.16747
0.200558 0.214756 1.17861
0.0543444 0.214595 1.09698
0.143706 0.214356 1.13458
0.0614391 0.214196 1.08495
0.111544 0.213957 1.10298
0.208697 0.213798 1.14308
0.147685 0.21364 1.1041
0.136953 0.213403 1.09174
0.18869 0.213245 1.10916
0.170436 0.213088 1.0916
0.0991488 0.212931 1.04752
0.0289545 0.212617 1.00697
0.119253 0.212462 1.04372
0.0818699 0.212306 1.01662
0.114642 0.212151 1.02462
0.0793189 0.211997 0.99857
0.0827242 0.211843 0.991895
0.0836274 0.211609 0.985522
0.0407847 0.211456 0.955745
0.0236709 0.211303 0.938841
0.0354128 0.211151 0.936371
0.114646 0.210999 0.967653
0.0960427 0.210848 0.950025
0.156262 0.210697 0.971814
0.0307801 0.210466 0.902354
0.0225583 0.210316 0.889944
-0.0132789 0.210166 0.863733
0.133536 0.210017 0.928855
0.0460224 0.209869 0.876818
0.0264854 0.209721 0.858776
0.0433916 0.209573 0.858961
0.0235059 0.209343 0.842399
0.124204 0.209197 0.884501
0.0512687 0.209051 0.839791
0.0714116 0.208905 0.841626
0.00528267 0.20876 0.800331
0.047713 0.208615 0.813321
0.0443469 0.208543 0.80196
-0.00141648 0.208399 0.770864
0.0478024 0.208255 0.787265
0.0013967 0.208029 0.757563
0.00555359 0.207886 0.751451
-0.0113033 0.207744 0.734838
0.000420954 0.207602 0.732519
-0.0614411 0.207461 0.693412
-0.015726 0.20732 0.708099
-0.0340888 0.20718 0.69075
-0.0561617 0.20711 0.670103
-0.0144481 0.206971 0.682803
-0.0508791 0.206832 0.656435
0.000812481 0.206609 0.675904
-0.0628529 0.206471 0.635935
-0.0589335 0.206334 0.629762
-0.0697948 0.206197 0.616203
0.0695288 0.206128 0.676298
-0.0274841 0.205992 0.619672
-0.0813873 0.205857 0.584604
0.0499691 0.205722 0.64217
-0.067299 0.205587 0.575426
-0.0219554 0.20552 0.588557
0.0216168 0.205386 0.602242
-0.0860805 0.205253 0.540295
-0.0310208 0.205034 0.561582
-0.00738486 0.204902 0.565316
0.0231766 0.20477 0.572514
-0.0686366 0.204704 0.517103
-0.0035253 0.204573 0.541584
-0.0460493 0.204442 0.512249
-0.00658177 0.204312 0.523913
0.0071086 0.204183 0.52269
-0.0894974 0.204118 0.464905
-0.117819 0.20399 0.442683
-0.111324 0.203862 0.43787
-0.052987 0.203734 0.458981
-0.0303285 0.20367 0.460844
-0.0839724 0.203544 0.42597
-0.0777997 0.20333 0.422953
-0.0165596 0.203204 0.445532
-0.0848763 0.203142 0.40193
-0.0774501 0.203017 0.397607
-0.0419864 0.202892 0.407304
-0.0936402 0.202768 0.373444
-0.108714 0.202706 0.356478
-0.121203 0.202583 0.342205
-0.116776 0.202461 0.336389
-0.0615632 0.202339 0.355968
-0.0249565 0.202278 0.364857
-0.109571 0.202157 0.314526
-0.100519 0.202036 0.311027
-0.048471 0.201916 0.329027
-0.0474822 0.201856 0.320121
-0.0644102 0.201648 0.305681
-0.0466731 0.201529 0.306537
-0.0881223 0.20147 0.276427
-0.0923128 0.201352 0.266322
-0.0356991 0.201235 0.286618
-0.098548 0.201118 0.247183
-0.13079 0.20106 0.221689
-0.086601 0.200943 0.235774
-0.0966177 0.200828 0.222757
-0.0924604 0.20077 0.21547
-0.0611469 0.200656 0.223119
-0.034023 0.200542 0.228671
-0.0984207 0.200485 0.187115
-0.0968175 0.200372 0.179909
-0.0606087 0.200259 0.190004
-0.117013 0.200203 0.152451
-0.0974174 0.200091 0.15424
-0.0466233 0.19998 0.171627
-0.115285 0.199924 0.127953
-0.0794832 0.199814 0.137843
-0.111675 0.199614 0.115911
-0.0650347 0.199505 0.131225
-0.0443328 0.19945 0.132247
-0.0866009 0.199342 0.103106
-0.0788205 0.199234 0.0989868
-0.0509919 0.19918 0.103578
-0.0626807 0.199073 0.089723
-0.180394 0.198966 0.0228532
-0.142862 0.198913 0.0323013
-0.166533 0.198808 0.0124509
-0.0418162 0.198755 0.0654946
-0.132362 0.19865 0.0122055
-0.165237 0.198546 -0.0122517
-0.0483598 0.198494 0.0368764
-0.00891698 0.198391 0.0485758
1.56581 0.276821 2.90325
1.52335 0.275072 2.88639
1.36989 0.273735 2.80988
1.37029 0.272405 2.81036
1.40127 0.271483 2.82193
1.33785 0.270567 2.78634
1.32709 0.269657 2.7771
1.22335 0.268877 2.72007
1.23453 0.268226 2.71918
1.23181 0.267598 2.71116
1.19104 0.266837 2.68562
1.19036 0.266339 2.67733
1.2255 0.265711 2.68842
1.20575 0.2651 2.67195
1.13576 0.264732 2.62772
1.15689 0.264242 2.63045
1.14904 0.263643 2.61996
1.08892 0.263285 2.58068
1.0392 0.262812 2.54794
1.04424 0.262343 2.54257
0.976483 0.261995 2.49948
0.993614 0.261767 2.4975
0.930322 0.261315 2.4579
1.07026 0.260976 2.51865
0.997461 0.260756 2.4717
0.970391 0.26032 2.45014
0.983911 0.260105 2.44633
1.02009 0.259794 2.455
1.00285 0.259698 2.43447
0.982668 0.259508 2.41358
0.910712 0.259414 2.36567
0.991482 0.259454 2.39255
0.993545 0.259516 2.37979
1.02183 0.259801 2.37746
1.75738 0.275589 2.54096
1.88141 0.278424 2.55466
1.89186 0.28047 2.52091
1.99804 0.282316 2.53726
2.05231 0.283904 2.53065
2.13332 0.285397 2.53844
0.0697538 0.219245 0.5726
-0.00675142 0.21901 0.528134
0.0193666 0.218872 0.533008
-0.0138982 0.218637 0.510191
0.0450791 0.2185 0.531509
0.00117188 0.218363 0.501387
0.103779 0.21813 0.546543
0.160272 0.218062 0.565232
0.0627368 0.217927 0.508314
-0.0354995 0.217792 0.451046
-0.10761 0.21756 0.408891
0.0238032 0.217426 0.466461
0.0338074 0.217293 0.463328
-0.0866016 0.217226 0.393598
-0.0632251 0.217094 0.397156
-0.0432007 0.216863 0.401123
-0.0318988 0.216732 0.398656
-0.0864184 0.216601 0.363278
0.0355718 0.216536 0.414774
-0.0466804 0.216406 0.365535
0.0228237 0.216277 0.392176
-0.0266494 0.216049 0.361454
0.020634 0.21592 0.376994
-0.031658 0.215856 0.341373
-0.0314074 0.215729 0.333401
-0.0307145 0.215602 0.325649
0.00434189 0.215475 0.33508
-0.0668662 0.215412 0.290015
-0.0887287 0.215187 0.273164
-0.0505881 0.215062 0.284149
-0.0511699 0.214937 0.275772
-0.0649159 0.214875 0.259457
-0.0581809 0.214752 0.254741
-0.140378 0.214629 0.205559
0.0308925 0.214506 0.28311
-0.0445799 0.214445 0.235943
-0.0200835 0.214223 0.242339
-0.0122179 0.214102 0.238197
-0.0737816 0.214041 0.198
-0.068468 0.213921 0.192583
-0.0601323 0.213801 0.188677
-0.083387 0.213682 0.168974
-0.0722882 0.213623 0.165117
-0.00462109 0.213505 0.190876
-0.0773958 0.213387 0.146412
-0.0500802 0.213329 0.150671
-0.00217526 0.213212 0.166547
-0.016878 0.212994 0.153426
-0.0448329 0.212879 0.131378
-0.0128969 0.212821 0.137962
-0.103424 0.212706 0.0846266
-0.112336 0.212592 0.0720962
-0.0208587 0.212535 0.108457
-0.0875857 0.212422 0.0670185
0.00331167 0.21231 0.10439
-0.0878853 0.212253 0.0494184
-0.0887897 0.212142 0.0408875
-0.0397176 0.212031 0.057342
-0.106293 0.211975 0.0146862
-0.0652792 0.211763 0.029501
-0.0683278 0.211653 0.0198988
-0.0156305 0.211598 0.0368904
-0.139366 0.211489 -0.0330574
1.59783 0.294787 2.90272
1.55719 0.292383 2.89215
1.41576 0.291062 2.82066
1.46659 0.289695 2.84589
1.33312 0.288429 2.77808
1.30973 0.287463 2.76242
1.35406 0.286632 2.77934
1.403 0.285808 2.79858
1.23966 0.284991 2.71168
1.26386 0.284437 2.71592
1.29668 0.283781 2.7256
1.26316 0.283112 2.70229
1.18359 0.28259 2.65449
1.13387 0.281934 2.62307
1.20177 0.281546 2.64771
1.21198 0.280903 2.64623
1.14133 0.280522 2.6016
1.12743 0.280017 2.58671
1.17624 0.279766 2.6005
1.16544 0.279273 2.58711
1.0235 0.279029 2.50551
1.10304 0.278547 2.53725
1.08405 0.278316 2.51705
1.01986 0.278081 2.47431
1.15883 0.277858 2.53304
0.995937 0.277748 2.43962
1.138 0.277652 2.49854
1.05423 0.277677 2.44319
1.14885 0.277718 2.47686
1.08039 0.277866 2.4278
1.13528 0.27864 2.43334
1.15058 0.280109 2.41118
1.43422 0.286454 2.46773
1.68639 0.290652 2.5324
1.74647 0.293245 2.51898
1.84007 0.295381 2.52734
1.91951 0.297369 2.53011
2.04153 0.298949 2.55871
2.08228 0.300445 2.5475
2.08913 0.301816 2.52065
2.21126 0.303189 2.5513
1.74491 0.313687 2.95278
1.67619 0.310392 2.93514
1.50237 0.30859 2.8512
1.38907 0.307111 2.79465
1.44622 0.305776 2.82208
1.39548 0.304893 2.79137
1.39313 0.30385 2.78649
1.3582 0.302848 2.765
1.30798 0.302122 2.73329
1.31807 0.301537 2.73043
1.28734 0.300847 2.70824
1.34633 0.300141 2.73112
1.21122 0.299443 2.65694
1.17844 0.29915 2.62999
1.28407 0.29861 2.67472
1.25121 0.297933 2.65162
1.23666 0.297656 2.63373
1.22991 0.29726 2.62096
1.15843 0.296863 2.57587
1.17997 0.296472 2.57726
1.26346 0.296343 2.60699
1.25569 0.29609 2.59238
1.15465 0.295965 2.52983
1.13952 0.295731 2.51138
1.19138 0.295737 2.52395
1.19054 0.295876 2.50878
1.22351 0.296024 2.51041
1.33205 0.296421 2.54719
1.2684 0.297191 2.4939
1.2913 0.298445 2.47868
1.44034 0.300762 2.51509
1.52644 0.303847 2.5116
1.59439 0.306397 2.50452
1.81855 0.308905 2.57575
1.74971 0.310702 2.50798
1.90788 0.312585 2.5526
1.90535 0.314243 2.51916
1.953 0.31569 2.51299
2.04515 0.317158 2.52869
2.097 0.31841 2.5265
2.20347 0.319737 2.55068
1.71524 0.328899 2.93538
1.6675 0.326533 2.91858
1.52911 0.32465 2.85233
1.47101 0.323389 2.82078
1.42997 0.32228 2.79649
1.52488 0.321219 2.83982
1.45453 0.320447 2.79799
1.32635 0.319681 2.72724
1.39419 0.318923 2.75451
1.40376 0.318172 2.75263
1.35178 0.317568 2.71867
1.3968 0.316833 2.73449
1.30077 0.316382 2.67718
1.23072 0.3158 2.63413
1.29452 0.315363 2.65669
1.28536 0.315068 2.64144
1.2986 0.314779 2.63737
1.19639 0.314495 2.57555
1.26048 0.314217 2.59685
1.29324 0.314077 2.60116
1.23526 0.313941 2.56009
1.26918 0.31394 2.56364
1.32196 0.313941 2.57661
1.28227 0.314206 2.54074
1.25856 0.314602 2.51154
1.34226 0.315257 2.53343
1.32761 0.315904 2.50618
1.47829 0.31743 2.5527
1.4807 0.319057 2.52395
1.58587 0.321024 2.54299
1.61484 0.322963 2.52405
1.71375 0.324751 2.54145
1.82971 0.326405 2.56861
1.86124 0.328156 2.5524
1.9237 0.32987 2.55189
1.97517 0.331158 2.55017
2.02362 0.332629 2.54492
2.12658 0.33388 2.56909
2.07618 0.335188 2.51589
2.19885 0.336379 2.55034
1.8025 0.348935 2.94862
1.67618 0.344627 2.90789
1.56809 0.3428 2.85544
1.59397 0.341475 2.86581
1.48998 0.34016 2.81126
1.55874 0.338858 2.84309
1.57455 0.338192 2.84301
1.37452 0.337059 2.73913
1.45626 0.336265 2.77327
1.37031 0.335623 2.72229
1.38384 0.334988 2.72103
1.36459 0.334504 2.70208
1.33682 0.333885 2.68014
1.30957 0.333557 2.65587
1.31691 0.333094 2.65015
1.35748 0.332779 2.65975
1.35976 0.33247 2.65017
1.31439 0.332305 2.61546
1.32548 0.332137 2.60904
1.29282 0.332121 2.57935
1.26116 0.332108 2.55013
1.28783 0.332234 2.54878
1.35759 0.332496 2.56768
1.35535 0.332891 2.54933
1.42753 0.333418 2.5669
1.39243 0.334338 2.52707
1.50309 0.335509 2.55764
1.58031 0.336797 2.5703
1.63941 0.338198 2.5727
1.71728 0.339832 2.58211
1.63153 0.340953 2.51456
1.76037 0.342677 2.54834
1.81969 0.344135 2.54983
1.83895 0.345694 2.53017
1.90521 0.347028 2.53611
1.98211 0.348338 2.5475
1.92932 0.349611 2.49428
2.0628 0.350794 2.53502
2.12603 0.351974 2.54055
2.16188 0.353153 2.5323
1.76641 0.364416 2.92559
1.69879 0.361472 2.90164
1.62216 0.359722 2.86363
1.57537 0.357988 2.84054
1.50174 0.357079 2.79734
1.53964 0.355926 2.81201
1.48232 0.354889 2.77818
1.46768 0.354206 2.76281
1.41548 0.35353 2.72865
1.49915 0.352862 2.76241
1.4181 0.352171 2.71406
1.3571 0.351669 2.67417
1.3432 0.351322 2.65655
1.35861 0.35098 2.65356
1.4027 0.35079 2.66361
1.41448 0.350442 2.65891
1.4294 0.350409 2.65305
1.48308 0.350379 2.66655
1.44466 0.350352 2.63397
1.39397 0.350469 2.59398
1.46859 0.35072 2.61545
1.46247 0.351121 2.59519
1.52604 0.351651 2.60858
1.47514 0.352317 2.56348
1.59961 0.352979 2.60604
1.63176 0.354304 2.59637
1.64841 0.355222 2.58256
1.6895 0.356654 2.57619
1.66485 0.357815 2.53933
1.78811 0.359093 2.57525
1.77399 0.36036 2.54249
1.89426 0.361617 2.57691
1.95718 0.362866 2.58264
1.96145 0.364227 2.5579
2.04219 0.365556 2.57158
2.05069 0.366664 2.55113
2.03624 0.367772 2.51913
2.13712 0.368956 2.54398
2.16182 0.370019 2.53181
1.79627 0.380712 2.92846
1.70973 0.378502 2.88837
1.60883 0.376684 2.83818
1.65708 0.375042 2.86131
1.53724 0.37415 2.79454
1.6162 0.373059 2.82883
1.54441 0.372139 2.78647
1.58073 0.371585 2.79527
1.44236 0.370884 2.71796
1.47044 0.370153 2.72417
1.53055 0.369777 2.74355
1.4183 0.369406 2.67673
1.47924 0.369013 2.69672
1.51107 0.368808 2.70062
1.54539 0.368758 2.7045
1.38607 0.368689 2.61172
1.46915 0.368648 2.63992
1.4704 0.368757 2.62593
1.47372 0.368998 2.61185
1.5672 0.369127 2.64379
1.48599 0.369659 2.58492
1.44519 0.370333 2.54501
1.54836 0.371003 2.57707
1.72862 0.37181 2.64643
1.68153 0.372751 2.6009
1.62525 0.37382 2.54958
1.83272 0.374752 2.63126
1.81848 0.375673 2.60211
1.77769 0.376853 2.55733
1.92104 0.378153 2.60347
1.91985 0.379316 2.57846
1.83513 0.380462 2.51175
1.98155 0.381488 2.5616
2.02998 0.382738 2.56037
2.09772 0.383758 2.57078
2.15121 0.38487 2.57315
2.18134 0.385889 2.5646
1.78325 0.397699 2.90455
1.74006 0.395406 2.8861
1.75156 0.393847 2.8896
1.70145 0.392529 2.86057
1.61295 0.391546 2.80986
1.58791 0.390416 2.79209
1.62792 0.389832 2.80271
1.58197 0.389048 2.77195
1.51401 0.388639 2.72731
1.59533 0.388037 2.75885
1.61483 0.387643 2.75788
1.62035 0.387412 2.74867
1.5287 0.387154 2.69111
1.52261 0.38709 2.67478
1.53246 0.387002 2.66664
1.5574 0.386974 2.66555
1.53652 0.387074 2.64053
1.50671 0.387454 2.60877
1.61962 0.387708 2.64936
1.53658 0.388238 2.58969
1.65822 0.388641 2.63338
1.56385 0.389316 2.56679
1.73649 0.390133 2.63247
1.67026 0.391087 2.57753
1.7345 0.391766 2.59005
1.7814 0.392848 2.59046
1.84625 0.393792 2.60093
1.89477 0.394725 2.60327
1.89082 0.395922 2.57706
1.87662 0.396715 2.5491
2.01867 0.398022 2.59479
2.0309 0.398941 2.57881
2.00876 0.399974 2.54461
2.05257 0.401018 2.54321
2.10005 0.401918 2.54482
2.13739 0.403054 2.53924
1.85088 0.414874 2.91983
1.7547 0.412668 2.87362
1.75941 0.411457 2.87073
1.74838 0.410025 2.86167
1.66693 0.409009 2.81444
1.67951 0.408394 2.81132
1.69749 0.407565 2.81252
1.58512 0.406967 2.74688
1.71922 0.40649 2.80361
1.62637 0.406071 2.74646
1.63264 0.405776 2.73796
1.56127 0.405532 2.69026
1.61905 0.405416 2.70619
1.62597 0.405379 2.69608
1.53182 0.405465 2.63448
1.61868 0.405555 2.66336
1.73524 0.405771 2.7061
1.64411 0.406021 2.64471
1.72676 0.40655 2.668
1.65234 0.406953 2.61372
1.72635 0.407632 2.63143
1.74158 0.408329 2.61957
1.83082 0.40915 2.64367
1.84375 0.409839 2.63062
1.7951 0.410796 2.58457
1.77318 0.411479 2.55404
1.86392 0.412568 2.57649
1.92819 0.413382 2.58788
2.01011 0.414463 2.60585
1.98703 0.415533 2.57133
1.96029 0.416336 2.53712
2.00042 0.417265 2.53525
2.04869 0.418316 2.53636
2.16119 0.419358 2.56959
2.14644 0.420269 2.54023
1.91577 0.437274 2.91184
1.85326 0.432503 2.89961
1.86107 0.430391 2.90415
1.78341 0.429307 2.85884
1.68669 0.427824 2.80689
1.71534 0.426939 2.81347
1.63125 0.426301 2.76197
1.74079 0.425608 2.80772
1.72501 0.42493 2.79075
1.68169 0.424652 2.75714
1.71348 0.424327 2.76145
1.68385 0.424063 2.73463
1.65514 0.423922 2.70738
1.70883 0.423878 2.72062
1.70508 0.423953 2.70426
1.71398 0.424032 2.69419
1.78137 0.424393 2.71125
1.78371 0.424636 2.69665
1.6589 0.425003 2.61751
1.7928 0.425405 2.66745
1.72917 0.42596 2.61742
1.75908 0.426638 2.6132
1.87358 0.427189 2.65218
1.93025 0.427888 2.66109
1.87514 0.428856 2.61196
1.93222 0.429548 2.62103
1.91961 0.430237 2.59522
1.91014 0.431347 2.56763
2.0134 0.432161 2.59867
1.99963 0.43298 2.57109
2.08016 0.433932 2.58956
2.09053 0.434744 2.57401
2.10771 0.435685 2.56077
2.16724 0.436621 2.56868
1.96932 0.454944 2.9185
1.82119 0.450801 2.8581
1.867 0.448615 2.88161
1.80376 0.447059 2.84643
1.71436 0.446124 2.794
1.73802 0.445202 2.79808
1.7638 0.444466 2.80198
1.80271 0.443745 2.81239
