ply
format ascii 1.0
comment Created by Open3D
element vertex 1872
property double x
property double y
property double z
end_header
-2.6591 1.07923 1.14128
-2.682 1.07536 1.13045
-2.703 1.07178 1.11997
-2.72596 1.06792 1.10924
-2.74504 1.06463 1.09914
-2.76093 1.06181 1.08957
-2.77165 1.05975 1.08081
-2.78746 1.05695 1.07133
-2.80138 1.05442 1.06216
-2.81197 1.05239 1.05351
-2.82584 1.04987 1.04441
-2.83633 1.04786 1.03584
-2.84501 1.04611 1.02755
-2.85368 1.04436 1.01928
-2.86397 1.04238 1.01081
-2.87255 1.04065 1.00261
-2.88111 1.03893 0.994434
-2.88963 1.03721 0.986286
-2.89452 1.03602 0.978662
-2.90294 1.03432 0.970569
-2.91133 1.03263 0.962505
-2.91967 1.03094 0.954468
-2.9242 1.02981 0.946966
-2.92734 1.02888 0.939662
-2.93553 1.02722 0.931706
-2.94367 1.02557 0.923778
-2.94668 1.02467 0.916538
-2.95473 1.02303 0.90866
-2.95766 1.02214 0.901461
-2.96054 1.02126 0.894278
-2.96338 1.02038 0.887113
-2.97124 1.01878 0.879332
-2.97398 1.01792 0.872207
-2.97746 1.01695 0.865002
-2.98006 1.01612 0.857918
-2.98262 1.01529 0.850851
-2.98512 1.01446 0.843801
-2.98757 1.01365 0.836768
-2.99499 1.01212 0.829157
-2.99734 1.01132 0.822164
-2.99963 1.01053 0.815186
-3.00186 1.00975 0.808226
-3.00405 1.00898 0.801282
-3.00118 1.00894 0.794922
-3.00326 1.00818 0.788005
-3.00528 1.00744 0.781105
-3.00725 1.0067 0.77422
-3.00423 1.00668 0.767893
-3.00605 1.00596 0.761039
-3.0078 1.00526 0.754203
-3.0095 1.00456 0.747381
-3.00618 1.00459 0.7411
-3.00778 1.0039 0.734303
-3.00437 1.00394 0.728035
-3.00549 1.00333 0.7213
-3.00194 1.00339 0.71505
-2.99834 1.00345 0.708804
-2.99962 1.00282 0.702069
-2.99533 1.00298 0.695895
-2.99154 1.00307 0.689669
-2.98772 1.00317 0.683446
-2.98307 1.00339 0.677301
-2.97825 1.00363 0.671169
-2.9742 1.00376 0.664962
-2.96913 1.00403 0.658848
-2.95904 1.00502 0.653197
-2.95479 1.00518 0.646996
-2.94448 1.0062 0.641344
-2.92794 1.00811 0.636239
-2.91594 1.00937 0.630705
-2.89887 1.01135 0.625601
-2.87678 1.01404 0.620909
-2.82878 1.02042 0.618416
-2.55515 1.10557 1.17225
-2.61346 1.0964 1.15572
-2.65526 1.0897 1.14188
-2.67813 1.0858 1.13105
-2.70619 1.08115 1.11948
-2.72721 1.07753 1.10905
-2.74312 1.07468 1.09943
-2.76222 1.07136 1.08938
-2.77811 1.06852 1.07985
-2.79072 1.06616 1.07084
-2.80465 1.06361 1.06167
-2.81858 1.06107 1.05254
-2.82917 1.05901 1.04393
-2.8397 1.05698 1.03535
-2.84841 1.05521 1.02706
-2.86222 1.05269 1.01807
-2.87088 1.05093 1.00983
-2.88116 1.04893 1.0014
-2.88975 1.04719 0.993228
-2.8983 1.04545 0.985083
-2.90323 1.04424 0.977461
-2.91169 1.04252 0.969373
-2.92011 1.04081 0.961313
-2.92849 1.0391 0.95328
-2.93174 1.03815 0.945957
-2.94004 1.03646 0.937975
-2.94447 1.03534 0.930527
-2.94756 1.03441 0.923268
-2.9557 1.03275 0.915366
-2.96379 1.03109 0.907493
-2.96675 1.03019 0.900297
-2.97474 1.02855 0.892474
-2.97761 1.02766 0.885318
-2.98044 1.02678 0.87818
-2.98323 1.02591 0.871059
-2.98596 1.02504 0.863955
-2.98942 1.02407 0.856775
-2.99634 1.0226 0.849188
-2.99892 1.02176 0.842141
-3.00146 1.02092 0.835111
-3.00452 1.02002 0.82803
-3.0069 1.01921 0.821041
-3.00923 1.01841 0.814068
-3.01151 1.01761 0.807112
-3.01374 1.01683 0.800172
-3.01591 1.01605 0.793249
-3.01803 1.01529 0.786342
-3.02009 1.01453 0.779451
-3.01711 1.0145 0.773129
-3.01907 1.01376 0.766264
-3.02097 1.01303 0.759416
-3.01784 1.01303 0.75312
-3.01963 1.01231 0.746297
-3.02137 1.0116 0.73949
-3.02287 1.01093 0.732718
-3.01949 1.01096 0.726461
-3.02101 1.01029 0.719699
-3.01754 1.01034 0.713456
-3.01359 1.01045 0.707261
-3.00998 1.01052 0.70103
-3.00576 1.01068 0.694859
-3.00201 1.01077 0.688639
-2.99821 1.01086 0.682423
-2.99363 1.01107 0.676281
-2.9897 1.01118 0.670074
-2.98486 1.01143 0.663953
-2.97985 1.0117 0.657844
-2.97571 1.01184 0.651651
-2.97045 1.01215 0.645558
-2.96618 1.01231 0.639371
-2.96068 1.01265 0.633294
-2.9502 1.0137 0.627655
-2.93959 1.01477 0.622014
-2.92262 1.01676 0.616913
-2.89907 1.01969 0.612354
-2.86396 1.02427 0.608744
-2.59778 1.10872 1.15817
-2.64445 1.10122 1.14356
-2.67235 1.09654 1.13194
-2.70037 1.09184 1.12037
-2.72333 1.08791 1.10964
-2.74438 1.08426 1.09924
-2.76029 1.08139 1.08967
-2.7762 1.07851 1.08013
-2.79208 1.07565 1.07064
-2.80792 1.07279 1.06119
-2.82186 1.07022 1.05206
-2.83249 1.06815 1.04344
-2.84639 1.06559 1.03438
-2.85515 1.06379 1.02609
-2.86562 1.06175 1.01758
-2.87944 1.05921 1.00862
-2.88464 1.05795 1.00091
-2.89326 1.05618 0.992738
-2.90184 1.05443 0.984592
-2.91039 1.05267 0.976475
-2.91892 1.05093 0.968384
-2.92377 1.04973 0.960816
-2.93219 1.048 0.952782
-2.94057 1.04628 0.944776
-2.94891 1.04457 0.936797
-2.95211 1.04362 0.929519
-2.95652 1.04249 0.922095
-2.96469 1.0408 0.914197
-2.96774 1.03988 0.906983
-2.97582 1.03821 0.899136
-2.97878 1.0373 0.891961
-2.98676 1.03565 0.884165
-2.98963 1.03476 0.877031
-2.99751 1.03313 0.869285
-3.00028 1.03225 0.862191
-3.00301 1.03138 0.855114
-3.00568 1.03052 0.848054
-3.00831 1.02966 0.841012
-3.01089 1.02882 0.833986
-3.01341 1.02798 0.826977
-3.01644 1.02707 0.819921
-3.01881 1.02625 0.812952
-3.02114 1.02545 0.806
-3.0234 1.02465 0.799065
-3.02562 1.02386 0.792146
-3.02778 1.02308 0.785243
-3.02989 1.02231 0.778357
-3.03194 1.02155 0.771487
-3.03393 1.0208 0.764633
-3.03587 1.02005 0.757794
-3.03278 1.02005 0.751509
-3.03461 1.01932 0.744696
-3.03141 1.01933 0.738426
-3.02802 1.01937 0.732177
-3.02469 1.01939 0.725921
-3.01912 1.01975 0.719895
-3.01526 1.01985 0.713689
-2.4521 1.10159 0.764102
-3.00806 1.01999 0.701222
-3.00183 1.02044 0.695249
-2.99736 1.02063 0.689097
-2.50348 1.09213 0.730642
-2.98954 1.02086 0.676676
-2.98467 1.02111 0.670556
-2.97759 1.02168 0.664641
-2.97645 1.02139 0.658162
-2.97322 1.0214 0.651881
-2.96779 1.02173 0.645802
-2.96012 1.02239 0.639923
-2.95905 1.02209 0.633441
-2.9563 1.02203 0.627112
-2.95057 1.02241 0.621047
-2.94469 1.0228 0.614989
-2.93867 1.02322 0.608939
-2.91661 1.02596 0.604252
-2.89271 1.02896 0.599685
-2.6217 1.11458 1.1471
-2.66854 1.10699 1.13253
-2.69651 1.10226 1.12097
-2.71945 1.0983 1.11023
-2.7405 1.09462 1.09983
-2.76349 1.09065 1.08919
-2.77941 1.08775 1.07965
-2.79531 1.08485 1.07016
-2.8093 1.08225 1.06099
-2.82514 1.07937 1.05158
-2.83909 1.07678 1.04248
-2.84972 1.07469 1.0339
-2.86362 1.0721 1.02487
-2.86901 1.0708 1.0171
-2.88285 1.06824 1.00814
-2.89154 1.06644 0.999939
-2.90021 1.06466 0.991765
-2.91048 1.06263 0.983395
-2.91906 1.06086 0.975281
-2.92761 1.05909 0.967195
-2.93252 1.05788 0.959628
-2.94097 1.05613 0.951598
-2.94938 1.05439 0.943596
-2.95775 1.05266 0.935622
-2.96099 1.05169 0.928348
-2.96929 1.04997 0.920424
-2.97244 1.04902 0.91319
-2.97675 1.0479 0.90582
-2.98487 1.04622 0.897977
-2.98787 1.04529 0.890807
-2.99589 1.04362 0.883014
-2.9988 1.04272 0.875884
-3.00165 1.04182 0.868771
-3.00953 1.04017 0.861052
-3.01229 1.03929 0.853979
-3.01501 1.03841 0.846924
-3.01767 1.03755 0.839885
-3.02534 1.03594 0.832261
-3.0279 1.03509 0.825262
-3.03041 1.03425 0.81828
-3.03288 1.03341 0.811315
-3.03528 1.03259 0.804366
-3.03764 1.03177 0.797434
-3.03994 1.03097 0.790519
-3.03751 1.03086 0.784148
-3.03966 1.03008 0.777266
-3.04175 1.0293 0.7704
-3.04379 1.02854 0.763551
-3.04078 1.02852 0.75726
-3.03776 1.0285 0.750971
-3.03258 1.0288 0.744913
-3.02935 1.02882 0.738645
-3.02391 1.02916 0.732608
-2.42302 1.1173 0.788536
-3.01515 1.02952 0.720303
-3.01132 1.02962 0.714092
-3.00531 1.03004 0.708099
-3.00413 1.02976 0.701616
-2.9979 1.03021 0.695639
-2.99343 1.03041 0.689484
-2.50694 1.10146 0.730305
-2.98559 1.03063 0.677057
-2.98069 1.03089 0.670936
-2.97559 1.03118 0.664831
-2.56327 1.09122 0.696881
-2.96917 1.0312 0.652257
-2.96369 1.03154 0.646178
-2.95804 1.03191 0.640112
-2.63333 1.079 0.662744
-2.95117 1.03199 0.627569
-2.94519 1.0324 0.62152
-2.94124 1.03252 0.615291
-2.93499 1.03297 0.609257
-2.93404 1.03265 0.602765
-2.92782 1.0331 0.596723
-2.90863 1.03544 0.591757
-2.58559 1.13004 1.15271
-2.6508 1.11958 1.13527
-2.68564 1.11376 1.12264
-2.71364 1.10898 1.11111
-2.74368 1.1039 1.09935
-2.76281 1.10049 1.08929
-2.78069 1.09726 1.07946
-2.79663 1.09434 1.06997
-2.81253 1.09142 1.06051
-2.82653 1.0888 1.05138
-2.84051 1.08618 1.04228
-2.85303 1.08378 1.03342
-2.86183 1.08195 1.02513
-2.87574 1.07935 1.01614
-2.88625 1.07726 1.00766
-2.89497 1.07545 0.999457
-2.90879 1.07286 0.990567
-2.91398 1.07159 0.982909
-2.92259 1.0698 0.974795
-2.93118 1.06801 0.966708
-2.93973 1.06623 0.958649
-2.94825 1.06446 0.950617
-2.95307 1.06325 0.943103
-2.96148 1.06149 0.935127
-2.96985 1.05975 0.927179
-2.97818 1.05801 0.919259
-2.98137 1.05705 0.91203
-2.98574 1.05591 0.904661
-2.99273 1.05437 0.896971
-2.99693 1.05326 0.889655
-2.99992 1.05234 0.882506
-3.00794 1.05065 0.87474
-3.01084 1.04974 0.867632
-3.01876 1.04807 0.859916
-3.02156 1.04718 0.852847
-3.02431 1.04629 0.845796
-3.03207 1.04465 0.838153
-3.03473 1.04378 0.831141
-3.03733 1.04292 0.824146
-3.03988 1.04206 0.817168
-3.04238 1.04122 0.810207
-3.04484 1.04038 0.803263
-3.04723 1.03955 0.796335
-3.04958 1.03873 0.789425
-3.05187 1.03792 0.78253
-3.0494 1.03782 0.776177
-3.04653 1.03778 0.769871
-3.04156 1.03805 0.763795
-3.03667 1.03831 0.757707
-3.03163 1.0386 0.751632
-2.4085 1.13096 0.811636
-3.02531 1.0386 0.739073
-3.01991 1.03894 0.733028
-3.01234 1.0396 0.727205
-3.01119 1.0393 0.720712
-3.00738 1.0394 0.714494
-3.00138 1.03983 0.708497
-2.47759 1.11715 0.754423
-2.99398 1.03999 0.696029
-2.98949 1.04019 0.689871
-2.98478 1.04042 0.683732
-2.52224 1.10852 0.721782
-2.97671 1.04069 0.671317
-2.97157 1.04098 0.665211
-2.96418 1.04161 0.659313
-2.9651 1.04101 0.652634
-2.95958 1.04136 0.646557
-2.95386 1.04174 0.640492
-2.94796 1.04214 0.634439
-2.94693 1.04183 0.627946
-2.94304 1.04194 0.621709
-2.93687 1.04238 0.615671
-2.93277 1.04252 0.609448
-2.92859 1.04268 0.60323
-2.77476 1.06488 0.609637
-2.92148 1.04279 0.590685
-2.91501 1.04328 0.584651
-2.87757 1.04833 0.581139
-2.6282 1.13296 1.13877
-2.67485 1.12527 1.12429
-2.70979 1.11939 1.1117
-2.73786 1.11457 1.10023
-2.76087 1.11053 1.08958
-2.78002 1.10708 1.07956
-2.79791 1.10383 1.06978
-2.81386 1.10088 1.06032
-2.82977 1.09794 1.0509
-2.84377 1.09529 1.0418
-2.85449 1.09315 1.03321
-2.86846 1.09051 1.02418
-2.87909 1.08839 1.01566
-2.893 1.08576 1.0067
-2.89838 1.08444 0.998978
-2.91223 1.08183 0.990087
-2.92092 1.08001 0.981945
-2.9296 1.0782 0.97383
-2.93984 1.07614 0.965523
-2.94842 1.07434 0.957468
-2.95697 1.07255 0.949441
-2.96184 1.07132 0.941928
-2.97029 1.06955 0.933957
-2.97359 1.06856 0.926686
-2.98196 1.0668 0.918765
-2.99029 1.06505 0.910872
-2.99347 1.06408 0.903664
-3.00172 1.06234 0.895821
-3.00482 1.06139 0.888653
-3.009 1.06027 0.881361
-3.016 1.05873 0.873732
-3.02 1.05764 0.866494
-3.02289 1.05672 0.859407
-3.0308 1.05505 0.851718
-3.03359 1.05415 0.844671
-3.03634 1.05325 0.83764
-3.04409 1.0516 0.830024
-3.04673 1.05073 0.823033
-3.04933 1.04986 0.816059
-3.05187 1.049 0.809103
-3.05436 1.04815 0.802163
-3.0568 1.04731 0.79524
-3.05461 1.04717 0.788853
-3.04972 1.04743 0.782772
-3.04516 1.04764 0.776651
-2.38404 1.14671 0.84322
-3.03733 1.04788 0.764259
-3.0325 1.04813 0.758161
-3.02752 1.04841 0.752076
-2.41616 1.13982 0.810817
-3.02126 1.0484 0.739502
-3.0159 1.04874 0.733449
-3.01036 1.0491 0.727412
-2.45052 1.13261 0.77853
-3.00343 1.04919 0.714897
-2.99745 1.04962 0.708895
-2.99124 1.05008 0.702909
-2.99005 1.04978 0.696419
-2.98556 1.04998 0.690258
-2.98083 1.05022 0.684117
-2.52498 1.11792 0.721517
-2.97272 1.05049 0.671698
-2.96754 1.0508 0.665593
-2.96213 1.05113 0.659504
-2.57932 1.10781 0.688424
-2.95544 1.05119 0.646936
-2.94966 1.05158 0.640874
-2.94582 1.05168 0.63463
-2.9397 1.05213 0.628589
-2.93872 1.0518 0.62209
-2.93248 1.05226 0.616054
-2.92831 1.05241 0.609833
-2.92407 1.05258 0.603616
-2.91976 1.05275 0.597403
-2.91306 1.05327 0.591387
-2.91223 1.05293 0.58488
-2.90844 1.05302 0.57862
-2.89996 1.05381 0.572736
-2.65213 1.13866 1.12778
-2.69895 1.13089 1.11335
-2.72694 1.12603 1.10188
-2.75698 1.12087 1.09017
-2.77807 1.11709 1.07985
-2.79404 1.11411 1.07035
-2.81515 1.11034 1.06013
-2.8311 1.10736 1.05071
-2.84513 1.10469 1.0416
-2.86104 1.10173 1.03226
-2.87176 1.09957 1.02371
-2.88573 1.09691 1.01471
-2.89636 1.09477 1.00623
-2.90515 1.09291 0.998026
-2.91565 1.0908 0.98961
-2.92437 1.08896 0.981467
-2.93472 1.08687 0.973124
-2.94336 1.08504 0.965041
-2.95198 1.08322 0.956986
-2.96056 1.08141 0.948957
-2.96911 1.0796 0.940956
-2.97397 1.07836 0.933468
-2.98241 1.07658 0.925523
-2.99082 1.0748 0.917606
-2.99408 1.07381 0.910379
-3.0024 1.07204 0.902512
-3.01068 1.07029 0.894673
-3.01382 1.06932 0.88751
-3.02201 1.06758 0.879721
-3.02507 1.06663 0.872597
-3.02808 1.06568 0.865491
-3.03613 1.06397 0.857775
-3.03906 1.06304 0.850708
-3.04285 1.06198 0.843548
-3.04563 1.06107 0.836522
-3.04837 1.06018 0.829513
-3.05535 1.05863 0.822014
-3.05875 1.05763 0.814953
-3.06133 1.05676 0.808001
-3.05882 1.05667 0.801648
-2.37311 1.16053 0.873547
-3.04968 1.0571 0.789413
-3.04532 1.05729 0.783268
-3.04083 1.05749 0.777135
-3.03407 1.05804 0.771251
-3.03307 1.05771 0.764727
-3.02831 1.05796 0.758617
-3.02339 1.05823 0.752521
-3.01829 1.05853 0.746441
-3.01719 1.05822 0.739933
-3.01188 1.05854 0.733871
-3.00638 1.0589 0.727826
-2.45633 1.14167 0.777932
-2.99949 1.05899 0.715301
-2.99352 1.05942 0.709292
-2.98928 1.05958 0.703106
-2.49573 1.13367 0.745529
-2.98163 1.05979 0.690645
-2.97687 1.06003 0.684503
-2.96988 1.06061 0.678574
-2.96873 1.06031 0.672079
-2.9635 1.06062 0.665975
-2.95803 1.06097 0.659888
-2.95235 1.06135 0.653817
-2.95128 1.06104 0.647318
-2.94543 1.06144 0.641258
-2.94153 1.06156 0.635017
-2.93752 1.06168 0.628784
-2.93119 1.06216 0.622754
-2.66822 1.10118 0.639089
-2.92381 1.06232 0.610221
-2.91951 1.06249 0.604005
-2.91514 1.06267 0.597793
-2.91071 1.06287 0.591583
-2.90623 1.06306 0.585376
-2.9017 1.06327 0.579169
-2.89814 1.06333 0.572883
-2.89313 1.06361 0.566711
-2.67613 1.14429 1.11683
-2.72311 1.13642 1.10246
-2.75117 1.13152 1.09104
-2.77418 1.12741 1.08044
-2.79724 1.1233 1.06988
-2.81128 1.12059 1.0607
-2.8324 1.11679 1.05052
-2.84836 1.11379 1.04113
-2.85916 1.1116 1.03253
-2.87504 1.10862 1.02323
-2.88904 1.10593 1.01424
-2.89969 1.10377 1.00575
-2.90851 1.1019 0.997553
-2.92243 1.09923 0.988662
-2.9278 1.09789 0.980992
-2.94165 1.09524 0.97217
-2.95035 1.09339 0.964086
-2.95551 1.09209 0.956506
-2.96413 1.09026 0.948476
-2.97271 1.08843 0.940474
-2.98126 1.08661 0.9325
-2.98977 1.0848 0.924552
-2.99454 1.08357 0.917117
-3.00295 1.08177 0.909227
-3.01131 1.07999 0.901364
-3.01452 1.079 0.894182
-3.0228 1.07723 0.886369
-3.03103 1.07547 0.878585
-3.03412 1.07451 0.871465
-3.03717 1.07355 0.864362
-3.04526 1.07181 0.856651
-3.04822 1.07087 0.849588
-3.05114 1.06994 0.842543
-3.05491 1.06887 0.835407
-3.0619 1.06731 0.827899
-3.06467 1.0664 0.82091
-3.06309 1.06616 0.814444
-3.05888 1.06633 0.808287
-3.05477 1.06648 0.802116
-2.38118 1.16938 0.872622
-3.04515 1.06699 0.789928
-3.04086 1.06716 0.78377
-3.03646 1.06736 0.777623
-3.03192 1.06757 0.771489
-2.41198 1.16203 0.832901
-3.02408 1.06781 0.759077
-3.01923 1.06807 0.75297
-3.0142 1.06836 0.746878
-2.44394 1.15505 0.800678
-3.00785 1.06836 0.734295
-3.00239 1.06872 0.728241
-2.99868 1.0688 0.722002
-2.47344 1.14847 0.769052
-2.98959 1.06923 0.70969
-2.98535 1.0694 0.7035
-2.50325 1.14238 0.744782
-2.97769 1.0696 0.691032
-2.97291 1.06985 0.684889
-2.96788 1.07014 0.678767
-2.54586 1.13385 0.712499
-2.95944 1.07046 0.666359
-2.95392 1.07082 0.660274
-2.95026 1.0709 0.654012
-2.59272 1.12471 0.680247
-2.94117 1.07132 0.641645
-2.9372 1.07144 0.635406
-2.93313 1.07158 0.629175
-2.92896 1.07174 0.622951
-2.92242 1.07225 0.616931
-2.92154 1.0719 0.610417
-2.91489 1.07243 0.604399
-2.91046 1.07262 0.598187
-2.90598 1.07282 0.591978
-2.90144 1.07303 0.585771
-2.89687 1.07325 0.579564
-2.89225 1.07346 0.573358
-2.88938 1.07342 0.56701
-2.88432 1.07371 0.560835
-2.6399 1.15986 1.12236
-2.7002 1.14983 1.10594
-2.74027 1.14299 1.09268
-2.7703 1.13774 1.08102
-2.7914 1.1339 1.07074
-2.81448 1.12975 1.06023
-2.83047 1.12672 1.0508
-2.84645 1.12369 1.04141
-2.8624 1.12067 1.03207
-2.87644 1.11796 1.02303
-2.89047 1.11524 1.01404
-2.90119 1.11305 1.00554
-2.91518 1.11035 0.996614
-2.9258 1.10818 0.988191
-2.9346 1.10629 0.980049
-2.94509 1.10414 0.971696
-2.95382 1.10228 0.963612
-2.96252 1.10041 0.955554
-2.97279 1.0983 0.947308
-2.98141 1.09646 0.93931
-2.98999 1.09462 0.93134
-2.99853 1.09278 0.923397
-3.00192 1.09176 0.916151
-3.0104 1.08994 0.908258
-3.01508 1.08871 0.900877
-3.02344 1.08691 0.89304
-3.02665 1.08592 0.88588
-3.03492 1.08414 0.878093
-3.04315 1.08237 0.870335
-3.04624 1.08139 0.863237
-3.05437 1.07964 0.855529
-3.05737 1.07868 0.848471
-3.06032 1.07774 0.84143
-3.0683 1.07601 0.833795
-3.06697 1.07573 0.827294
-3.06191 1.07602 0.821237
-3.05807 1.07613 0.815033
-3.05415 1.07625 0.808838
-3.05012 1.07639 0.802652
-2.39405 1.17747 0.871148
-3.04285 1.07654 0.790188
-3.03635 1.07706 0.784278
-3.03203 1.07724 0.778118
-3.02757 1.07745 0.77197
-3.02082 1.078 0.766072
-3.01982 1.07767 0.759541
-3.01504 1.07792 0.753422
-3.01009 1.0782 0.747318
-3.00493 1.07851 0.741233
-3.00381 1.0782 0.73472
-2.9984 1.07855 0.728656
-2.99275 1.07893 0.722613
-2.48403 1.15674 0.767969
-2.98566 1.07905 0.710088
-2.98143 1.07922 0.703893
-2.97691 1.07943 0.697725
-2.51861 1.14935 0.736208
-2.96895 1.07968 0.685275
-2.96387 1.07998 0.679154
-2.95649 1.08063 0.673249
-2.95537 1.08031 0.666744
-2.94978 1.08069 0.660662
-2.94605 1.08077 0.654402
-2.94218 1.08088 0.648154
-2.93379 1.08169 0.642316
-2.93283 1.08135 0.635799
-2.92869 1.0815 0.62957
-2.92444 1.08166 0.623348
-2.92012 1.08184 0.617131
-2.91572 1.08203 0.610918
-2.90889 1.08259 0.604911
-2.9081 1.08223 0.598386
-2.90359 1.08244 0.592178
-2.89903 1.08265 0.58597
-2.89442 1.08287 0.579763
-2.88978 1.08309 0.573557
-2.88511 1.08332 0.56735
-2.88045 1.08355 0.56114
-2.87533 1.08385 0.554963
-2.66376 1.16545 1.11146
-2.72432 1.1553 1.09508
-2.75936 1.1492 1.08265
-2.78751 1.14421 1.07132
-2.81059 1.14002 1.0608
-2.82979 1.13646 1.0509
-2.84774 1.13309 1.04122
-2.86373 1.13004 1.03187
-2.87779 1.1273 1.02284
-2.88859 1.12507 1.0143
-2.90449 1.12204 1.00507
-2.9185 1.11931 0.996147
-2.92916 1.11712 0.987723
-2.93797 1.11521 0.97958
-2.95191 1.11251 0.970757
-2.95726 1.11115 0.963141
-2.96599 1.10927 0.955083
-2.97982 1.10658 0.94636
-2.98496 1.10527 0.938834
-2.99357 1.10341 0.930863
-3.00215 1.10155 0.922919
-3.0107 1.09971 0.915003
-3.01921 1.09787 0.907114
-3.02256 1.09684 0.899912
-3.03099 1.09502 0.892073
-3.03558 1.0938 0.884745
-3.03879 1.0928 0.877606
-3.04706 1.091 0.869846
-3.05528 1.08922 0.862114
-3.05836 1.08824 0.855038
-3.06649 1.08647 0.847356
-3.06948 1.08551 0.840319
-3.06734 1.08536 0.833911
-3.06315 1.08552 0.82775
-3.05943 1.08561 0.82153
-3.05563 1.08571 0.815319
-3.04933 1.0862 0.809398
-3.0454 1.08633 0.803198
-3.04137 1.08647 0.797008
-2.40958 1.18457 0.862115
-3.03407 1.08662 0.784535
-3.02754 1.08715 0.778619
-3.02318 1.08734 0.772457
-3.01866 1.08755 0.766309
-2.44005 1.17716 0.822627
-3.01082 1.08779 0.753877
-3.00594 1.08806 0.747761
-3.00289 1.08804 0.741448
-2.46713 1.17083 0.791079
-2.99439 1.08839 0.729073
-2.98879 1.08877 0.723022
-2.98488 1.08888 0.716793
-2.49943 1.16371 0.759311
-2.9775 1.08905 0.704287
-2.971 1.08957 0.698312
-2.5244 1.15828 0.735638
-2.96299 1.08983 0.685855
-2.95985 1.08983 0.679542
-2.95445 1.09018 0.673445
-2.56404 1.15007 0.703782
-2.94561 1.09057 0.661052
-2.94181 1.09067 0.654795
-2.93786 1.09079 0.648551
-2.93157 1.09127 0.642517
-2.92508 1.09179 0.636496
-2.92419 1.09144 0.62997
-2.91988 1.09161 0.623751
-2.91548 1.0918 0.617535
-2.91102 1.092 0.611324
-2.9065 1.09221 0.605115
-2.90193 1.09243 0.598908
-2.89731 1.09265 0.592701
-2.89266 1.09288 0.586496
-2.88797 1.09312 0.58029
-2.88326 1.09335 0.574083
-2.87852 1.0936 0.567876
-2.87632 1.09345 0.561466
-2.87137 1.09372 0.555271
-2.86621 1.09403 0.54909
-2.70665 1.16791 1.09774
-2.74849 1.16068 1.08428
-2.77656 1.15566 1.07295
-2.80474 1.15062 1.06166
-2.82784 1.1464 1.05118
-2.84386 1.14331 1.04179
-2.86309 1.13972 1.03197
-2.8791 1.13664 1.02265
-2.89185 1.13409 1.01384
-2.9059 1.13133 1.00487
-2.91995 1.12857 0.995943
-2.93068 1.12634 0.98751
-2.94133 1.12413 0.979114
-2.95016 1.12221 0.970998
-2.9641 1.11948 0.962206
-2.97288 1.11757 0.954147
-2.98331 1.11541 0.94589
-2.99201 1.11351 0.937891
-3.00068 1.11163 0.929918
-3.00575 1.11032 0.922445
-3.01433 1.10845 0.914527
-3.02287 1.10659 0.906637
-3.03138 1.10474 0.898775
-3.03985 1.10289 0.89094
-3.04316 1.10187 0.883782
-3.04774 1.10064 0.876478
-3.05479 1.09903 0.868879
-3.0592 1.09783 0.861628
-3.06742 1.09603 0.853922
-3.07049 1.09505 0.846867
-3.06843 1.09488 0.840446
-3.06421 1.09505 0.834288
-3.05803 1.09553 0.828361
-3.0544 1.0956 0.822126
-3.05069 1.09569 0.8159
-3.04443 1.09618 0.809969
-3.04059 1.09629 0.803753
-3.03665 1.09642 0.797547
-2.42255 1.19257 0.860642
-3.02945 1.09656 0.785055
-3.02527 1.09672 0.778872
-3.01872 1.09725 0.77295
-3.0143 1.09745 0.766788
-3.00755 1.09802 0.760876
-3.00655 1.09768 0.754337
-3.00176 1.09794 0.748208
-2.99881 1.09791 0.741881
-2.99151 1.09856 0.736011
-2.99037 1.09824 0.729491
-2.98483 1.09861 0.723431
-2.98095 1.09873 0.717195
-2.50715 1.17237 0.75853
-2.97162 1.0992 0.704877
-2.96706 1.09942 0.698703
-2.96217 1.09969 0.692559
-2.5398 1.16516 0.727102
-2.95582 1.09969 0.679931
-2.95034 1.10006 0.673837
-2.94457 1.10046 0.667766
-2.57943 1.1569 0.695366
-2.93753 1.10058 0.655192
-2.9335 1.10071 0.648951
-2.9271 1.10122 0.642924
-2.9228 1.10139 0.636702
-2.91841 1.10159 0.630485
-2.64886 1.143 0.647627
-2.91078 1.10179 0.617945
-2.90625 1.102 0.611735
-2.90166 1.10222 0.605527
-2.89703 1.10245 0.59932
-2.89237 1.10268 0.593114
-2.89017 1.10253 0.586701
-2.88546 1.10277 0.580495
-2.88073 1.10301 0.574287
-2.87597 1.10326 0.568079
-2.8712 1.10351 0.561869
-2.86641 1.10376 0.555658
-2.86217 1.10392 0.549401
-2.73073 1.1733 1.08693
-2.77271 1.16599 1.07352
-2.79378 1.16206 1.06328
-2.82394 1.15666 1.05176
-2.83997 1.15355 1.04235
-2.86115 1.14961 1.03225
-2.87718 1.1465 1.02293
-2.89319 1.1434 1.01365
-2.90916 1.14031 1.00441
-2.91808 1.13835 0.996206
-2.93399 1.13528 0.987048
-2.94468 1.13304 0.97865
-2.95687 1.13056 0.970073
-2.96749 1.12834 0.961742
-2.9763 1.12642 0.953684
-2.98677 1.12422 0.945424
-2.9955 1.12231 0.937424
-3.00421 1.12041 0.929451
-3.01288 1.11851 0.921504
-3.02152 1.11661 0.913586
-3.02652 1.11531 0.906164
-3.03506 1.11343 0.8983
-3.04356 1.11157 0.890465
-3.05203 1.10971 0.882656
-3.05534 1.10868 0.87552
-3.06372 1.10684 0.867761
-3.06696 1.10582 0.860665
-3.07135 1.10461 0.853438
-3.0658 1.105 0.84744
-3.0624 1.10504 0.841177
-3.05894 1.10509 0.834921
-3.05543 1.10515 0.828671
-3.04925 1.10563 0.822735
-3.04564 1.1057 0.816493
-3.04194 1.10579 0.810259
-3.03568 1.10628 0.80432
-3.03184 1.10639 0.798098
-2.43559 1.20052 0.859161
-3.02475 1.10652 0.785585
-3.02067 1.10666 0.779386
-3.01646 1.10683 0.7732
-3.00987 1.10738 0.767273
-3.00539 1.10759 0.761111
-2.46826 1.1921 0.812399
-2.99755 1.10783 0.748659
-2.9947 1.10778 0.742316
-2.98949 1.10811 0.736223
-2.49043 1.18646 0.78152
-2.98085 1.10847 0.723841
-2.97701 1.10858 0.717597
-2.97085 1.10906 0.711587
-2.52258 1.17925 0.749911
-2.96312 1.10928 0.699094
-2.95819 1.10956 0.692951
-2.54744 1.17375 0.726357
-2.94974 1.10989 0.680517
-2.94621 1.10995 0.674232
-2.94033 1.11038 0.668167
-2.93636 1.11051 0.661919
-2.59483 1.16368 0.686985
-2.92908 1.11066 0.649357
-2.92484 1.11083 0.643129
-2.9205 1.11101 0.636909
-2.91607 1.11121 0.630694
-2.91156 1.11142 0.624483
-2.907 1.11164 0.618275
-2.90239 1.11187 0.612068
-2.89773 1.1121 0.605863
-2.89304 1.11234 0.599658
-2.88831 1.11258 0.593452
-2.88356 1.11283 0.587246
-2.87879 1.11308 0.581039
-2.874 1.11333 0.57483
-2.87179 1.11318 0.568413
-2.86698 1.11344 0.562202
-2.86217 1.11369 0.555988
-2.85734 1.11395 0.549773
-2.85493 1.11383 0.54337
-2.67562 1.19205 1.09517
-2.74787 1.17975 1.07721
-2.78286 1.17352 1.06489
-2.81295 1.16809 1.05337
-2.83411 1.16411 1.04321
-2.85725 1.15982 1.03281
-2.8765 1.15617 1.02302
-2.89449 1.15272 1.01346
-2.90859 1.1499 1.00449
-2.92135 1.14731 0.995746
-2.93542 1.14451 0.986848
-2.94948 1.1417 0.977985
-2.96021 1.13945 0.969614
-2.97086 1.1372 0.961281
-2.97969 1.13525 0.953222
-2.99021 1.13304 0.944959
-2.99897 1.1311 0.936959
-3.00771 1.12918 0.928985
-3.01641 1.12726 0.921039
-3.02508 1.12534 0.913119
-3.03373 1.12344 0.905227
-3.03871 1.12212 0.897829
-3.04725 1.12024 0.889992
-3.05575 1.11836 0.882183
-3.06421 1.11649 0.874401
-3.06752 1.11545 0.867286
-3.07206 1.11421 0.860031
-3.06634 1.11462 0.854054
-3.06304 1.11465 0.847778
-3.05968 1.11468 0.841507
-3.05356 1.11516 0.835569
-3.05013 1.11521 0.829303
-3.04663 1.11526 0.823045
-3.04046 1.11575 0.8171
-3.03687 1.11582 0.81085
-3.03318 1.1159 0.804609
-3.02693 1.1164 0.798662
-3.02064 1.1169 0.792711
-3.01994 1.11651 0.786127
-3.01598 1.11664 0.77991
-3.01189 1.11679 0.773707
-3.00763 1.11696 0.767519
-3.00101 1.11752 0.761588
-2.47633 1.20075 0.811529
-2.99328 1.11774 0.749115
-2.99056 1.11767 0.742755
-2.98544 1.11799 0.736648
-2.49834 1.19508 0.780698
-2.97686 1.11835 0.724252
-2.97308 1.11845 0.717999
-2.96693 1.11892 0.711984
-2.53035 1.18785 0.749132
-2.95918 1.11915 0.699486
-2.95419 1.11944 0.693344
-2.94883 1.11979 0.687236
-2.56288 1.18055 0.717859
-2.94204 1.11986 0.67463
-2.93605 1.12031 0.668573
-2.93198 1.12046 0.66233
-2.92776 1.12062 0.656098
-2.92111 1.12117 0.650089
-2.92026 1.12081 0.643545
-2.91583 1.12101 0.637328
-2.91132 1.12122 0.631116
-2.90674 1.12144 0.624907
-2.90211 1.12167 0.618701
-2.89744 1.12191 0.612495
-2.89273 1.12216 0.60629
-2.88798 1.1224 0.600084
-2.88322 1.12266 0.593878
-2.881 1.12251 0.587457
-2.87621 1.12276 0.581249
-2.87141 1.12302 0.575039
-2.86659 1.12328 0.568827
-2.86176 1.12354 0.562613
-2.85955 1.12339 0.556192
-2.85471 1.12365 0.549975
-2.84876 1.12409 0.54384
-2.69947 1.19744 1.0844
-2.7669 1.18583 1.06724
-2.80907 1.17838 1.05393
-2.8302 1.17437 1.04378
-2.85334 1.17005 1.03338
-2.87455 1.16604 1.02331
-2.89061 1.16288 1.01402
-2.90667 1.15972 1.00477
-2.9227 1.15657 0.995557
-2.9368 1.15374 0.986655
-2.94762 1.15144 0.978242
-2.96169 1.14862 0.96941
-2.97242 1.14635 0.961068
-2.98644 1.14354 0.952307
-2.99191 1.14212 0.944731
-3.00586 1.13933 0.936038
-3.01464 1.13738 0.928064
-3.01992 1.136 0.920576
-3.02862 1.13407 0.912656
-3.0373 1.13214 0.904763
-3.04594 1.13022 0.896897
-3.05455 1.12831 0.889058
-3.05945 1.127 0.881713
-3.06795 1.12511 0.87393
-3.07129 1.12406 0.866815
-3.06673 1.12428 0.860692
-3.06351 1.1243 0.854403
-3.06024 1.12431 0.848119
-3.05414 1.12479 0.842179
-3.05081 1.12482 0.835899
-3.04469 1.1253 0.829952
-3.04129 1.12534 0.823677
-3.03782 1.12539 0.81741
-3.03166 1.12588 0.811456
-3.02809 1.12595 0.805197
-3.02442 1.12603 0.798949
-3.01816 1.12653 0.792993
-2.46435 1.21534 0.8487
-3.01118 1.12664 0.780446
-3.00721 1.12677 0.774225
-3.00309 1.12693 0.768018
-2.99879 1.12711 0.76183
-2.9921 1.12768 0.755896
-2.99112 1.12733 0.749346
-2.98638 1.12758 0.743199
-2.98136 1.12788 0.737077
-2.97603 1.12823 0.730985
-2.51856 1.20117 0.771514
-2.96717 1.12864 0.718603
-2.96301 1.1288 0.712381
-2.95642 1.12935 0.706401
-2.95523 1.12903 0.699878
-2.95018 1.12933 0.693739
-2.94472 1.1297 0.687636
-2.93887 1.13013 0.681567
-2.93783 1.12979 0.675033
-2.93388 1.12992 0.668778
-2.92752 1.13043 0.662747
-2.9232 1.13061 0.656522
-2.91877 1.13081 0.650304
-2.91425 1.13103 0.644092
-2.90966 1.13126 0.637884
-2.90501 1.13149 0.631678
-2.90031 1.13174 0.625474
-2.89558 1.13199 0.61927
-2.89082 1.13224 0.613066
-2.8902 1.13183 0.606505
-2.88543 1.13209 0.600299
-2.87901 1.1326 0.594228
-2.87419 1.13286 0.588019
-2.86936 1.13313 0.581808
-2.86715 1.13298 0.575383
-2.86231 1.13324 0.569168
-2.85747 1.13351 0.562952
-2.85261 1.13377 0.556732
-2.8504 1.13362 0.550306
-2.84555 1.13388 0.544084
-2.84144 1.13403 0.537801
-2.73028 1.2016 1.07265
-2.79111 1.191 1.05657
-2.81924 1.18581 1.04537
-2.84943 1.18028 1.03394
-2.87063 1.17624 1.02387
-2.88671 1.17305 1.01457
-2.90794 1.16902 1.00459
-2.924 1.16584 0.995373
-2.93813 1.16298 0.986469
-2.95089 1.16034 0.977789
-2.96498 1.1575 0.968957
-2.97574 1.1552 0.960613
-2.98464 1.15321 0.952551
-2.99866 1.15038 0.943821
-3.00752 1.1484 0.935815
-3.01808 1.14614 0.927607
-3.02687 1.14417 0.919659
-3.03563 1.14222 0.911738
-3.04085 1.14084 0.904302
-3.04952 1.1389 0.896435
-3.05816 1.13697 0.888596
-3.06677 1.13504 0.880783
-3.07166 1.13372 0.873462
-3.06697 1.13398 0.867355
-3.06382 1.13397 0.861054
-3.05773 1.13446 0.855115
-3.05454 1.13446 0.848816
-3.05131 1.13447 0.842522
-3.04521 1.13496 0.836573
-3.04192 1.13498 0.830283
-3.0358 1.13546 0.824328
-3.03243 1.1355 0.818043
-3.029 1.13554 0.811766
-3.02284 1.13603 0.805803
-3.01929 1.13609 0.799535
-3.01565 1.13617 0.793278
-2.47756 1.22315 0.847211
-3.00624 1.13668 0.780998
-3.00241 1.13679 0.774756
-2.99843 1.13692 0.768529
-2.99427 1.13708 0.762321
-2.98991 1.13728 0.756133
-2.50475 1.21544 0.801345
-2.98214 1.13751 0.743648
-2.97724 1.13779 0.737509
-2.97201 1.13813 0.731403
-2.52654 1.20973 0.770691
-2.96322 1.13853 0.719007
-2.95909 1.13869 0.712779
-2.95445 1.13892 0.706599
-2.54895 1.20393 0.740241
-2.94616 1.13924 0.694135
-2.94058 1.13963 0.688041
-2.93673 1.13974 0.681774
-2.93044 1.14024 0.675739
-2.9295 1.13988 0.669193
-2.92297 1.14043 0.663173
-2.91854 1.14063 0.656954
-2.91401 1.14085 0.650741
-2.9094 1.14108 0.644533
-2.9072 1.14092 0.638105
-2.90252 1.14117 0.6319
-2.89779 1.14142 0.625696
-2.89304 1.14167 0.619492
-2.88825 1.14193 0.613287
-2.88345 1.14219 0.607081
-2.87863 1.14246 0.600874
-2.87641 1.1423 0.594446
-2.87158 1.14257 0.588235
-2.86674 1.14284 0.582022
-2.86021 1.14337 0.575942
-2.85536 1.14364 0.569723
-2.85483 1.14322 0.56316
-2.84829 1.14376 0.557069
-2.84342 1.14403 0.550844
-2.84121 1.14387 0.544413
-2.83729 1.14399 0.538113
-2.75431 1.20681 1.06196
-2.80832 1.19727 1.04696
-2.83843 1.19171 1.03553
-2.86671 1.18646 1.02443
-2.8828 1.18324 1.01513
-2.90599 1.17885 1.00486
-2.92207 1.17564 0.995645
-2.93621 1.17275 0.986738
-2.95225 1.16955 0.9776
-2.96311 1.16722 0.969215
-2.9772 1.16435 0.960414
-2.98797 1.16203 0.952099
-2.99687 1.16003 0.944062
-3.01089 1.15717 0.935364
-3.0215 1.15489 0.927153
-3.03032 1.15291 0.919205
-3.03911 1.15093 0.911283
-3.04787 1.14895 0.903389
-3.05661 1.14699 0.895521
-3.06175 1.14562 0.888136
-3.07039 1.14367 0.880323
-3.06874 1.14342 0.87383
-3.06399 1.14369 0.867728
-3.05789 1.14417 0.86179
-3.05478 1.14416 0.855478
-3.04868 1.14465 0.849532
-3.04553 1.14465 0.843222
-3.04234 1.14466 0.836918
-3.03624 1.14514 0.830961
-3.03299 1.14516 0.82466
-3.02687 1.14564 0.818696
-3.02355 1.14567 0.812401
-3.02015 1.14571 0.806114
-3.014 1.1462 0.800142
-2.48849 1.23186 0.853153
-3.00733 1.14626 0.787546
-3.00371 1.14633 0.78128
-2.99746 1.14684 0.775304
-2.99364 1.14695 0.769055
-2.98965 1.14708 0.762824
-2.98544 1.14725 0.756614
-2.9788 1.14782 0.750663
-2.97783 1.14746 0.744104
-2.97308 1.14772 0.737946
-2.96797 1.14804 0.731823
-2.96243 1.14843 0.725741
-2.54208 1.21648 0.762038
-2.95516 1.14858 0.713176
-2.95049 1.14883 0.706996
-2.56003 1.21192 0.739141
-2.9421 1.14916 0.694534
-2.93638 1.14958 0.68845
-2.9324 1.14971 0.682192
-2.9282 1.14988 0.675954
-2.92149 1.15045 0.669951
-2.92066 1.15007 0.66339
-2.91617 1.15029 0.657174
-2.91159 1.15052 0.650964
-2.90693 1.15076 0.644757
-2.90222 1.15101 0.638553
-2.89747 1.15126 0.632349
-2.89269 1.15152 0.626146
-2.88624 1.15206 0.620085
-2.88567 1.15163 0.61351
-2.88084 1.1519 0.607303
-2.87434 1.15244 0.601235
-2.86949 1.15271 0.595023
-2.86728 1.15255 0.58859
-2.86243 1.15282 0.582374
-2.85757 1.1531 0.576156
-2.85271 1.15337 0.569934
-2.8505 1.15321 0.563501
-2.84563 1.15348 0.557276
-2.83909 1.15403 0.551177
-2.83423 1.1543 0.544945
-2.83107 1.15429 0.538581
-2.78539 1.21077 1.0503
-2.82748 1.20316 1.03712
-2.8557 1.19787 1.02601
-2.87887 1.19344 1.01569
-2.90012 1.18934 1.00569
-2.91623 1.18609 0.996467
-2.93233 1.18286 0.987279
-2.94842 1.17962 0.978132
-2.96447 1.1764 0.969027
-2.9786 1.1735 0.960223
-2.98943 1.17116 0.9519
-3.00352 1.16827 0.943166
-3.01425 1.16595 0.934914
-3.02314 1.16393 0.926935
-3.03374 1.16163 0.918753
-3.04256 1.15963 0.910832
-3.05135 1.15764 0.902937
-3.06012 1.15565 0.895068
-3.06885 1.15367 0.887227
-3.06729 1.15341 0.880717
-3.06401 1.15343 0.874427
-3.0579 1.15392 0.86849
-3.05486 1.1539 0.862166
-3.04875 1.15439 0.856221
-3.04568 1.15438 0.849898
-3.03958 1.15487 0.843945
-3.03647 1.15486 0.837624
-3.03333 1.15486 0.831308
-3.02722 1.15535 0.825343
-3.02402 1.15535 0.819031
-3.0179 1.15584 0.813058
-3.01463 1.15586 0.806751
-3.01128 1.15589 0.800453
-3.00534 1.15635 0.794449
-3.00197 1.15639 0.78815
-2.9985 1.15644 0.781861
-2.99492 1.15651 0.775586
-2.98867 1.15702 0.7696
-2.98486 1.15712 0.763345
-2.98085 1.15726 0.75711
-2.97659 1.15744 0.7509
-2.52857 1.23072 0.79171
-2.96885 1.15768 0.738391
-2.96389 1.15797 0.732247
-2.95846 1.15834 0.726149
-2.55013 1.22496 0.761215
-2.95124 1.15849 0.713573
-2.94652 1.15874 0.707394
-2.94118 1.1591 0.701274
-2.57235 1.21912 0.73092
-2.93211 1.15955 0.688866
-2.92796 1.15971 0.68262
-2.92361 1.1599 0.676392
-2.91911 1.16012 0.670176
-2.91451 1.16036 0.663967
-2.90982 1.1606 0.657763
-2.90508 1.16086 0.651561
-2.90031 1.16112 0.64536
-2.89808 1.16097 0.638925
-2.89328 1.16123 0.632723
-2.88846 1.1615 0.626519
-2.88362 1.16177 0.620313
-2.87877 1.16205 0.614105
-2.87656 1.16189 0.607669
-2.87171 1.16216 0.601457
-2.86517 1.16271 0.595383
-2.86031 1.16298 0.589165
-2.8581 1.16283 0.582727
-2.85324 1.1631 0.576505
-2.84838 1.16337 0.570279
-2.84184 1.16392 0.564183
-2.8413 1.16349 0.557613
-2.83476 1.16403 0.55151
-2.82991 1.16431 0.545273
-2.82693 1.16427 0.538891
-2.80958 1.21581 1.0397
-2.84472 1.20931 1.02759
-2.86784 1.20485 1.01726
-2.89618 1.19952 1.00625
-2.9123 1.19625 0.997019
-2.93357 1.19211 0.987106
-2.94969 1.18885 0.977955
-2.96579 1.18559 0.968845
-2.9767 1.18321 0.960482
-2.99083 1.18029 0.951709
-3.00167 1.17793 0.943415
-3.01577 1.17502 0.934712
-3.0265 1.17268 0.926489
-3.03539 1.17065 0.918536
-3.04599 1.16833 0.910382
-3.05481 1.16632 0.902487
-3.0636 1.16431 0.894619
-3.06723 1.16318 0.887434
-3.0637 1.16324 0.881173
-3.05756 1.16374 0.875239
-3.05461 1.1637 0.868901
-3.05163 1.16367 0.862567
-3.04551 1.16417 0.85662
-3.04251 1.16414 0.850286
-3.03639 1.16464 0.844331
-3.03337 1.16462 0.837997
-3.02725 1.16511 0.832034
-3.02419 1.16509 0.825701
-3.0211 1.16508 0.819374
-3.01498 1.16558 0.813399
-3.01183 1.16558 0.807074
-3.00572 1.16607 0.801091
-3.0025 1.16608 0.794771
-2.99921 1.1661 0.788461
-2.99307 1.16659 0.782468
-2.98966 1.16664 0.776168
-2.98611 1.1667 0.769882
-2.97988 1.16721 0.763887
-2.97608 1.16731 0.757624
-2.97204 1.16746 0.751385
-2.96548 1.16802 0.745413
-2.96452 1.16766 0.738845
-2.95976 1.16792 0.732677
-2.95448 1.16827 0.72656
-2.94853 1.16873 0.720508
-2.94732 1.16841 0.71397
-2.94054 1.169 0.707994
-2.93704 1.16906 0.701686
-2.9309 1.16955 0.695637
-2.58788 1.22575 0.722415
-2.9234 1.16974 0.683061
-2.91888 1.16996 0.676844
-2.91424 1.17021 0.670636
-2.90952 1.17046 0.664434
-2.9073 1.1703 0.657997
-2.90253 1.17057 0.651796
-2.89772 1.17084 0.645594
-2.89289 1.17111 0.639392
-2.88638 1.17166 0.633337
-2.88584 1.17123 0.626749
-2.87931 1.17178 0.620688
-2.87446 1.17205 0.614477
-2.8696 1.17233 0.608262
-2.86739 1.17217 0.601822
-2.86253 1.17245 0.595604
-2.856 1.173 0.589521
-2.85378 1.17284 0.58308
-2.84892 1.17311 0.576853
-2.84407 1.17339 0.570623
-2.83921 1.17366 0.56439
-2.83699 1.1735 0.55795
-2.83213 1.17378 0.551713
-2.82561 1.17432 0.5456
-2.82282 1.17426 0.539201
-2.81977 1.22316 1.03117
-2.85685 1.21629 1.01883
-2.88514 1.21091 1.00781
-2.90836 1.20641 0.997573
-2.93161 1.2019 0.98738
-2.94774 1.19861 0.978225
-2.96191 1.19566 0.969379
-2.97802 1.19238 0.960302
-2.99218 1.18943 0.951526
-3.00496 1.18672 0.942972
-3.01721 1.1841 0.934518
-3.02802 1.18173 0.926286
-3.03875 1.17937 0.918092
-3.04765 1.17733 0.910165
-3.05825 1.175 0.902041
-3.06707 1.17297 0.894172
-3.06341 1.17305 0.887924
-3.05725 1.17356 0.881993
-3.05435 1.17352 0.875645
-3.05142 1.17348 0.8693
-3.04528 1.17398 0.863356
-3.04234 1.17395 0.857011
-3.03619 1.17445 0.851058
-3.03324 1.17441 0.844713
-3.0271 1.17492 0.838751
-3.02413 1.17488 0.832406
-3.02112 1.17486 0.826065
-3.01499 1.17536 0.820091
-3.01195 1.17534 0.813751
-3.00582 1.17584 0.807769
-3.00274 1.17582 0.801431
-2.99662 1.17632 0.79544
-2.99347 1.17632 0.789107
-2.99025 1.17633 0.782783
-2.98412 1.17682 0.776781
-2.98078 1.17685 0.770467
-2.97729 1.17691 0.764169
-2.97107 1.17742 0.758165
-2.9673 1.17752 0.751893
-2.96322 1.17767 0.745653
-2.55251 1.24585 0.782113
-2.95555 1.17789 0.733116
-2.95048 1.17821 0.726973
-2.94461 1.17866 0.720908
-2.57254 1.24026 0.75191
-2.93652 1.17895 0.708397
-2.93281 1.17904 0.702106
-2.92865 1.17921 0.695858
-2.92422 1.17942 0.689634
-2.91962 1.17966 0.683425
-2.91492 1.17991 0.677223
-2.91015 1.18018 0.671024
-2.90534 1.18045 0.664826
-2.90051 1.18072 0.658627
-2.89567 1.181 0.652426
-2.89345 1.18084 0.645983
-2.8886 1.18112 0.639778
-2.88375 1.1814 0.633571
-2.87722 1.18195 0.627508
-2.87668 1.18151 0.620918
-2.87015 1.18207 0.614848
-2.8653 1.18235 0.608629
-2.86307 1.18219 0.602186
-2.85822 1.18246 0.595963
-2.85171 1.18301 0.589875
-2.84687 1.18329 0.583644
-2.84629 1.18286 0.577065
-2.83978 1.18341 0.570965
-2.83494 1.18368 0.564727
-2.82845 1.18423 0.558615
-2.82785 1.1838 0.552042
-2.82135 1.18435 0.545924
-2.81873 1.18425 0.539508
-2.76435 1.24231 1.03913
-2.84592 1.22774 1.02039
-2.87413 1.22234 1.00937
-2.90442 1.21659 0.998128
-2.92055 1.21326 0.988924
-2.94185 1.20906 0.979043
-2.95801 1.20574 0.969917
-2.97415 1.20243 0.960831
-2.99026 1.19912 0.951787
-3.00443 1.19615 0.943043
-3.01534 1.19374 0.934769
-3.02947 1.19078 0.926094
-3.04028 1.18839 0.91789
-3.05102 1.18602 0.909724
-3.05991 1.18396 0.901824
-3.06365 1.18279 0.894613
-3.05984 1.1829 0.88838
-3.05366 1.18341 0.882449
-3.0508 1.18336 0.876092
-3.04491 1.18383 0.870115
-3.04202 1.18378 0.86376
-3.03585 1.18429 0.85781
-3.03296 1.18425 0.851454
-3.02678 1.18476 0.845496
-3.02388 1.18471 0.839139
-3.01771 1.18523 0.833172
-3.01479 1.18518 0.826814
-3.01184 1.18515 0.820461
-3.00569 1.18565 0.814481
-3.00271 1.18562 0.808128
-2.99656 1.18613 0.802139
-2.99356 1.1861 0.795788
-2.98741 1.1866 0.78979
-2.98436 1.18658 0.783441
-2.98122 1.18658 0.777102
-2.97509 1.18708 0.771091
-2.97184 1.18709 0.764762
-2.9657 1.1876 0.758744
-2.96224 1.18764 0.752433
-2.95851 1.18774 0.746152
-2.56454 1.25363 0.78085
-2.95119 1.1879 0.73357
-2.94642 1.18817 0.727392
-2.94069 1.1886 0.721309
-2.93351 1.18928 0.715367
-2.93243 1.18893 0.708807
-2.92843 1.18906 0.702541
-2.924 1.18927 0.696315
-2.91936 1.18952 0.690108
-2.9146 1.18979 0.68391
-2.90979 1.19006 0.677713
-2.90495 1.19034 0.671516
-2.90273 1.19018 0.66507
-2.89788 1.19046 0.65887
-2.89136 1.19102 0.652821
-2.88914 1.19086 0.646374
-2.88429 1.19114 0.640166
-2.87945 1.19142 0.633954
-2.87295 1.19197 0.627885
-2.87071 1.19181 0.621438
-2.86587 1.19209 0.615218
-2.86103 1.19237 0.608993
-2.85455 1.19292 0.602905
-2.85395 1.19249 0.59632
-2.84746 1.19304 0.590225
-2.84264 1.19331 0.583989
-2.84037 1.19316 0.577543
-2.83554 1.19343 0.571303
-2.82907 1.19398 0.56519
-2.8268 1.19383 0.558743
-2.82197 1.1941 0.552495
-2.81714 1.19437 0.546244
-2.81267 1.19459 0.539963
-2.80211 1.24491 1.02664
-2.85612 1.235 1.01193
-2.89338 1.228 0.999681
-2.91463 1.22377 0.989752
-2.9379 1.21919 0.97959
-2.95407 1.21584 0.970459
-2.97024 1.2125 0.961366
-2.98639 1.20916 0.952313
-3.00251 1.20583 0.943301
-3.0186 1.20251 0.934333
-3.0276 1.20041 0.926342
-3.04174 1.19743 0.917698
-3.05256 1.19502 0.909523
-3.06329 1.19263 0.901385
-3.05933 1.19277 0.895169
-3.05312 1.19329 0.889241
-3.0503 1.19324 0.882876
-3.04408 1.19376 0.87694
-3.04125 1.1937 0.870573
-3.03841 1.19365 0.864208
-3.0322 1.19417 0.858259
-3.02936 1.19412 0.851893
-3.02315 1.19464 0.845936
-3.0203 1.19458 0.839569
-3.01409 1.1951 0.833604
-3.01124 1.19505 0.827235
-3.00836 1.195 0.820869
-3.00244 1.19547 0.814858
-2.99595 1.19604 0.808909
-2.99335 1.19594 0.802507
-2.98688 1.19651 0.796546
-2.98424 1.19642 0.790147
-2.98127 1.19638 0.783787
-2.97511 1.19689 0.777779
-2.97208 1.19687 0.771422
-2.96594 1.19737 0.765404
-2.96282 1.19736 0.759054
-2.95668 1.19787 0.753028
-2.95337 1.19789 0.746696
-2.94971 1.19797 0.740401
-2.57658 1.26081 0.772555
-2.94224 1.19816 0.727822
-2.93677 1.19856 0.72171
-2.93137 1.19893 0.715584
-2.92696 1.19914 0.709356
-2.92223 1.1994 0.703157
-2.91741 1.19968 0.696964
-2.91519 1.19952 0.690515
-2.91035 1.1998 0.68432
-2.9055 1.20008 0.678123
-2.90066 1.20037 0.671922
-2.89418 1.20092 0.665872
-2.89359 1.20049 0.659269
-2.8871 1.20104 0.653212
-2.88228 1.20132 0.646998
-2.88002 1.20116 0.64055
-2.8752 1.20144 0.634333
-2.86874 1.20199 0.628256
-2.86647 1.20184 0.621808
-2.86165 1.20212 0.615582
-2.85683 1.20239 0.609352
-2.85039 1.20294 0.603256
-2.84973 1.20251 0.596672
-2.84328 1.20306 0.59057
-2.83847 1.20333 0.584329
-2.83617 1.20318 0.577881
-2.83136 1.20346 0.571637
-2.82492 1.204 0.565517
-2.82261 1.20386 0.559069
-2.8178 1.20413 0.552816
-2.81298 1.2044 0.54656
-2.80869 1.20458 0.540262
-2.80034 1.25429 1.01983
-2.8753 1.24066 1.00222
-2.90358 1.23518 0.991296
-2.92682 1.23057 0.981128
-2.95011 1.22595 0.971004
-2.9663 1.22258 0.961905
-2.98959 1.21798 0.951879
-3.00184 1.21529 0.943393
-3.01477 1.21249 0.934845
-3.03086 1.20915 0.925909
-3.03987 1.20703 0.917945
-3.05402 1.20403 0.909331
-3.05969 1.2025 0.901853
-3.05557 1.20267 0.895655
-3.04932 1.2032 0.889728
-3.04653 1.20314 0.883355
-3.04027 1.20367 0.877419
-3.03784 1.20355 0.870999
-3.03122 1.20414 0.865101
-3.02879 1.20402 0.858679
-3.02217 1.20461 0.852773
-3.01974 1.20449 0.84635
-3.01348 1.20502 0.840389
-3.01068 1.20496 0.83401
-3.00442 1.20549 0.828042
-3.00162 1.20543 0.821661
-2.9988 1.20537 0.815283
-2.99255 1.2059 0.809302
-2.98972 1.20584 0.802922
-2.98347 1.20637 0.796933
-2.98065 1.20631 0.790552
-2.97439 1.20684 0.784554
-2.97156 1.20678 0.778171
-2.96869 1.20673 0.771794
-2.96247 1.20725 0.765781
-2.95958 1.2072 0.759403
-2.95338 1.20772 0.753381
-2.95045 1.20768 0.747006
-2.94426 1.20819 0.740973
-2.94122 1.20817 0.734607
-2.93773 1.20822 0.728287
-2.93285 1.20852 0.72211
-2.92669 1.20903 0.716058
-2.92446 1.20886 0.709606
-2.91964 1.20914 0.703415
-2.91479 1.20943 0.697222
-2.90834 1.20999 0.691182
-2.90608 1.20983 0.684733
-2.90126 1.21011 0.678529
-2.89645 1.21039 0.67232
-2.89006 1.21093 0.666258
-2.88936 1.21051 0.659661
-2.88294 1.21106 0.653594
-2.87815 1.21134 0.647373
-2.87584 1.21119 0.640927
-2.87104 1.21146 0.634703
-2.86464 1.21201 0.628617
-2.86231 1.21186 0.62217
-2.85751 1.21214 0.615938
-2.85272 1.21241 0.609703
-2.84633 1.21295 0.603599
-2.84559 1.21254 0.597017
-2.83918 1.21308 0.590908
-2.83279 1.21362 0.584792
-2.83205 1.21321 0.578214
-2.82564 1.21376 0.572093
-2.82084 1.21403 0.565838
-2.81849 1.21388 0.55939
-2.81369 1.21416 0.553132
-2.80729 1.2147 0.546993
-2.80477 1.21458 0.540556
-2.83829 1.2567 1.00743
-2.88744 1.24751 0.993549
-2.91575 1.24197 0.982663
-2.94615 1.23608 0.971551
-2.96233 1.23268 0.962447
-2.98368 1.22838 0.952681
-2.99987 1.22498 0.943657
-3.01605 1.2216 0.934674
-3.02704 1.21912 0.926417
-3.04313 1.21575 0.917514
-3.05542 1.21305 0.909148
-3.05601 1.21239 0.902332
-3.04819 1.21321 0.896607
-3.04583 1.21307 0.890174
-3.03913 1.21368 0.884295
-3.03677 1.21354 0.87786
-3.03047 1.21409 0.871921
-3.02771 1.21402 0.865536
-3.02494 1.21395 0.859154
-3.01865 1.21449 0.853203
-3.01588 1.21442 0.846818
-3.00957 1.21497 0.840859
-3.00681 1.2149 0.834472
-3.0005 1.21544 0.828506
-2.99774 1.21537 0.822117
-2.99496 1.2153 0.815729
-2.98865 1.21585 0.809752
-2.98589 1.21578 0.803362
-2.97997 1.21625 0.79733
-2.9732 1.21688 0.79139
-2.97088 1.21673 0.784946
-2.96811 1.21666 0.778554
-2.96178 1.2172 0.772553
-2.95902 1.21713 0.766157
-2.95266 1.21768 0.76015
-2.94991 1.21761 0.753751
-2.94352 1.21816 0.74774
-2.9408 1.21809 0.741337
-2.93803 1.21801 0.734939
-2.93163 1.21857 0.728917
-2.92744 1.21874 0.722663
-2.92277 1.219 0.716455
-2.91662 1.21951 0.710393
-2.91545 1.21917 0.703831
-2.9107 1.21944 0.697624
-2.90443 1.21997 0.691563
-2.90197 1.21984 0.685129
-2.89721 1.22011 0.678916
-2.8909 1.22065 0.672845
-2.88617 1.22092 0.666622
-2.88529 1.22052 0.660039
-2.87895 1.22106 0.653961
-2.87264 1.2216 0.647874
-2.87178 1.2212 0.641292
-2.86543 1.22174 0.635202
-2.86067 1.22201 0.628966
-2.85826 1.22188 0.622523
-2.85349 1.22215 0.616285
-2.84714 1.22269 0.610179
-2.84473 1.22255 0.603733
-2.83995 1.22283 0.597488
-2.8336 1.22337 0.591369
-2.82883 1.22364 0.585116
-2.828 1.22323 0.578541
-2.82163 1.22377 0.572412
-2.81527 1.22431 0.566277
-2.81445 1.22391 0.559705
-2.80807 1.22445 0.553565
-2.80412 1.22458 0.547234
-2.8555 1.26268 0.998012
-2.90473 1.2534 0.984192
-2.93505 1.24747 0.973079
-2.95637 1.24314 0.963263
-2.97257 1.23972 0.954189
-2.99593 1.23503 0.944189
-3.01213 1.23161 0.935198
-3.02832 1.2282 0.926247
-3.03738 1.22604 0.918273
-3.05352 1.22264 0.909397
-3.05094 1.22254 0.90299
-3.04462 1.22309 0.897067
-3.04188 1.22302 0.89068
-3.03555 1.22358 0.884749
-3.03281 1.2235 0.87836
-3.02647 1.22406 0.872422
-3.02373 1.22398 0.86603
-3.02099 1.22391 0.859641
-3.01465 1.22446 0.853691
-3.01191 1.22439 0.8473
-3.00555 1.22495 0.841343
-3.00282 1.22487 0.834949
-2.99645 1.22543 0.828985
-2.99415 1.22528 0.822537
-2.98733 1.22591 0.816618
-2.98505 1.22576 0.810168
-2.9782 1.2264 0.804242
-2.97593 1.22624 0.797789
-2.96905 1.22689 0.791858
-2.9668 1.22673 0.785402
-2.96408 1.22665 0.779
-2.95764 1.22722 0.773007
-2.95493 1.22714 0.766602
-2.94846 1.22771 0.760604
-2.94575 1.22763 0.754196
-2.9388 1.22828 0.74824
-2.93657 1.22812 0.741781
-2.92967 1.22877 0.735809
-2.92718 1.22865 0.729376
-2.925 1.22847 0.722911
-2.91778 1.22917 0.71696
-2.91513 1.22908 0.710543
-2.91046 1.22934 0.704327
-2.9043 1.22986 0.698255
-2.89962 1.23011 0.692032
-2.8982 1.22981 0.685493
-2.89199 1.23033 0.679415
-2.88578 1.23085 0.67333
-2.88463 1.2305 0.666767
-2.87991 1.23077 0.660538
-2.87366 1.2313 0.654447
-2.87108 1.23119 0.648016
-2.86635 1.23146 0.641781
-2.86161 1.23173 0.635542
-2.85534 1.23226 0.629436
-2.85435 1.23188 0.622864
-2.84805 1.23242 0.616754
-2.84175 1.23295 0.610638
-2.84081 1.23256 0.604065
-2.83605 1.23283 0.597814
-2.82973 1.23337 0.591688
-2.82725 1.23325 0.585244
-2.82249 1.23352 0.578986
-2.81616 1.23406 0.572849
-2.81369 1.23393 0.566402
-2.80892 1.2342 0.560136
-2.80415 1.23447 0.553867
-2.80034 1.23458 0.547522
-2.8746 1.26826 0.988372
-2.91689 1.26016 0.97558
-2.94526 1.25453 0.964781
-2.96859 1.24982 0.95473
-2.99195 1.24509 0.944725
-3.00818 1.24164 0.935727
-3.0244 1.2382 0.926768
-3.04059 1.23476 0.917849
-3.04967 1.23259 0.909901
-3.04694 1.23251 0.90351
-3.04059 1.23308 0.897587
-3.03786 1.233 0.891195
-3.0315 1.23356 0.885264
-3.02877 1.23349 0.878869
-3.02239 1.23405 0.872932
-3.01967 1.23397 0.866535
-3.01694 1.23389 0.860139
-3.01056 1.23446 0.854191
-3.00784 1.23438 0.847793
-3.00144 1.23495 0.841838
-2.99872 1.23487 0.835437
-2.99231 1.23544 0.829475
-2.99005 1.23528 0.823019
-2.98316 1.23594 0.817104
-2.98091 1.23577 0.810646
-2.97399 1.23643 0.804724
-2.97176 1.23627 0.798264
-2.96481 1.23693 0.792336
-2.96258 1.23676 0.785873
-2.95561 1.23743 0.779937
-2.95338 1.23726 0.773474
-2.95068 1.23718 0.767064
-2.94374 1.23784 0.761112
-2.94151 1.23767 0.75465
-2.93438 1.23836 0.748709
-2.93226 1.23818 0.742233
-2.92544 1.23882 0.736249
-2.92313 1.23866 0.729793
-2.91873 1.23888 0.723552
-2.91349 1.23924 0.717394
-2.91129 1.23906 0.710927
-2.90497 1.23961 0.704872
-2.90025 1.23988 0.698653
-2.65185 1.28268 0.716181
-2.89346 1.23995 0.685951
-2.88729 1.24047 0.679864
-2.88112 1.24099 0.673772
-2.88109 1.24044 0.667098
-2.87489 1.24097 0.661003
-2.8687 1.24149 0.654902
-2.86742 1.24116 0.648349
-2.86119 1.24169 0.642245
-2.85648 1.24195 0.635999
-2.8538 1.24186 0.629572
-2.84907 1.24213 0.623324
-2.84282 1.24266 0.617205
-2.83657 1.24319 0.61108
-2.83547 1.24283 0.604515
-2.83073 1.24309 0.598257
-2.82446 1.24363 0.592124
-2.82187 1.24352 0.585683
