ply
format ascii 1.0
comment Created by Open3D
element vertex 1673
property double x
property double y
property double z
end_header
-0.198753 -0.114192 0.467213
-0.131082 -0.114087 0.494301
-0.0575228 -0.113983 0.524322
-0.0897082 -0.113931 0.499439
-0.31314 -0.113841 0.380443
-0.0995802 -0.113739 0.480432
-0.124556 -0.113688 0.459148
-0.125663 -0.113587 0.45179
-0.214721 -0.113487 0.400444
-0.0537073 -0.113437 0.472154
-0.304223 -0.113353 0.339462
-0.322182 -0.113304 0.321679
-0.219064 -0.113206 0.366379
-0.193407 -0.11311 0.372333
-0.104764 -0.113062 0.407846
-0.145281 -0.112966 0.380696
-0.115355 -0.112919 0.386847
-0.12014 -0.112842 0.376842
-0.0332825 -0.112796 0.411449
-0.28947 -0.112703 0.276412
-0.0906679 -0.112611 0.368852
-0.256304 -0.112566 0.277204
-0.239831 -0.112475 0.278456
-0.0810628 -0.11243 0.349005
-0.34807 -0.112341 0.208493
-0.107423 -0.112297 0.319975
-0.12057 -0.112229 0.305547
-0.241173 -0.112185 0.236392
-0.219487 -0.112099 0.240163
-0.123705 -0.112056 0.279192
-0.359659 -0.111971 0.154116
-0.184195 -0.111887 0.234727
-0.148217 -0.111846 0.243838
-0.261152 -0.111763 0.180219
-0.173841 -0.111722 0.214988
-0.197595 -0.111641 0.195929
-0.175857 -0.111601 0.1979
-0.134202 -0.111521 0.211512
-0.0783726 -0.111481 0.230519
-0.0633578 -0.111403 0.230778
-0.0941289 -0.111364 0.206472
-0.271812 -0.111311 0.109355
-0.200316 -0.111273 0.136165
-0.232674 -0.111197 0.112655
-0.0852285 -0.11116 0.177426
-0.144968 -0.111086 0.140189
-0.30011 -0.111049 0.0536521
-0.216843 -0.110977 0.0878788
-0.170652 -0.110941 0.101995
-0.223721 -0.11087 0.0680133
-0.248597 -0.110835 0.0465806
-0.12908 -0.110766 0.0988511
-0.395948 -0.110731 -0.0435941
-0.238213 -0.110663 0.0277433
-0.259501 -0.11063 0.00807148
-0.177983 -0.110563 0.0412562
0.0181726 -0.11053 0.130289
-0.209362 -0.110465 0.00890245
-0.151278 -0.110433 0.0288811
0.577981 -0.114393 1.25769
0.605136 -0.113536 1.28937
0.486072 -0.112865 1.24148
0.597478 -0.112393 1.30192
0.457137 -0.111983 1.23438
0.606336 -0.111635 1.30946
0.465049 -0.111301 1.2389
0.442089 -0.110966 1.22757
0.367395 -0.110696 1.18814
0.351679 -0.110412 1.17874
0.381011 -0.110142 1.19141
0.480399 -0.109873 1.23914
0.419079 -0.109681 1.20373
0.351135 -0.109477 1.16554
0.376677 -0.10921 1.17644
0.518384 -0.109007 1.24311
0.251931 -0.108804 1.10572
0.257483 -0.108615 1.10388
0.235743 -0.108414 1.08888
0.254984 -0.108214 1.09437
0.228361 -0.108089 1.07418
0.125096 -0.107891 1.01844
0.282563 -0.107694 1.09307
0.144532 -0.10757 1.01722
0.209059 -0.107374 1.04539
0.316969 -0.1072 1.09448
0.218333 -0.107057 1.03914
0.409367 -0.106884 1.12984
0.140202 -0.106744 0.989207
0.125466 -0.106622 0.975087
0.167424 -0.106441 0.991644
0.223559 -0.106313 1.0133
0.0762183 -0.106185 0.933209
0.108894 -0.106066 0.942834
0.193245 -0.105895 0.980329
0.0671921 -0.105762 0.911158
-0.00887615 -0.105638 0.866672
0.00371819 -0.105521 0.866286
0.0283192 -0.105399 0.872117
0.232998 -0.105283 0.967785
-0.00445546 -0.105167 0.842396
-0.122218 -0.104998 0.778954
0.118751 -0.104932 0.890853
0.0548127 -0.104818 0.852237
-0.00343545 -0.104651 0.818594
0.0898489 -0.104587 0.856594
-0.0737959 -0.104474 0.768134
-0.0308792 -0.10436 0.783039
0.0267566 -0.104248 0.805222
0.0540315 -0.104136 0.812268
-0.0596158 -0.104026 0.748809
-0.0501999 -0.103916 0.746885
0.011417 -0.103806 0.771064
0.179532 -0.103697 0.848494
-0.233599 -0.103589 0.635301
0.0621451 -0.103535 0.774332
0.0326629 -0.103427 0.752971
-0.0546041 -0.10332 0.702718
0.149384 -0.103215 0.798043
-0.0435533 -0.103109 0.694946
0.0593658 -0.103004 0.739776
-0.177558 -0.102951 0.612501
0.113688 -0.10285 0.75139
-0.0190079 -0.102746 0.678405
-0.124052 -0.102643 0.619242
-0.0671553 -0.102592 0.638892
0.0513765 -0.102494 0.69135
0.113868 -0.102392 0.715943
0.00228061 -0.102292 0.653492
-0.108917 -0.102242 0.589103
-0.0867927 -0.102147 0.593275
0.0178074 -0.102049 0.6389
0.019032 -0.101999 0.630726
-0.230183 -0.101901 0.499439
-0.102055 -0.101804 0.556816
-0.0790249 -0.101763 0.559251
-0.132876 -0.101667 0.525623
-0.232028 -0.101571 0.469336
-0.0195585 -0.101524 0.566791
-0.234174 -0.10143 0.452763
-0.138358 -0.101345 0.493564
-0.0064161 -0.101298 0.550753
-0.267654 -0.101206 0.413384
-0.104293 -0.101114 0.488303
-0.00934875 -0.101068 0.526994
-0.153569 -0.100978 0.44811
-0.0427119 -0.100932 0.494758
-0.10161 -0.100853 0.458053
-0.162582 -0.100765 0.420756
-0.154884 -0.100721 0.415817
-0.271287 -0.100633 0.350789
-0.13539 -0.100589 0.409947
-0.171862 -0.100503 0.384867
-0.261334 -0.10046 0.33134
-0.0904681 -0.100387 0.409348
-0.112317 -0.100303 0.391536
-0.177521 -0.100261 0.35013
-0.153418 -0.100177 0.355272
-0.265922 -0.100136 0.290212
-0.119664 -0.100054 0.35641
-0.18781 -0.0999725 0.315388
0.0852555 -0.0999321 0.443104
-0.0554318 -0.0998664 0.365119
-0.0426471 -0.0998267 0.362682
-0.220328 -0.0997479 0.266834
-0.236556 -0.0997088 0.249884
-0.196526 -0.0996312 0.262865
-0.15156 -0.0995927 0.276505
-0.11411 -0.0995163 0.288168
-0.159895 -0.0994784 0.256424
-0.366799 -0.0994033 0.145881
-0.322307 -0.099366 0.159267
-0.0427413 -0.099292 0.291929
-0.200241 -0.0992554 0.20431
-0.0933555 -0.0991997 0.249795
-0.18149 -0.0991637 0.196843
-0.320788 -0.0990924 0.119998
-0.189204 -0.0990571 0.176894
-0.370935 -0.0989871 0.0787997
-0.164197 -0.0989524 0.173261
-0.32509 -0.0988837 0.0855498
-0.274158 -0.0988497 0.102095
-0.178351 -0.0987822 0.142698
-0.265851 -0.0987488 0.0900145
-0.233739 -0.0986827 0.098732
-0.0526369 -0.09865 0.180336
-0.153052 -0.0985851 0.122751
-0.142049 -0.098553 0.11929
-0.19277 -0.0984895 0.0865111
-0.227651 -0.0984581 0.0600937
-0.145035 -0.0983959 0.0939419
-0.235501 -0.0983652 0.0397155
-0.123696 -0.0983043 0.0881155
-0.158148 -0.0982742 0.0618795
-0.279642 -0.0982147 -0.00641384
-0.266744 -0.0981853 -0.0089926
-0.275169 -0.0981272 -0.0207968
-0.132623 -0.0980984 0.0414299
0.575951 -0.100007 1.24799
0.505018 -0.0991409 1.2354
0.598685 -0.098611 1.29167
0.330671 -0.0981987 1.16244
0.536295 -0.0978401 1.26792
0.531758 -0.0974803 1.26847
0.510522 -0.0971879 1.25798
0.603573 -0.0969515 1.3024
0.352702 -0.0967152 1.17491
0.282704 -0.096479 1.1379
0.395482 -0.0962308 1.19285
0.34086 -0.0959954 1.16362
0.336064 -0.0958284 1.1565
0.369652 -0.095594 1.17144
0.328532 -0.0954157 1.14672
0.241147 -0.0952379 1.09889
0.185572 -0.0950608 1.06697
0.2139 -0.0948957 1.07655
0.307433 -0.0947198 1.11923
0.359671 -0.0945447 1.14127
0.181731 -0.0944356 1.04543
0.319709 -0.0942617 1.11036
0.4069 -0.0940889 1.1499
0.284479 -0.0939808 1.08188
0.266034 -0.0938095 1.06861
0.12733 -0.0937021 0.992472
0.0569964 -0.0935324 0.953265
0.181895 -0.0934258 1.00896
0.237487 -0.0932664 1.03233
0.137502 -0.093152 0.975983
0.124736 -0.0930384 0.963234
0.249124 -0.092889 1.02068
0.139308 -0.092769 0.959749
0.142858 -0.0926648 0.954828
0.105098 -0.0925542 0.929566
0.0378633 -0.0924509 0.88927
0.188997 -0.0923031 0.960173
-0.0746105 -0.0921941 0.822
0.0170638 -0.0920861 0.861447
0.0553115 -0.0919793 0.874157
0.0888365 -0.0918782 0.884271
0.0478998 -0.091773 0.857366
-0.00516709 -0.0916728 0.824193
-0.0223335 -0.091573 0.808975
0.237358 -0.0914701 0.932357
-0.0144963 -0.0913712 0.799801
0.0606697 -0.0912729 0.830759
0.153263 -0.0911723 0.870558
0.0864795 -0.0910749 0.830543
-0.0266169 -0.0909804 0.767262
-0.123982 -0.0908838 0.711968
0.0424885 -0.0907876 0.788593
-0.0769048 -0.0907361 0.720223
-0.00389798 -0.090641 0.750113
-0.0486965 -0.0905457 0.721129
-0.0473142 -0.0904516 0.715201
-0.0480763 -0.0903583 0.708186
0.111521 -0.0902651 0.781372
-0.174381 -0.0902186 0.629614
-0.225044 -0.0901262 0.597667
-0.190744 -0.0900344 0.608199
-0.0954005 -0.0899431 0.649251
0.0415711 -0.0898523 0.711115
-0.046529 -0.0898083 0.658215
-0.0598911 -0.0897184 0.644905
-0.0433696 -0.0896291 0.646533
-0.104237 -0.0895846 0.607314
-0.190317 -0.0894962 0.557639
-0.181664 -0.0894107 0.555204
-0.196894 -0.0893235 0.540935
-0.180225 -0.0892801 0.540493
-0.0340587 -0.0891937 0.606919
-0.291295 -0.0891116 0.471453
-0.0465531 -0.0890689 0.585049
-0.219342 -0.0889841 0.491976
-0.1485 -0.0888999 0.52071
-0.0800098 -0.088858 0.546186
-0.213722 -0.0887798 0.472383
-0.236843 -0.0887384 0.452052
-0.121412 -0.0886561 0.503055
-0.137036 -0.0885744 0.488519
-0.122394 -0.0885338 0.487072
-0.191091 -0.0884531 0.445988
-0.146328 -0.0883795 0.461292
-0.176372 -0.0883398 0.437497
0.0265948 -0.0882607 0.532211
-0.345416 -0.0882215 0.337433
-0.0417094 -0.0881434 0.482502
-0.0159869 -0.088066 0.488566
-0.220137 -0.0880275 0.377715
-0.0431307 -0.0879591 0.458985
-0.103363 -0.0879212 0.420086
-0.308133 -0.0878459 0.31086
-0.218683 -0.0878085 0.3468
-0.283891 -0.0877342 0.307335
-0.140717 -0.0876605 0.372044
-0.172999 -0.0876239 0.34711
-0.214234 -0.087561 0.319085
-0.248217 -0.087525 0.293292
-0.265527 -0.0874535 0.277706
-0.292455 -0.0874181 0.255434
-0.220019 -0.0873476 0.284697
-0.0892442 -0.0873127 0.341272
-0.264283 -0.0872433 0.246772
-0.239144 -0.0872088 0.250522
-0.100113 -0.0871405 0.313031
-0.510107 -0.0870729 0.101005
-0.111263 -0.0870393 0.291594
-0.302985 -0.087006 0.186898
-0.164996 -0.0869516 0.248193
-0.336149 -0.0868863 0.155521
-0.292736 -0.0868539 0.16837
0.0337983 -0.0867896 0.324511
-0.260988 -0.0867578 0.168251
-0.14646 -0.0866946 0.218356
-0.126675 -0.0866633 0.219371
-0.127004 -0.0866013 0.212014
-0.290411 -0.0865706 0.121421
-0.208696 -0.0865097 0.155051
-0.110172 -0.0864795 0.195412
-0.329791 -0.0864197 0.0783379
-0.213424 -0.0863901 0.127608
-0.147423 -0.0863607 0.151691
-0.359562 -0.0863025 0.0383087
-0.18861 -0.0862736 0.114853
-0.280971 -0.0862165 0.0613218
-0.301648 -0.0861882 0.0420372
-0.24888 -0.0861323 0.061029
-0.241304 -0.0861046 0.0558555
-0.184432 -0.0860499 0.0768577
-0.273219 -0.0860228 0.0234863
-0.106956 -0.0859692 0.0991412
-0.136321 -0.0859427 0.0754636
0.014405 -0.0858903 0.143306
-0.189212 -0.0858644 0.0324845
-0.304644 -0.0858132 -0.0327982
-0.289768 -0.0857878 -0.0343908
0.714888 -0.0855449 1.31353
0.651406 -0.0848043 1.30473
0.700622 -0.084351 1.33882
0.512882 -0.0839981 1.24977
0.235898 -0.0836913 1.114
0.601727 -0.0834415 1.29698
0.414928 -0.083181 1.20424
0.526719 -0.0829787 1.25806
0.415688 -0.0827177 1.20336
0.434992 -0.0825155 1.21105
0.289616 -0.0823722 1.13359
0.14965 -0.0821706 1.06173
0.485467 -0.082017 1.22546
0.355354 -0.0818637 1.15626
0.501249 -0.0816634 1.22741
0.434164 -0.081511 1.18977
0.225642 -0.0813592 1.08143
0.162237 -0.0812181 1.04516
0.351242 -0.0810672 1.13561
0.308721 -0.0809638 1.10798
0.206699 -0.0808238 1.05245
0.26494 -0.0806747 1.07756
0.388879 -0.0805819 1.13272
0.203336 -0.080434 1.03595
0.105092 -0.0802959 0.982376
0.0616899 -0.0801953 0.954357
0.296926 -0.0800669 1.0671
0.0569332 -0.0799585 0.941242
0.254487 -0.0798596 1.0337
0.00427915 -0.079724 0.904201
-0.0464524 -0.0796263 0.872518
-0.0799361 -0.0795366 0.849078
0.0115584 -0.07944 0.888504
0.0902922 -0.0793065 0.923501
0.0884975 -0.0792113 0.916272
0.119755 -0.079123 0.925235
0.176554 -0.079035 0.946978
0.0237826 -0.0789415 0.864254
-0.0655999 -0.0788542 0.812918
-0.0133827 -0.0787673 0.83239
-0.0504605 -0.0786433 0.809207
-0.0138814 -0.0785894 0.81916
0.0461423 -0.0784659 0.84456
0.0534401 -0.0783805 0.841592
0.1782 -0.0783286 0.89559
0.0247025 -0.0782402 0.812438
0.0581795 -0.078156 0.822566
0.0772697 -0.0780722 0.825503
-0.0516595 -0.0779858 0.754601
-0.14275 -0.0779029 0.702449
0.00176482 -0.0778203 0.768102
-0.153588 -0.077736 0.683947
-0.0498911 -0.0776565 0.729069
0.100171 -0.0775753 0.797499
-0.0555103 -0.0775328 0.710949
-0.176877 -0.0774508 0.64374
0.0809737 -0.0773708 0.766059
-0.113439 -0.0772912 0.662244
-0.0540611 -0.0772131 0.685264
-0.0287534 -0.0771722 0.689202
0.0014148 -0.0770938 0.697673
0.0443822 -0.0770159 0.71254
0.0365904 -0.0769384 0.702025
-0.00296521 -0.0768998 0.673461
-0.178724 -0.076823 0.578964
-0.251687 -0.0767467 0.535855
-0.0108194 -0.0766709 0.649659
-0.0779068 -0.0766332 0.607343
-0.0879868 -0.076558 0.59567
-0.159784 -0.0764845 0.553067
-0.0513863 -0.0764475 0.598498
-0.0179275 -0.0763737 0.608577
-0.259969 -0.0763004 0.480897
-0.231068 -0.0762639 0.486586
-0.077846 -0.0761936 0.556404
-0.172555 -0.0761217 0.502368
-0.175573 -0.0760859 0.492097
-0.0134196 -0.0760148 0.566484
-0.0682287 -0.0759442 0.532378
-0.146665 -0.075909 0.484401
-0.0703893 -0.0758426 0.515626
-0.0806673 -0.075808 0.501726
0.0373041 -0.0757391 0.55398
-0.241935 -0.0756707 0.407616
-0.0557531 -0.0756367 0.491946
-0.160352 -0.0755692 0.432888
-0.0194596 -0.0755402 0.494298
-0.180725 -0.0754736 0.406883
-0.108479 -0.0754075 0.436209
-0.199463 -0.0753747 0.381947
-0.130495 -0.0753095 0.409617
-0.198293 -0.0752771 0.366946
-0.173574 -0.0752128 0.372472
-0.246546 -0.0751867 0.326853
-0.114095 -0.0751234 0.386216
-0.287611 -0.0750919 0.290675
-0.201097 -0.0750294 0.327049
-0.184637 -0.0749675 0.328377
-0.120754 -0.0749368 0.351527
-0.230132 -0.0748757 0.289913
-0.0331156 -0.0748454 0.379622
-0.152591 -0.0747853 0.312935
-0.164819 -0.0747555 0.298016
-0.20579 -0.0747038 0.270088
-0.227571 -0.0746745 0.250381
-0.168689 -0.0746163 0.27281
-0.0696203 -0.0745874 0.31352
-0.240017 -0.0745301 0.221282
-0.135757 -0.0745017 0.264579
-0.165524 -0.0744454 0.242625
-0.154697 -0.0744175 0.239196
-0.125547 -0.0743621 0.246669
-0.294217 -0.0743346 0.153482
-0.169803 -0.0742802 0.208554
-0.132584 -0.0742532 0.2183
-0.300828 -0.0741997 0.12701
-0.0407271 -0.0741732 0.248186
-0.286265 -0.0741301 0.117614
-0.171264 -0.0741041 0.166222
-0.263427 -0.0740527 0.112893
-0.295557 -0.0740272 0.0879239
-0.220569 -0.0739767 0.118132
-0.126823 -0.0739517 0.156087
-0.213189 -0.0739023 0.105579
-0.290641 -0.0738778 0.0579205
-0.267964 -0.0738535 0.0603226
-0.0615813 -0.0738053 0.156138
-0.239763 -0.0737815 0.0580944
-0.27811 -0.0737344 0.0315027
-0.221062 -0.073711 0.0510587
-0.153364 -0.0736649 0.077446
-0.146246 -0.0736421 0.0720198
-0.0456466 -0.073597 0.114813
-0.275557 -0.0735747 -0.00914493
-0.28471 -0.0735307 -0.0212733
-0.289028 -0.0735089 -0.032454
0.750485 -0.0706504 1.34332
0.513021 -0.0701885 1.23896
0.460169 -0.0698952 1.21738
0.465809 -0.06964 1.22295
0.542719 -0.0694323 1.2615
0.447046 -0.0692155 1.21436
0.454812 -0.0690472 1.21619
0.433036 -0.0688789 1.20331
0.336534 -0.0687107 1.15313
0.324543 -0.0685426 1.14524
0.310652 -0.0684145 1.13412
0.43492 -0.0682469 1.19444
0.216427 -0.0681192 1.08108
0.134311 -0.0679919 1.03593
0.326548 -0.0678256 1.13032
0.382474 -0.0676991 1.15424
0.195906 -0.0676208 1.05407
0.327679 -0.067495 1.11594
0.207366 -0.0673783 1.05127
0.0117641 -0.0672534 0.949492
0.169817 -0.0671677 1.02221
0.0857889 -0.0670521 0.975733
0.171418 -0.0669288 1.01459
0.207025 -0.0668523 1.02563
0.179646 -0.06673 1.00799
0.303008 -0.0666465 1.0634
0.168894 -0.0665707 0.989615
0.0703174 -0.0664503 0.936381
0.100147 -0.0663751 0.94459
0.128464 -0.0663002 0.952054
0.211731 -0.0661814 0.989745
0.0362733 -0.0661072 0.89534
-0.0586456 -0.0660267 0.841617
0.086609 -0.065953 0.907585
0.214529 -0.0658735 0.965273
-0.047428 -0.0657699 0.829574
0.135797 -0.0656912 0.914923
0.0528653 -0.0656132 0.867175
-0.0209916 -0.0655411 0.823619
-0.0259423 -0.0654643 0.814843
0.0484592 -0.0653928 0.845425
-0.00209871 -0.0653216 0.813533
0.0860869 -0.0652463 0.851304
-0.113931 -0.0651758 0.744688
-0.0237187 -0.0651056 0.78319
0.0315425 -0.0650358 0.804221
-0.159478 -0.0649662 0.702113
-0.030239 -0.064897 0.760137
-0.0188877 -0.0648556 0.757432
-0.0410547 -0.064787 0.739754
-0.0367259 -0.0647188 0.735325
-0.0614665 -0.0646482 0.716536
0.0874623 -0.0645808 0.784404
-0.0314518 -0.0645162 0.718185
-0.0572044 -0.0644802 0.696666
0.0577813 -0.0644118 0.747694
-0.109368 -0.0643456 0.65752
-0.0121849 -0.0642799 0.69951
-0.143931 -0.0642162 0.626921
-0.151187 -0.0641808 0.614698
0.0319614 -0.064116 0.699664
-0.0195525 -0.0640517 0.667295
-0.0433342 -0.0639886 0.648725
-0.0161286 -0.0639555 0.653643
-0.0862541 -0.0638922 0.611956
-0.0301048 -0.0638295 0.633386
-0.200464 -0.063798 0.539454
-0.155428 -0.0637357 0.555339
-0.106989 -0.0636739 0.572918
-0.243604 -0.0636431 0.495853
-0.150901 -0.0635818 0.535556
-0.0949089 -0.063521 0.556897
-0.174596 -0.0634908 0.508299
-0.135062 -0.0634306 0.521404
-0.0470577 -0.0633708 0.558734
-0.280687 -0.0633421 0.433101
-0.115157 -0.063283 0.509177
-0.288294 -0.0632245 0.41591
-0.190032 -0.0631953 0.456289
-0.310529 -0.0631374 0.389329
-0.149485 -0.0631086 0.4611
-0.0993906 -0.0630533 0.479285
-0.246778 -0.0629966 0.398848
-0.370523 -0.0629685 0.328219
-0.289574 -0.0629124 0.361935
-0.0782044 -0.0628846 0.458862
-0.21067 -0.0628293 0.385854
0.0593636 -0.0628018 0.512112
-0.221324 -0.0627502 0.36476
-0.326633 -0.0626962 0.305289
-0.256179 -0.0626693 0.331749
0.0252184 -0.062616 0.465611
-0.15107 -0.0625895 0.368696
-0.23609 -0.0625369 0.319328
-0.363346 -0.0625108 0.246925
-0.324308 -0.062459 0.259564
-0.227312 -0.0624373 0.298981
-0.274297 -0.0623863 0.268578
-0.307375 -0.062361 0.243249
-0.130198 -0.0623107 0.324902
-0.112137 -0.0622857 0.325136
-0.137692 -0.0622362 0.305397
-0.111629 -0.0622116 0.309624
-0.0207439 -0.0621629 0.348077
-0.255469 -0.0621387 0.221903
-0.230876 -0.0620907 0.227181
-0.159081 -0.0620669 0.254258
-0.239824 -0.0620251 0.206431
-0.19999 -0.0620018 0.217515
-0.154374 -0.0619555 0.233235
-0.319934 -0.0619325 0.141612
-0.301256 -0.061887 0.14383
-0.29445 -0.0618644 0.138379
-0.192837 -0.0618197 0.182031
-0.203714 -0.0617975 0.167726
-0.254705 -0.0617536 0.135042
-0.114377 -0.0617318 0.196327
-0.135329 -0.0616887 0.178625
0.0167649 -0.0616674 0.24578
-0.176517 -0.0616251 0.141875
-0.441874 -0.0616042 0.000291126
-0.331449 -0.0615627 0.0482005
-0.267345 -0.0615422 0.0713326
-0.329217 -0.0615016 0.0330526
-0.32195 -0.0614815 0.027751
-0.143306 -0.0614615 0.108133
-0.131142 -0.061422 0.106818
-0.0972363 -0.0614025 0.114815
-0.245139 -0.0613638 0.0334224
-0.233296 -0.0613447 0.030371
-0.285966 -0.0613069 -0.0034496
-0.252175 -0.0612882 0.00445513
-0.144311 -0.0612513 0.0508554
-0.14701 -0.0612331 0.0404964
0.580664 -0.0564725 1.24976
0.637197 -0.0561742 1.28738
0.424297 -0.0559036 1.18841
0.627549 -0.0556687 1.29505
0.436556 -0.0554962 1.20015
0.554581 -0.0553303 1.25936
0.384369 -0.055157 1.17506
0.503324 -0.0550226 1.23257
0.242682 -0.0548883 1.10034
0.286252 -0.0547857 1.11794
0.482485 -0.0546516 1.21423
0.437717 -0.0545178 1.19007
0.338922 -0.0544158 1.13659
0.455294 -0.0543139 1.19072
0.410728 -0.0542199 1.16385
0.226083 -0.0541185 1.06752
0.220066 -0.0540175 1.06052
0.303998 -0.0539169 1.09852
0.266326 -0.0538239 1.07518
0.170967 -0.0537549 1.02122
0.16959 -0.0536553 1.0166
0.21211 -0.0535632 1.03341
0.182075 -0.053495 1.01215
0.242522 -0.0534035 1.03794
-0.018601 -0.053336 0.901152
0.169073 -0.0532754 0.988259
0.059309 -0.0531783 0.929484
0.0806886 -0.0531181 0.933469
0.140753 -0.0530282 0.959126
-0.00539567 -0.0529623 0.879849
0.0646376 -0.0528969 0.908654
0.146666 -0.0528376 0.943003
0.0560147 -0.0527729 0.891464
0.0132152 -0.0526848 0.865721
-0.00798496 -0.0526209 0.848898
0.0875873 -0.0525627 0.890049
0.16522 -0.0525047 0.922236
0.111778 -0.0524419 0.889287
-0.01393 -0.0523844 0.819815
0.101404 -0.0523271 0.87087
0.0155299 -0.0522655 0.821692
-0.0810859 -0.0522087 0.76678
0.0231626 -0.052148 0.812641
-0.0591005 -0.0520918 0.764911
-0.111209 -0.0520358 0.732262
-0.0440977 -0.0519764 0.759528
-0.0511058 -0.051921 0.749432
-0.0764162 -0.0518658 0.730186
0.076729 -0.0518146 0.799876
-0.0441396 -0.0517804 0.731176
0.06344 -0.051726 0.778381
-0.111387 -0.0516719 0.684383
-0.0979432 -0.0516153 0.684745
-0.035827 -0.0515618 0.709213
-0.178009 -0.0515112 0.631313
-0.109255 -0.051482 0.657114
0.0323362 -0.0514271 0.721504
0.00624361 -0.0513747 0.701863
-0.108289 -0.0513226 0.637999
-0.139476 -0.0512966 0.613627
-0.150186 -0.0512434 0.601809
-0.162317 -0.0511921 0.589137
-0.169973 -0.0511426 0.578572
-0.0362769 -0.0511157 0.63678
-0.146113 -0.0510642 0.575333
0.015551 -0.0510141 0.64954
-0.213278 -0.0509892 0.526365
-0.130291 -0.0509395 0.561229
-0.0971869 -0.0508903 0.571144
-0.195692 -0.0508654 0.513167
-0.18116 -0.0508167 0.513784
-0.156356 -0.0507683 0.519529
-0.162773 -0.0507442 0.507569
0.00184532 -0.0506963 0.583212
-0.00298869 -0.0506488 0.574118
-0.0354522 -0.0506252 0.549138
0.00244657 -0.0505782 0.561401
-0.193002 -0.0505548 0.454929
-0.30502 -0.0505084 0.392221
-0.0834384 -0.0504623 0.496299
-0.162013 -0.0504394 0.448265
-0.156659 -0.0503938 0.444216
-0.183874 -0.0503712 0.421862
-0.215665 -0.050327 0.399154
-0.0735081 -0.0502824 0.463472
-0.26306 -0.0502603 0.359943
-0.0534533 -0.0502163 0.457967
0.0268885 -0.0501944 0.489382
-0.249937 -0.050151 0.344172
-0.185811 -0.0501294 0.367477
-0.0392435 -0.0500866 0.433943
-0.145013 -0.0500669 0.37215
-0.161814 -0.0500247 0.356904
-0.160338 -0.0499829 0.35078
-0.250035 -0.0499622 0.297157
-0.144358 -0.049921 0.34311
-0.105586 -0.0499005 0.353717
-0.3217 -0.0498599 0.238749
-0.297468 -0.0498398 0.24208
-0.0707359 -0.0497998 0.348508
-0.245115 -0.0497824 0.252293
-0.160394 -0.0497431 0.287683
-0.295854 -0.0497236 0.21115
-0.29861 -0.0496849 0.202773
-0.237926 -0.0496657 0.224304
-0.233226 -0.0496276 0.219625
-0.222583 -0.0496087 0.216126
-0.282679 -0.0495713 0.179017
-0.27001 -0.0495527 0.176522
-0.253717 -0.0495159 0.177576
-0.213411 -0.0494976 0.188887
-0.10802 -0.0494615 0.234457
-0.273333 -0.0494435 0.142947
-0.290895 -0.0494257 0.125311
-0.296887 -0.0493904 0.115144
-0.0517058 -0.0493766 0.228517
-0.35509 -0.049342 0.0696115
-0.313018 -0.0493248 0.081763
-0.148388 -0.0492909 0.156827
-0.139959 -0.0492741 0.152143
-0.31272 -0.0492408 0.0584717
-0.129957 -0.0492244 0.14094
-0.264109 -0.0491918 0.0665331
-0.360317 -0.0491756 0.00950118
-0.269844 -0.0491596 0.045805
-0.0800259 -0.0491279 0.133329
-0.256188 -0.0491122 0.0362991
-0.207514 -0.0490812 0.0532075
-0.322991 -0.0490659 -0.0134969
-0.185507 -0.0490355 0.0477714
-0.23038 -0.0490205 0.0163514
-0.269221 -0.0489909 -0.0105892
-0.326765 -0.0489763 -0.0483638
0.76792 -0.0424411 1.32304
0.856751 -0.0421197 1.38621
0.700715 -0.0418945 1.31787
0.556695 -0.0417429 1.24857
0.421084 -0.0415905 1.18363
0.332627 -0.0414611 1.14012
0.431006 -0.0413369 1.1896
0.474776 -0.0412364 1.20953
0.494595 -0.0411302 1.2181
0.542132 -0.0410297 1.24003
0.168189 -0.0409293 1.05126
0.355474 -0.0408527 1.14082
0.282838 -0.0407821 1.09987
0.35682 -0.0407057 1.13283
0.34584 -0.0406296 1.12335
0.230517 -0.0405536 1.06171
0.234972 -0.0404778 1.05998
0.0876492 -0.040408 0.981808
0.117239 -0.0403327 0.992686
0.149255 -0.0402578 1.00479
0.216971 -0.0402117 1.03185
0.0244619 -0.0401372 0.931719
0.0921829 -0.0400631 0.961704
0.0541273 -0.0400175 0.935929
0.0398302 -0.0399667 0.922593
0.154097 -0.0398987 0.975332
0.34315 -0.0398484 1.06368
0.15223 -0.0398034 0.961526
0.0698503 -0.0397312 0.916489
0.0793427 -0.0396866 0.914559
0.0714328 -0.0396373 0.90444
0.0653674 -0.039593 0.894751
0.00290335 -0.0395222 0.859661
-0.061746 -0.0394783 0.820695
-0.0224562 -0.0394346 0.833705
0.0895665 -0.0393866 0.883552
-0.0155557 -0.0393432 0.82437
0.105834 -0.0393 0.87845
-0.118144 -0.0392529 0.76029
0.0825304 -0.0392101 0.854023
-0.0101973 -0.0391636 0.801473
0.141057 -0.0391211 0.870504
-0.0879753 -0.0390789 0.749395
-0.115665 -0.0390333 0.729345
-0.0134675 -0.0389914 0.773856
0.260322 -0.0389498 0.904165
-0.208809 -0.0389051 0.663369
-0.0602857 -0.0388639 0.731046
0.0209344 -0.0388229 0.765073
-0.0400715 -0.0387852 0.72764
3.8999e-05 -0.0387589 0.739549
0.0423288 -0.0387184 0.754115
0.0686967 -0.0386782 0.760718
-0.212178 -0.0386356 0.613979
-0.126654 -0.0385984 0.649878
-0.0686448 -0.0385761 0.670373
-0.0419313 -0.0385366 0.677146
-0.0486857 -0.0384953 0.66742
-0.164828 -0.0384564 0.602755
0.0849335 -0.038437 0.718865
-0.0386604 -0.0383984 0.650473
-0.0205659 -0.0383583 0.653115
-0.065386 -0.038322 0.623906
0.00243433 -0.0383013 0.649247
-0.233167 -0.0382636 0.524834
-0.109037 -0.0382262 0.580281
0.00894402 -0.0382063 0.630664
-0.0928096 -0.0381692 0.573159
-0.122053 -0.0381324 0.551902
-0.205352 -0.0381141 0.501504
-0.0696995 -0.0380769 0.562781
-0.122064 -0.0380415 0.529852
-0.178147 -0.0380228 0.493154
-0.396113 -0.0379871 0.377504
-0.167939 -0.0379693 0.482848
-0.0654418 -0.037934 0.527419
-0.0473332 -0.0378986 0.529817
-0.080234 -0.0378812 0.504622
-0.0222979 -0.0378466 0.526883
-0.131898 -0.0378294 0.463339
-0.201589 -0.0377952 0.421772
-0.0781194 -0.0377613 0.476773
-0.104629 -0.0377444 0.454771
-0.197127 -0.0377109 0.401772
-0.128037 -0.0376943 0.427568
-0.0341173 -0.0376612 0.46776
-0.180799 -0.0376447 0.385669
-0.0350964 -0.0376121 0.451733
-0.17792 -0.0375797 0.373517
-0.0760886 -0.0375637 0.415676
-0.172345 -0.0375317 0.360723
-0.279393 -0.0375159 0.298439
-0.0997392 -0.0374844 0.381419
-0.145313 -0.0374688 0.349866
-0.146564 -0.0374384 0.342295
-0.112796 -0.037423 0.350406
-0.164537 -0.0373925 0.317634
-0.109119 -0.0373773 0.336564
-0.172639 -0.0373472 0.297877
-0.248957 -0.0373323 0.250932
-0.0919823 -0.0373027 0.322466
-0.0817559 -0.037288 0.318784
-0.232663 -0.0372588 0.236348
-0.121777 -0.0372444 0.282988
-0.0410598 -0.0372157 0.316335
-0.144174 -0.0372028 0.255803
-0.212249 -0.0371746 0.214716
-0.310321 -0.0371606 0.156856
-0.431815 -0.0371329 0.0890272
-0.165602 -0.0371192 0.213299
-0.124895 -0.037092 0.226537
-0.153885 -0.0370785 0.203195
-0.275533 -0.0370518 0.135221
-0.215007 -0.0370386 0.156625
-0.0746097 -0.0370254 0.217962
-0.241726 -0.0369994 0.127207
-0.201366 -0.0369865 0.138512
-0.243126 -0.0369609 0.110397
-0.417115 -0.0369482 0.0145134
-0.194754 -0.0369232 0.11842
-0.174065 -0.0369108 0.11986
-0.295879 -0.0368862 0.0516382
-0.350432 -0.0368741 0.0154428
-0.259072 -0.03685 0.0537656
-0.0724487 -0.0368381 0.138142
-0.189409 -0.0368263 0.0707218
-0.362305 -0.0368029 -0.0231391
-0.259372 -0.0367914 0.0193702
-0.27203 -0.0367685 0.00558289
-0.0671012 -0.0367572 0.0990724
-0.326761 -0.0367349 -0.038262
-0.470841 -0.0367239 -0.119296
0.807985 -0.0280904 1.34831
0.717461 -0.0279232 1.31525
0.428747 -0.0278228 1.17354
0.408295 -0.0277217 1.16616
0.535761 -0.0276201 1.23289
0.435152 -0.0275535 1.18056
0.429302 -0.0274671 1.17855
0.324639 -0.0274003 1.12433
0.170101 -0.0273335 1.04523
0.377225 -0.0272824 1.14469
0.300877 -0.0272157 1.10477
0.180147 -0.0271648 1.04038
0.491532 -0.0270983 1.1944
0.341711 -0.0270476 1.11552
0.406764 -0.026997 1.1441
0.305744 -0.026966 1.08673
0.156855 -0.0269157 1.00839
0.0784181 -0.0268655 0.965282
0.306737 -0.0268194 1.07497
0.0480634 -0.0267696 0.941776
0.210464 -0.0267352 1.0168
0.25739 -0.0266896 1.03584
0.174047 -0.0266554 0.988016
0.0349914 -0.0266102 0.914085
0.0963997 -0.0265763 0.938656
-0.00182963 -0.0265463 0.882839
0.0335164 -0.0264978 0.89671
0.059663 -0.0264681 0.903103
-0.0230737 -0.0264349 0.855622
0.293584 -0.0264053 1.00729
-0.0489096 -0.0263577 0.832244
0.111476 -0.0263285 0.905793
0.117203 -0.026296 0.902546
0.143962 -0.0262669 0.909297
-0.0432006 -0.026238 0.809094
0.000142197 -0.026206 0.824657
0.109673 -0.0261773 0.872813
0.10469 -0.0261457 0.864203
-0.0529358 -0.0261172 0.778791
-0.166036 -0.0260889 0.715646
-0.0927027 -0.0260578 0.746184
0.0215932 -0.0260298 0.796744
0.033164 -0.0260018 0.795944
0.0221263 -0.0259714 0.784278
-0.0801574 -0.0259437 0.726554
-0.100453 -0.0259162 0.709827
0.157217 -0.0258863 0.832488
-0.0644269 -0.0258591 0.715087
-0.0833724 -0.0258345 0.698631
0.0656653 -0.0258163 0.765123
0.0236992 -0.0257894 0.737564
-0.0677892 -0.0257627 0.685242
-0.169766 -0.0257361 0.627674
-0.0720242 -0.0257097 0.669963
-0.179164 -0.0256946 0.60795
0.0542558 -0.0256684 0.718078
-0.0390432 -0.0256424 0.664842
-0.2234 -0.0256165 0.566074
-0.0299961 -0.0256019 0.654309
-0.0111274 -0.0255763 0.657149
-0.0524081 -0.0255508 0.62991
-0.183294 -0.0255272 0.55757
-0.296165 -0.0255115 0.492929
-0.0931734 -0.0254864 0.587812
0.0151202 -0.025463 0.635089
-0.0857777 -0.0254492 0.576143
-0.22068 -0.0254234 0.502277
-0.222754 -0.0254016 0.49415
-0.121941 -0.0253869 0.536265
-0.272544 -0.0253627 0.454318
-0.195206 -0.0253507 0.484246
-0.110777 -0.0253259 0.519966
-0.120732 -0.0253022 0.50832
-0.129358 -0.0252904 0.495266
-0.201772 -0.025267 0.452378
-0.0858354 -0.0252446 0.503505
-0.126561 -0.0252322 0.474551
-0.120047 -0.0252087 0.471205
-0.162518 -0.0251972 0.441227
-0.199212 -0.0251746 0.416155
-0.103555 -0.0251633 0.455241
-0.235187 -0.0251409 0.382682
-0.136413 -0.0251192 0.425224
-0.206028 -0.0251077 0.381759
-0.187667 -0.0250856 0.384204
-0.207873 -0.0250747 0.36535
-0.273823 -0.0250531 0.325576
-0.183915 -0.0250424 0.361775
-0.326038 -0.0250211 0.283893
-0.317094 -0.0250105 0.279607
-0.178428 -0.0249895 0.342097
-0.209202 -0.0249791 0.317947
-0.268198 -0.0249583 0.281583
-0.291006 -0.0249481 0.26141
-0.167823 -0.0249277 0.316111
-0.129616 -0.0249175 0.326439
-0.216676 -0.0248974 0.275992
-0.191074 -0.0248875 0.280012
-0.11096 -0.0248677 0.313124
-0.134869 -0.0248578 0.29238
-0.184536 -0.0248384 0.260573
-0.316047 -0.0248287 0.186019
0.0176887 -0.0248095 0.345883
-0.134481 -0.0248 0.260991
-0.329904 -0.0247812 0.156245
-0.154246 -0.0247718 0.235256
-0.178914 -0.0247533 0.215855
-0.334806 -0.0247441 0.129081
-0.228098 -0.0247259 0.175333
-0.299606 -0.0247169 0.130739
-0.176264 -0.024699 0.185274
-0.268489 -0.0246906 0.13022
-0.189674 -0.0246731 0.162449
-0.149049 -0.0246644 0.173895
-0.164507 -0.0246558 0.157296
-0.210633 -0.0246387 0.127007
-0.233931 -0.0246303 0.106474
-0.35713 -0.0246135 0.0376092
-0.132446 -0.0246052 0.141052
-0.348828 -0.0245888 0.0255552
-0.150102 -0.0245807 0.116004
-0.158089 -0.0245646 0.104662
-0.221129 -0.0245567 0.0642115
-0.219453 -0.0245488 0.0561144
-0.285486 -0.0245331 0.0156937
-0.254174 -0.0245254 0.0223973
-0.178111 -0.0245101 0.0529796
-0.262055 -0.0245026 0.00203732
-0.171513 -0.0244877 0.0398119
-0.237096 -0.0244803 -0.00196849
0.615307 -0.0139845 1.2456
0.469995 -0.0139179 1.1804
0.515136 -0.0138583 1.2085
0.484297 -0.0138077 1.19604
0.529204 -0.0137667 1.21875
0.385585 -0.0137316 1.14555
0.34087 -0.0136983 1.1213
0.264554 -0.013665 1.08131
0.337596 -0.0136218 1.11898
0.236664 -0.0135964 1.06447
0.392752 -0.013573 1.13788
0.128085 -0.0135378 1.00452
0.249885 -0.0135223 1.05852
0.168625 -0.0134892 1.0163
0.161322 -0.013464 1.00875
0.253343 -0.0134389 1.05089
0.243948 -0.0134235 1.03937
0.234404 -0.0133985 1.03076
0.239804 -0.0133736 1.02964
0.216267 -0.0133584 1.0111
-0.0204253 -0.0133336 0.88896
0.17207 -0.0133185 0.97847
0.178255 -0.013294 0.977786
-0.0147729 -0.013279 0.87456
0.196262 -0.0132621 0.973997
0.0905375 -0.0132378 0.917372
0.077758 -0.013223 0.904306
0.224785 -0.0132082 0.971152
-0.00680088 -0.0131916 0.849301
0.00215973 -0.0131696 0.849438
0.0956956 -0.0131532 0.890151
0.0198248 -0.0131387 0.845582
-0.102481 -0.0131224 0.778374
0.0414564 -0.013108 0.843725
0.246936 -0.0130936 0.939852
-0.00773496 -0.0130776 0.806463
0.0725197 -0.0130634 0.839989
0.077269 -0.0130475 0.836302
0.097894 -0.0130334 0.840022
-0.0413829 -0.0130194 0.763795
-0.0348718 -0.0130038 0.760977
-0.0937769 -0.0129899 0.724942
-0.00665701 -0.0129761 0.76192
0.0410352 -0.0129608 0.779675
-0.0709317 -0.0129471 0.717113
0.0486776 -0.0129335 0.77034
0.0224509 -0.0129185 0.75111
-0.0507684 -0.0129118 0.705695
0.0900673 -0.0128983 0.76954
0.0612464 -0.0128837 0.748986
-0.0591209 -0.0128704 0.682225
-0.00675579 -0.0128572 0.701828
-0.0279953 -0.0128506 0.682429
-0.118412 -0.0128363 0.631041
0.0078359 -0.0128233 0.687582
0.119575 -0.0128103 0.736865
-0.0946291 -0.0128039 0.620998
-0.0653622 -0.01279 0.629406
-0.0360265 -0.0127772 0.637479
0.107161 -0.0127646 0.702472
-0.107801 -0.0127583 0.586238
-0.130015 -0.0127448 0.568849
-0.171427 -0.0127324 0.541529
-0.129126 -0.0127262 0.553933
-0.0662825 -0.0127139 0.578734
-0.183126 -0.0127016 0.513683
-0.0732497 -0.0126955 0.55988
-0.0658837 -0.0126826 0.557204
-0.166914 -0.0126706 0.500039
-0.0382313 -0.0126647 0.555642
-0.0421873 -0.0126528 0.547004
-0.0843471 -0.0126469 0.517187
-0.0823281 -0.0126345 0.511756
-0.0361857 -0.0126228 0.528141
-0.0119019 -0.012617 0.531545
-0.178652 -0.0126055 0.44147
-0.150606 -0.0125998 0.446756
-0.164732 -0.0125885 0.432977
-0.190951 -0.0125772 0.413138
-0.195814 -0.0125711 0.402142
-0.264492 -0.01256 0.361053
-0.139617 -0.0125545 0.414747
-0.123599 -0.0125435 0.415988
-0.110281 -0.012538 0.413902
-0.0172577 -0.0125272 0.453625
-0.0784793 -0.0125218 0.414265
-0.264436 -0.0125108 0.314594
-0.308716 -0.012501 0.285353
-0.168423 -0.012495 0.347011
-0.0735508 -0.0124849 0.387485
-0.242882 -0.0124794 0.294164
-0.0111323 -0.0124694 0.403057
-0.201008 -0.012464 0.299453
-0.367979 -0.0124539 0.209064
-0.140789 -0.0124489 0.313881
0.124399 -0.0124389 0.439545
-0.153349 -0.0124338 0.291931
-0.146006 -0.0124241 0.288598
-0.190243 -0.0124192 0.257727
-0.397963 -0.0124098 0.146753
-0.159598 -0.0124047 0.257253
-0.0708085 -0.0124 0.292843
-0.291239 -0.0123905 0.175597
-0.0756219 -0.0123859 0.27459
-0.0792716 -0.0123766 0.265701
-0.260379 -0.012372 0.166321
-0.309953 -0.0123629 0.134437
-0.200095 -0.0123584 0.180528
-0.346929 -0.0123494 0.0999781
-0.180016 -0.012345 0.174585
-0.115309 -0.0123362 0.199769
-0.271883 -0.0123318 0.112619
-0.0590493 -0.0123232 0.211824
-0.106189 -0.012319 0.179382
-0.138655 -0.0123147 0.154269
-0.101608 -0.0123063 0.165537
-0.265244 -0.0123022 0.0748249
-0.323745 -0.0122939 0.038279
-0.276277 -0.0122899 0.0531043
-0.0919997 -0.0122818 0.137905
-0.195449 -0.0122778 0.0772555
-0.189518 -0.0122738 0.0712915
-0.308219 -0.012266 0.00454714
-0.232571 -0.0122621 0.0334239
-0.167161 -0.0122545 0.0586896
-0.384612 -0.0122507 -0.0590007
-0.271848 -0.0122432 -0.0101046
-0.342558 -0.0122396 -0.054472
0.592693 0 1.2231
0.505904 0 1.19003
0.488087 0 1.18399
0.478207 0 1.18209
0.317133 0 1.10245
0.3914 0 1.13769
0.190803 0 1.03555
0.328363 0 1.10318
0.120476 0 0.995192
0.281724 0 1.07414
0.2922 0 1.07541
0.373265 0 1.11136
0.274506 0 1.06107
0.128184 0 0.981043
0.274014 0 1.05011
0.347981 0 1.08327
0.150785 0 0.980189
0.200927 0 0.999147
0.0469584 0 0.918387
0.13025 0 0.95328
0.1793 0 0.974056
0.319456 0 1.04039
0.181435 0 0.964669
-0.0456832 0 0.845068
0.186288 0 0.956679
0.309258 0 1.01214
0.119274 0 0.910479
0.0452787 0 0.866824
0.0529076 0 0.866934
0.121975 0 0.895457
0.00873779 0 0.832206
0.111663 0 0.877043
0.0433545 0 0.836887
-0.0649247 0 0.776135
0.0314002 0 0.818293
0.114078 0 0.853031
0.0781954 0 0.828493
0.0312121 0 0.798993
0.0821914 0 0.817894
0.164886 0 0.852655
-0.0985811 0 0.714903
-0.120735 0 0.697245
-0.183701 0 0.659181
-0.0476073 0 0.721191
0.0635516 0 0.770192
-0.0385749 0 0.710321
0.0523394 0 0.749723
-0.137884 0 0.648037
0.041672 0 0.731238
0.0312342 0 0.719931
-0.00398221 0 0.695249
-0.27615 0 0.550881
-0.178392 0 0.593179
-0.176898 0 0.587802
-0.193747 0 0.572787
-0.184278 0 0.56876
-0.0458282 0 0.631392
0.0788913 0 0.687582
-0.0508126 0 0.613978
-0.0613508 0 0.602105
0.00789948 0 0.63012
-0.0267987 0 0.604026
-0.0461955 0 0.588102
-0.0698513 0 0.569648
-0.194006 0 0.49883
-0.0582224 0 0.560088
-0.0874698 0 0.538819
-0.113722 0 0.517308
-0.0833243 0 0.52585
-0.0987881 0 0.511451
-0.276944 0 0.413637
-0.213582 0 0.438638
-0.0374301 0 0.517979
-0.137035 0 0.461788
-0.162407 0 0.442089
-0.244362 0 0.392678
-0.128055 0 0.444106
-0.274001 0 0.362395
-0.240082 0 0.372612
-0.136262 0 0.415782
-0.229187 0 0.362813
-0.126878 0 0.405224
-0.0841577 0 0.419802
-0.132377 0 0.388643
-0.209304 0 0.341678
-0.193374 0 0.342821
-0.0793347 0 0.391085
-0.145282 0 0.351466
-0.261855 0 0.284418
-0.303858 0 0.256544
-0.259892 0 0.269759
-0.0840206 0 0.350798
-0.146688 0 0.31069
-0.0878163 0 0.3332
-0.259349 0 0.238652
-0.16872 0 0.277014
-0.0683692 0 0.318399
-0.214608 0 0.238296
-0.290954 0 0.191324
-0.110585 0 0.274495
-0.140753 0 0.250731
-0.155199 0 0.234696
-0.148789 0 0.230843
-0.167256 0 0.212787
-0.290575 0 0.144036
-0.265896 0 0.147541
-0.222184 0 0.16227
-0.207372 0 0.160829
-0.0751971 0 0.219754
-0.266184 0 0.1154
-0.295236 0 0.0936731
-0.209563 0 0.127636
-0.285151 0 0.080965
-0.154852 0 0.138863
-0.210956 0 0.101919
-0.236485 0 0.081862
-0.0949707 0 0.143712
-0.363839 0 0.00194238
-0.185789 0 0.0820434
-0.265729 0 0.0331453
-0.205408 0 0.0559147
-0.419727 0 -0.0601903
-0.231129 0 0.0266719
-0.342688 0 -0.038071
-0.362548 0 -0.0554844
-0.183179 0 0.0252461
0.748229 0.0138979 1.2897
0.510514 0.0138222 1.18129
0.479887 0.01378 1.16664
0.315174 0.0137299 1.08739
0.326554 0.0136872 1.09404
0.482606 0.0136542 1.1702
0.469386 0.013619 1.16244
0.28846 0.013586 1.07025
0.316859 0.0135607 1.08046
0.417302 0.0135277 1.12904
0.146748 0.0135024 0.989846
0.260841 0.0134772 1.04301
0.185075 0.0134543 1.00057
-0.0927086 0.0134292 0.857853
0.0699633 0.0134041 0.935384
0.219739 0.0133867 1.00417
0.209248 0.013364 0.994453
0.134436 0.0133391 0.9533
0.0712042 0.0133219 0.915635
0.146095 0.0132994 0.948654
0.0424929 0.0132823 0.890833
0.0872478 0.0132577 0.909511
0.262537 0.0132429 0.990454
0.111281 0.013226 0.908835
0.136446 0.0132039 0.917045
0.11787 0.0131871 0.901781
0.015045 0.0131725 0.84371
0.0222642 0.013158 0.840668
-0.0865832 0.0131342 0.782584
0.184642 0.0131176 0.912237
0.0802489 0.0131033 0.853413
0.160398 0.013089 0.886866
0.101805 0.0130727 0.851621
0.0459456 0.0130586 0.817081
-0.0620854 0.0130425 0.757114
0.0271486 0.0130284 0.795132
0.0897267 0.0130145 0.819824
-0.0469779 0.0129986 0.745518
-0.0182055 0.0129848 0.753315
-0.209432 0.012971 0.651114
0.083723 0.0129554 0.791727
0.05718 0.0129418 0.771871
-0.0723124 0.0129282 0.700541
-0.100158 0.0129196 0.678408
-0.163102 0.0129062 0.640359
-0.120491 0.0128928 0.655086
-0.10722 0.0128778 0.65572
-0.0833712 0.0128645 0.661063
-0.122157 0.0128579 0.632887
-0.0453674 0.0128448 0.664701
-0.121734 0.0128301 0.62049
-0.210557 0.0128172 0.569492
0.0435091 0.0128043 0.689934
-0.0859297 0.0127979 0.61645
-0.00635888 0.0127835 0.65017
-0.0807189 0.0127709 0.606391
0.0795587 0.0127646 0.677776
-0.0251045 0.012752 0.618841
-0.0205752 0.0127381 0.614993
-0.133298 0.0127319 0.549885
-0.169729 0.0127195 0.525053
-0.149821 0.0127073 0.528383
-0.127369 0.0127012 0.530868
-0.166219 0.0126877 0.505273
0.0726734 0.0126757 0.618076
-0.231157 0.0126697 0.457423
-0.124357 0.0126578 0.504169
-0.229126 0.012646 0.44512
-0.0731201 0.0126389 0.514813
-0.161008 0.0126272 0.464191
-0.179068 0.0126214 0.446426
-0.108897 0.0126099 0.47482
-0.0205942 0.0125984 0.512266
-0.254824 0.0125927 0.386415
-0.207002 0.0125803 0.403988
-0.0919489 0.0125747 0.452777
-0.0725747 0.0125636 0.455725
-0.285584 0.012558 0.34048
-0.260826 0.012547 0.346102
-0.223272 0.0125361 0.358105
-0.124498 0.0125307 0.398746
-0.20827 0.012519 0.350403
-0.144427 0.0125136 0.373574
-0.108222 0.012503 0.384859
-0.30769 0.0124977 0.27637
-0.155797 0.0124873 0.345475
-0.217449 0.0124821 0.30589
-0.210024 0.0124718 0.302737
-0.249565 0.0124666 0.274201
-0.217194 0.0124565 0.283495
-0.255241 0.0124514 0.255699
-0.256544 0.0124407 0.248412
-0.333096 0.0124357 0.201355
-0.200067 0.0124259 0.260921
-0.171857 0.012421 0.266237
-0.127969 0.0124113 0.281203
-0.160832 0.0124065 0.255974
-0.229702 0.012397 0.214529
-0.0708715 0.0123922 0.285137
-0.17803 0.0123836 0.224241
-0.272857 0.0123782 0.168285
-0.124426 0.0123736 0.23368
-0.212704 0.0123645 0.182456
-0.270698 0.0123599 0.144628
-0.146075 0.0123504 0.200039
-0.273826 0.0123459 0.127319
-0.186353 0.0123371 0.163897
-0.204718 0.0123327 0.145857
-0.360662 0.0123241 0.0606878
-0.339546 0.0123198 0.0623743
-0.100398 0.0123156 0.173073
-0.311157 0.0123071 0.060447
-0.228983 0.012303 0.092644
-0.236573 0.0122947 0.0815611
-0.184016 0.0122906 0.098934
-0.0867471 0.0122825 0.140238
-0.337514 0.0122785 0.00593278
-0.172324 0.0122746 0.0796015
-0.11708 0.0122667 0.0998368
-0.26429 0.0122628 0.0172882
-0.323809 0.0122552 -0.0199033
-0.271412 0.0122514 -0.00266664
-0.334232 0.0122439 -0.0415557
-0.16297 0.0122402 0.0350943
0.510734 0.0277443 1.15484
0.454023 0.027575 1.13972
0.455218 0.0274909 1.14105
0.439447 0.0274062 1.13404
0.414509 0.0273254 1.12194
0.493192 0.0272555 1.1601
0.256475 0.02717 1.04295
0.390242 0.0271241 1.10515
0.298992 0.0270538 1.05856
0.191031 0.0270034 1.00067
0.182878 0.0269531 0.992717
0.0925129 0.0269075 0.942964
0.230279 0.0268573 1.00803
0.155448 0.0268072 0.966823
0.0810923 0.0267573 0.92588
0.260815 0.0267074 1.012
0.30248 0.0266775 1.02605
0.184308 0.0266279 0.963257
0.235544 0.0265933 0.982874
0.204856 0.0265489 0.963104
0.0332037 0.0265145 0.871306
0.0874037 0.0264656 0.894747
0.0276322 0.0264363 0.858167
0.295824 0.0264071 0.985576
0.107749 0.0263587 0.887907
0.0291564 0.026325 0.842684
0.205506 0.0262961 0.924204
0.112485 0.0262674 0.871045
-0.033187 0.0262341 0.792305
0.182299 0.0261868 0.896423
0.074256 0.0261584 0.835775
0.0659968 0.0261301 0.825024
-0.094815 0.0260975 0.73872
-0.0384001 0.0260695 0.760317
0.0977349 0.0260416 0.821777
0.0216433 0.0260095 0.777837
-0.0814103 0.0259818 0.719711
0.0186364 0.0259501 0.763832
-0.0257407 0.0259227 0.73505
-0.0633683 0.025909 0.707406
-0.156028 0.0258777 0.655169
-0.0968829 0.0258507 0.678158
-0.0224322 0.0258238 0.708798
-0.133195 0.0257931 0.647493
-0.105342 0.0257665 0.654834
-0.0259155 0.02574 0.68796
0.0117602 0.0257268 0.698009
-0.169448 0.0256968 0.601462
-0.132609 0.0256707 0.613294
-0.121421 0.0256448 0.612297
-0.165148 0.0256153 0.584458
-0.10328 0.0256025 0.606625
-0.135431 0.025577 0.583953
-0.27475 0.0255516 0.507692
-0.162139 0.025539 0.555239
0.0301879 0.0255104 0.645393
-0.24163 0.0254854 0.502872
-0.327659 0.025473 0.451108
-0.297954 0.0254483 0.459342
-0.0309813 0.0254205 0.58677
-0.157614 0.0254083 0.514711
0.00596145 0.025384 0.589864
-0.194568 0.0253599 0.482955
-0.2382 0.025348 0.4524
-0.2635 0.0253211 0.433633
-0.163794 0.0252974 0.476821
-0.184827 0.0252857 0.457568
-0.154093 0.0252623 0.466257
-0.28662 0.0252507 0.391257
-0.174015 0.0252276 0.440868
-0.0897309 0.0252018 0.476809
-0.146891 0.0251904 0.439491
-0.188777 0.0251678 0.411828
-0.186762 0.0251566 0.404096
-0.17723 0.0251342 0.402125
-0.165141 0.0251231 0.399428
-0.217907 0.0250985 0.366755
-0.199544 0.0250766 0.369164
-0.148183 0.0250658 0.386098
-0.220505 0.0250442 0.343144
-0.191727 0.0250335 0.348783
-0.259249 0.0250123 0.308207
-0.0612638 0.0250017 0.398445
-0.158871 0.0249807 0.342803
-0.343075 0.024968 0.242364
-0.215837 0.0249474 0.29912
-0.120942 0.0249371 0.337802
-0.258506 0.0249168 0.26213
-0.151178 0.0249067 0.307022
-0.10776 0.0248867 0.321814
-0.215044 0.0248767 0.259393
-0.312773 0.024857 0.203582
-0.126796 0.0248472 0.287783
-0.0358597 0.0248278 0.326276
-0.257985 0.0248162 0.206792
-0.0908039 0.0247971 0.283375
-0.239672 0.0247877 0.200135
-0.15831 0.0247689 0.233776
-0.107369 0.0247596 0.25043
-0.377753 0.0247504 0.106418
-0.210165 0.0247321 0.18313
-0.240796 0.024723 0.158984
-0.209301 0.024705 0.167614
-0.301142 0.0246961 0.11285
-0.22657 0.0246784 0.142982
-0.214771 0.0246697 0.140025
-0.414344 0.0246523 0.033046
-0.126988 0.0246438 0.167853
-0.185758 0.0246352 0.129595
-0.227318 0.0246184 0.101572
-0.0213438 0.02461 0.19567
0.0354826 0.0245935 0.2168
-0.205181 0.0245853 0.0875636
-0.310885 0.0245675 0.0277007
-0.308448 0.0245595 0.0199984
0.00890156 0.0245515 0.169748
-0.282004 0.0245358 0.0169116
-0.105305 0.024528 0.096318
-0.324072 0.0245126 -0.0204946
-0.102645 0.024505 0.081258
-0.184099 0.02449 0.033055
-0.131425 0.0244826 0.0504124
0.53976 0.0413389 1.16138
0.573125 0.0411626 1.18386
0.324877 0.0410365 1.06062
0.496649 0.0409096 1.14754
0.189023 0.0407822 0.994883
0.212615 0.040707 1.00265
0.295351 0.0406089 1.04234
0.295117 0.0405336 1.03829
0.213476 0.0404357 0.995878
0.226638 0.0403605 0.99861
0.121737 0.0402854 0.942345
-0.00797212 0.0402104 0.873708
0.0553064 0.0401355 0.901593
0.198664 0.0400608 0.969543
0.298233 0.0399863 1.01562
0.395184 0.0399418 1.05732
0.197076 0.0398677 0.954598
0.069238 0.0398235 0.883933
0.241105 0.0397498 0.966227
0.0823605 0.0396984 0.880928
0.128612 0.0396546 0.897349
0.0394997 0.0395817 0.849185
0.200619 0.0395382 0.92306
0.131801 0.0394875 0.88277
0.105224 0.0394228 0.865101
0.0532825 0.0393725 0.833264
0.345774 0.0393298 0.97286
0.0332188 0.0392799 0.810727
0.208077 0.0392375 0.891523
0.0855232 0.039188 0.824397
-0.0299285 0.0391459 0.760051
0.252634 0.0391041 0.894714
-0.00809206 0.0390553 0.758513
-0.145327 0.0390138 0.683288
-0.0318247 0.0389654 0.734198
0.0787133 0.0389243 0.782867
-0.0302504 0.0388834 0.721786
0.0765019 0.0388358 0.769318
-0.166833 0.0387953 0.641056
0.0480747 0.038755 0.741913
-0.168432 0.0387083 0.627806
-0.052786 0.0386684 0.679034
-0.15887 0.0386485 0.617191
-0.203735 0.0386025 0.588892
-0.183274 0.0385632 0.59253
-0.184964 0.0385241 0.585089
-0.0474652 0.0384789 0.647947
0.0433071 0.0384596 0.684557
-0.00175791 0.0384211 0.655426
-0.0254766 0.0383828 0.636963
-0.16941 0.0383387 0.559077
-0.0130186 0.0383198 0.628511
-0.028449 0.0382821 0.614184
-0.162404 0.0382447 0.540588
0.0326824 0.0382261 0.629377
-0.2123 0.0381832 0.500931
-0.14405 0.0381464 0.528425
-0.0241275 0.0381281 0.579639
0.0108401 0.0380917 0.590483
-0.172356 0.0380501 0.492881
-0.0423148 0.0380321 0.549158
-0.0309221 0.0379964 0.548197
-0.184999 0.0379609 0.46449
-0.175572 0.0379432 0.460462
-0.028962 0.0379029 0.527703
-0.0717217 0.0378855 0.497584
-0.248276 0.0378509 0.402613
-0.139382 0.0378165 0.450353
-0.057929 0.0377994 0.482339
-0.206045 0.0377655 0.401558
-0.459841 0.0377437 0.266505
-0.273486 0.0377102 0.352943
-0.173997 0.0376935 0.393945
-0.129094 0.0376604 0.409639
-0.292086 0.0376276 0.321369
-0.0553057 0.0376113 0.431011
-0.280573 0.037579 0.311583
-0.147418 0.0375583 0.36996
-0.0382665 0.0375264 0.41772
-0.0945127 0.0375106 0.380841
-0.126653 0.0374791 0.357932
-0.258617 0.0374635 0.283189
-0.21397 0.0374325 0.298649
-0.166479 0.0374171 0.313627
0.00913883 0.0373866 0.394547
-0.351199 0.0373714 0.205604
-0.188866 0.0373372 0.280369
-0.13327 0.0373223 0.299386
-0.255391 0.0372927 0.231381
-0.335913 0.037278 0.182331
-0.0248865 0.0372489 0.33087
-0.134449 0.0372344 0.267291
-0.155473 0.0372058 0.249773
-0.207222 0.0371916 0.215091
-0.129513 0.0371634 0.246907
-0.352006 0.0371495 0.126842
-0.223394 0.0371356 0.182328
-0.208368 0.0371081 0.18276
-0.177858 0.0370945 0.189183
0.0274868 0.0370637 0.285212
-0.164606 0.0370503 0.180322
-0.246366 0.0370238 0.132289
-0.285203 0.0370107 0.104013
-0.206915 0.0369847 0.135966
-0.386101 0.0369718 0.0375024
-0.13131 0.036959 0.156024
-0.214921 0.0369337 0.106976
-0.346358 0.0369211 0.0323685
-0.0919704 0.0368963 0.152279
-0.0633211 0.036884 0.157699
-0.221702 0.0368597 0.0711831
-0.164204 0.0368477 0.091011
-0.152129 0.0368357 0.088123
-0.184862 0.0368121 0.0643745
-0.19528 0.0368004 0.0502226
-0.165506 0.0367773 0.0576816
-0.0955978 0.0367659 0.0836746
-0.219076 0.0367433 0.0144609
-0.259235 0.0367322 -0.0145987
0.537666 0.0551611 1.13359
0.269739 0.0548553 1.01084
0.41299 0.0546201 1.08848
0.289791 0.0544521 1.02792
0.29239 0.0543133 1.02811
0.397962 0.0541835 1.07917
0.273481 0.0540439 1.016
0.234699 0.053944 0.992706
0.260051 0.0538141 1.00382
0.263848 0.0537143 1.0019
0.18225 0.0536146 0.957316
0.254606 0.053515 0.989744
0.110291 0.0534155 0.913865
0.364037 0.0533564 1.03393
0.0631502 0.0532574 0.879809
0.19007 0.0531586 0.939614
0.209669 0.0530601 0.945777
0.120015 0.0530018 0.894205
0.0549722 0.0529329 0.855789
0.0734581 0.052846 0.860599
0.08321 0.0527776 0.859609
-0.21615 0.0526807 0.706355
0.0123776 0.0526234 0.813933
0.0392039 0.0525557 0.82151
0.19472 0.0524988 0.892601
-0.100235 0.0524034 0.741575
0.238724 0.052347 0.9044
0.0941284 0.0522805 0.826294
-0.039827 0.0522245 0.752676
0.0245197 0.0521689 0.778213
0.118505 0.0521031 0.819414
0.119932 0.0520479 0.813502
-0.0340646 0.0519828 0.730713
0.107968 0.0519281 0.795113
0.00417114 0.0518737 0.736599
0.158309 0.0518095 0.807881
0.0867771 0.0517556 0.765505
-0.0618451 0.0516922 0.685398
0.130106 0.0516655 0.772553
0.0239179 0.0516122 0.712857
0.126073 0.0515593 0.75733
-0.226195 0.051497 0.575398
-0.189599 0.0514447 0.587092
-0.0697822 0.0513927 0.640391
0.037314 0.0513573 0.685943
-0.0304596 0.0513057 0.645451
-0.143247 0.0512545 0.582448
-0.11549 0.0511943 0.59049
-0.075383 0.051169 0.601772
0.0837834 0.0511185 0.674741
-0.0106861 0.0510683 0.620885
-0.0512499 0.0510096 0.594737
-0.255863 0.0509848 0.483671
0.0519865 0.0509354 0.630965
-0.0722943 0.0508864 0.562185
