ply
format ascii 1.0
comment Created by Open3D
element vertex 1690
property double x
property double y
property double z
end_header
-0.12591 -0.104623 1.11599
-0.185416 -0.104526 1.0786
-0.0712681 -0.10443 1.12804
-0.113525 -0.104405 1.09669
-0.15479 -0.10431 1.06843
-0.22703 -0.104259 1.02304
-0.179324 -0.104164 1.03929
-0.20548 -0.10407 1.0186
-0.102985 -0.10402 1.06062
-0.167011 -0.103951 1.02006
-0.219909 -0.103901 0.984411
-0.159798 -0.103808 1.00688
-0.176207 -0.103757 0.989496
-0.128987 -0.103665 1.00553
-0.160094 -0.103614 0.980823
-0.183103 -0.103548 0.960784
-0.193836 -0.103497 0.946292
-0.20312 -0.103406 0.934083
-0.111576 -0.103356 0.970755
-0.242353 -0.103266 0.897805
-0.200164 -0.103241 0.908849
-0.155562 -0.10319 0.922085
-0.161517 -0.103101 0.911562
-0.178657 -0.10305 0.893953
-0.109602 -0.102961 0.920938
-0.0833533 -0.102936 0.924058
-0.220036 -0.102886 0.846711
-0.155805 -0.102798 0.871298
-0.198111 -0.102747 0.841166
-0.126253 -0.102697 0.868126
-0.170453 -0.102635 0.837508
-0.0599317 -0.102584 0.883822
-0.160482 -0.102534 0.824613
-0.175861 -0.102448 0.80942
-0.230055 -0.102423 0.772398
-0.160822 -0.102372 0.798113
-0.166752 -0.102287 0.787653
-0.178903 -0.102236 0.772702
-0.172237 -0.102211 0.766144
-0.181281 -0.10216 0.752767
-0.154853 -0.102076 0.758506
-0.2114 -0.102025 0.721402
-0.164464 -0.101975 0.736051
-0.120753 -0.101917 0.749399
-0.166997 -0.101866 0.717479
-0.151439 -0.101816 0.716472
-0.244674 -0.101765 0.66108
-0.243452 -0.101708 0.65319
-0.240336 -0.101657 0.645995
-0.196405 -0.101607 0.659219
-0.20542 -0.101556 0.645981
-0.119507 -0.1015 0.680441
-0.138459 -0.10145 0.662257
-0.108116 -0.101399 0.668731
-0.17095 -0.101348 0.628628
-0.170677 -0.101293 0.62027
-0.208566 -0.101243 0.59266
-0.308436 -0.101192 0.534072
-0.142501 -0.101141 0.608398
-0.141195 -0.101116 0.599335
-0.208777 -0.101037 0.558145
-0.224615 -0.100986 0.541617
-0.205267 -0.100961 0.5416
-0.207201 -0.10091 0.532043
-0.14197 -0.100859 0.55608
-0.177558 -0.100781 0.530909
-0.192688 -0.100756 0.513686
-0.124657 -0.100705 0.539156
-0.28383 -0.100655 0.451034
-0.187466 -0.100604 0.490693
-0.19747 -0.100579 0.476063
-0.193923 -0.100502 0.47049
-0.28579 -0.100451 0.416065
-0.152891 -0.100426 0.472911
-0.28139 -0.100375 0.40019
-0.239471 -0.100324 0.412689
-0.162151 -0.100273 0.4429
-0.223514 -0.100248 0.402646
-0.244512 -0.100172 0.38484
-0.153888 -0.100122 0.421735
-0.211168 -0.100096 0.383564
-0.137711 -0.100045 0.411877
-0.188918 -0.0999947 0.377887
-0.163878 -0.0999439 0.382032
-0.28133 -0.0999186 0.313787
-0.183477 -0.0998678 0.354359
-0.178854 -0.0997932 0.349412
-0.246902 -0.0997679 0.305894
-0.232849 -0.0997171 0.304597
-0.186889 -0.0996664 0.319264
-0.192522 -0.0996156 0.308146
-0.140966 -0.0995902 0.32446
-0.210113 -0.0995394 0.281605
-0.250092 -0.0994886 0.253344
-0.108317 -0.0994633 0.31479
-0.170076 -0.09939 0.276708
-0.172034 -0.0993392 0.26749
-0.16506 -0.0993138 0.261559
-0.247981 -0.099263 0.211878
-0.266885 -0.0992123 0.194218
-0.206936 -0.0991869 0.214796
-0.228835 -0.0991361 0.195657
-0.166127 -0.0990853 0.218833
-0.187854 -0.0990599 0.198596
-0.16102 -0.0990091 0.203854
-0.220406 -0.0989582 0.166014
-0.183569 -0.0989295 0.175238
-0.251062 -0.098882 0.133206
-0.184961 -0.0988312 0.15814
-0.231858 -0.0987803 0.126586
-0.100128 -0.0987549 0.183129
-0.252674 -0.0986831 0.0997824
-0.219308 -0.0986323 0.108391
-0.187634 -0.0986069 0.11493
-0.281831 -0.0985561 0.059776
-0.224116 -0.0985052 0.0805894
-0.219588 -0.0984798 0.0735768
-0.210095 -0.098429 0.0702987
-0.14728 -0.0984036 0.0924436
-0.203825 -0.0983527 0.0561656
-0.205597 -0.0983019 0.0472853
-0.149723 -0.0982764 0.0659819
-0.195289 -0.0982256 0.035224
-0.162101 -0.0981747 0.043854
-0.159587 -0.0981493 0.0358927
-0.197844 -0.0980984 0.00881952
0.0264654 -0.0933114 1.34622
0.02208 -0.0929361 1.34743
-0.113299 -0.0928041 1.27361
-0.0370978 -0.0926727 1.3056
-0.0205557 -0.0925852 1.30605
-0.107175 -0.0924549 1.25664
-0.150532 -0.0923681 1.22715
-0.0522988 -0.092346 1.26588
-0.0618097 -0.0922173 1.25504
-0.0337109 -0.0921314 1.2613
-0.110597 -0.0920458 1.21508
-0.13436 -0.0919606 1.19543
-0.204072 -0.0919165 1.15115
-0.147015 -0.0918317 1.17193
-0.128407 -0.0917473 1.17348
-0.134581 -0.0916633 1.16265
-0.112427 -0.0916413 1.16345
-0.16263 -0.0915578 1.13062
-0.146067 -0.0914748 1.13117
-0.0861407 -0.0914307 1.1518
-0.0727308 -0.0913482 1.15079
-0.057827 -0.0912662 1.15053
-0.18868 -0.0912221 1.07582
-0.126849 -0.0911628 1.0981
-0.0759446 -0.0911187 1.11429
-0.198853 -0.0910378 1.04513
-0.197198 -0.0909937 1.03672
-0.147609 -0.0909135 1.05383
-0.148965 -0.0908694 1.04394
-0.219591 -0.0908118 1
-0.120859 -0.0907677 1.04018
-0.17854 -0.0906888 1.00367
-0.147429 -0.0906447 1.01006
-0.0691591 -0.0905664 1.04152
-0.159367 -0.0905443 0.986324
-0.215517 -0.0905002 0.949121
-0.193071 -0.0904226 0.95269
-0.121779 -0.0903784 0.979233
-0.12271 -0.0903015 0.971116
-0.251631 -0.0902795 0.896607
-0.0991987 -0.0902353 0.963755
-0.168844 -0.0901592 0.921293
-0.111619 -0.090115 0.940864
-0.240302 -0.0900396 0.868883
-0.158235 -0.0900176 0.899913
-0.181339 -0.0899734 0.879353
-0.206799 -0.0898988 0.858994
-0.173124 -0.0898546 0.866848
-0.205406 -0.0898105 0.841735
-0.17943 -0.0897587 0.846105
-0.232717 -0.0897145 0.810512
-0.242191 -0.0896704 0.796836
-0.247553 -0.0895974 0.786544
-0.130151 -0.0895753 0.835321
-0.0946703 -0.0895311 0.844156
-0.167981 -0.0894589 0.799895
-0.141618 -0.0894148 0.804196
-0.13573 -0.0893706 0.798271
-0.173465 -0.0893485 0.769521
-0.253697 -0.0892772 0.721816
-0.186724 -0.089233 0.746466
-0.204379 -0.0891888 0.728814
-0.172992 -0.0891667 0.734659
-0.222296 -0.0890963 0.702433
-0.150817 -0.0890521 0.729381
-0.217542 -0.0890079 0.687238
-0.221474 -0.0889858 0.675456
-0.198661 -0.0889162 0.679302
-0.145772 -0.088872 0.696999
-0.233225 -0.0888278 0.644536
-0.195922 -0.0888057 0.653405
-0.13157 -0.0887371 0.678032
-0.187628 -0.0886929 0.641299
-0.19136 -0.0886487 0.63074
-0.216777 -0.0886266 0.608281
-0.123597 -0.0885823 0.646199
-0.172822 -0.0885147 0.61406
-0.191563 -0.0884705 0.59604
-0.213265 -0.0884484 0.575472
-0.262435 -0.0884041 0.542257
-0.236494 -0.0883374 0.547709
-0.172599 -0.0882932 0.571051
-0.230919 -0.0882711 0.532206
-0.182796 -0.0882268 0.547682
-0.14995 -0.0881826 0.55553
-0.156775 -0.0881383 0.543554
-0.214571 -0.0880948 0.506066
-0.225882 -0.0880505 0.491868
-0.256436 -0.0880063 0.46806
-0.16245 -0.0879833 0.505465
-0.171156 -0.0879399 0.492557
-0.280739 -0.0878956 0.429266
-0.233698 -0.087831 0.445323
-0.229656 -0.0878088 0.437746
-0.129356 -0.0877646 0.479427
-0.182255 -0.0877203 0.44452
-0.215525 -0.087676 0.419439
-0.217398 -0.0876538 0.408934
-0.175584 -0.0876095 0.421415
-0.233216 -0.087546 0.385171
-0.182356 -0.0875239 0.401057
-0.147869 -0.0874796 0.409904
-0.198928 -0.0874353 0.375991
-0.228882 -0.087391 0.352641
-0.172071 -0.0873688 0.371533
-0.191286 -0.0873245 0.353572
-0.30217 -0.0872801 0.289788
-0.324941 -0.087258 0.268911
-0.229098 -0.0871956 0.309458
-0.235337 -0.0871513 0.298028
-0.160091 -0.0871291 0.326182
-0.233359 -0.0870848 0.281257
-0.209187 -0.0870405 0.285063
-0.300195 -0.0869961 0.23129
-0.210522 -0.0869739 0.266689
-0.281225 -0.0869296 0.223087
-0.145981 -0.0868852 0.282471
-0.122161 -0.0868631 0.284966
-0.294248 -0.0868187 0.190703
-0.238782 -0.0867575 0.211134
-0.18676 -0.0867353 0.227752
-0.226833 -0.086691 0.199528
-0.176961 -0.0866466 0.216287
-0.221297 -0.0866245 0.184748
-0.184727 -0.0865801 0.194876
-0.181906 -0.0865357 0.18814
-0.257334 -0.0865136 0.141078
-0.24138 -0.0864692 0.140927
-0.289909 -0.0864248 0.108547
-0.193321 -0.0864026 0.147515
-0.161437 -0.0863582 0.155361
-0.181994 -0.0863138 0.136996
-0.205381 -0.0862859 0.116317
-0.221838 -0.0862472 0.0997044
-0.177989 -0.0862028 0.113574
-0.216526 -0.0861748 0.0853487
-0.199668 -0.0861362 0.0854165
-0.243567 -0.0860918 0.0554424
-0.192411 -0.0860696 0.07176
-0.138633 -0.0860252 0.0906439
-0.109259 -0.0859807 0.0973368
-0.149202 -0.0859585 0.0681269
-0.225751 -0.0859141 0.0218778
-0.165925 -0.0858545 0.0446905
-0.1845 -0.0858323 0.0261875
-0.266158 -0.0857878 -0.0225857
-0.0641575 -0.0800749 1.36502
-0.0257209 -0.0799235 1.37967
-0.0841669 -0.0797726 1.3459
-0.0464684 -0.0796599 1.35851
-0.0688154 -0.0795849 1.33941
-0.0481397 -0.0794732 1.34352
-0.047696 -0.0793988 1.33584
-0.104277 -0.0793247 1.29965
-0.117039 -0.0792508 1.28538
-0.0584878 -0.0791771 1.30678
-0.0534978 -0.0791038 1.30141
-0.126058 -0.0790308 1.25727
-0.162648 -0.0789581 1.23111
-0.202318 -0.0788857 1.20342
-0.0923956 -0.0788669 1.24804
-0.1651 -0.0787949 1.20385
-0.0617456 -0.0787233 1.24769
-0.208997 -0.0786522 1.16623
-0.192251 -0.0785814 1.16677
-0.0926101 -0.0785437 1.2072
-0.0927201 -0.0784734 1.19932
-0.0876577 -0.0784358 1.19249
-0.0905905 -0.0783848 1.18231
-0.259718 -0.0783471 1.0884
-0.111042 -0.0782778 1.15494
-0.106547 -0.0782089 1.14938
-0.121072 -0.0781712 1.13282
-0.156461 -0.078103 1.10733
-0.0770986 -0.0780841 1.13681
-0.109425 -0.0780164 1.11286
-0.193309 -0.0779787 1.06167
-0.177034 -0.0779115 1.06202
-0.144392 -0.0778738 1.06912
-0.118845 -0.0778072 1.07411
-0.161777 -0.0777883 1.04251
-0.141849 -0.0777506 1.04328
-0.174942 -0.0776846 1.01897
-0.179074 -0.0776469 1.00774
-0.189919 -0.0775815 0.994554
-0.18167 -0.0775627 0.988586
-0.168768 -0.0774979 0.987274
-0.179685 -0.0774602 0.972698
-0.259031 -0.0774225 0.92392
-0.165211 -0.0773584 0.963081
-0.145813 -0.0773395 0.962733
-0.212341 -0.0773018 0.920397
-0.19313 -0.0772384 0.922263
-0.103646 -0.0772006 0.957959
-0.15178 -0.0771379 0.926149
-0.148214 -0.0771191 0.917929
-0.194694 -0.0770813 0.885676
-0.175399 -0.0770193 0.887588
-0.107872 -0.0769816 0.912363
-0.19456 -0.0769438 0.860042
-0.235462 -0.0769249 0.829631
-0.161485 -0.0768636 0.858902
-0.195785 -0.0768259 0.832808
-0.138387 -0.0767654 0.853782
-0.177439 -0.0767465 0.824332
-0.218023 -0.0767087 0.795129
-0.293883 -0.0766709 0.748299
-0.185253 -0.0766112 0.794905
-0.146571 -0.0765734 0.805371
-0.167662 -0.0765545 0.784942
-0.23363 -0.0765167 0.743103
-0.175855 -0.0764577 0.764294
-0.202163 -0.0764199 0.742309
-0.221711 -0.076401 0.722684
-0.248264 -0.0763632 0.700597
-0.208759 -0.0763051 0.712664
-0.277059 -0.0762673 0.669727
-0.22662 -0.0762484 0.685129
-0.21165 -0.0762105 0.683846
-0.145935 -0.0761532 0.709029
-0.182541 -0.0761154 0.681982
-0.226624 -0.0760776 0.651208
-0.225629 -0.0760587 0.641929
-0.160297 -0.0760021 0.666928
-0.0943627 -0.0759643 0.691195
-0.300321 -0.0759265 0.579527
-0.187688 -0.0759076 0.626099
-0.152001 -0.0758697 0.635273
-0.16585 -0.0758141 0.620699
-0.150421 -0.075794 0.618759
-0.182185 -0.0757573 0.594174
-0.156523 -0.0757195 0.598379
-0.284168 -0.0756816 0.525942
-0.144139 -0.0756615 0.586339
-0.266578 -0.075608 0.517424
-0.165869 -0.0755701 0.559196
-0.103656 -0.0755323 0.58173
-0.216242 -0.0755133 0.51578
-0.11643 -0.0754755 0.557133
-0.179819 -0.0754216 0.517829
-0.178976 -0.0753837 0.509722
-0.246871 -0.0753648 0.466148
-0.225564 -0.0753269 0.468292
-0.24109 -0.0752891 0.452031
-0.240132 -0.0752512 0.444023
-0.170597 -0.0752322 0.469195
-0.174017 -0.0751793 0.459909
-0.242061 -0.0751414 0.417431
-0.296514 -0.0751225 0.380632
-0.227703 -0.0750846 0.406602
-0.151462 -0.0750467 0.436297
-0.219988 -0.0750088 0.39362
-0.286794 -0.0749899 0.350675
-0.155885 -0.074952 0.407735
-0.273866 -0.0749 0.34121
-0.176248 -0.074881 0.380501
-0.235676 -0.0748431 0.342423
-0.323599 -0.0748052 0.29011
-0.192287 -0.0747673 0.347424
-0.175455 -0.0747484 0.346353
-0.178286 -0.0747105 0.336615
-0.165012 -0.0746725 0.334942
-0.201129 -0.0746536 0.307418
-0.214814 -0.0746156 0.292284
-0.215899 -0.0745647 0.284265
-0.194519 -0.0745457 0.285513
-0.208279 -0.0745078 0.270372
-0.240752 -0.0744699 0.245886
-0.212633 -0.074432 0.251708
-0.25556 -0.074413 0.220832
-0.310691 -0.0743751 0.185048
-0.214899 -0.0743371 0.224736
-0.205672 -0.0743182 0.219959
-0.235483 -0.0742802 0.196866
-0.204012 -0.0742422 0.204424
-0.179553 -0.0742233 0.207285
-0.218078 -0.0741853 0.179865
-0.28081 -0.0741355 0.141108
-0.243213 -0.0741165 0.150561
-0.218218 -0.0740785 0.154931
-0.191207 -0.0740406 0.16032
-0.21318 -0.0740216 0.14001
-0.216098 -0.0739837 0.130455
-0.180528 -0.0739457 0.140154
-0.23562 -0.0739267 0.103306
-0.202981 -0.0738888 0.111559
-0.288378 -0.0738508 0.0608048
-0.247756 -0.0738318 0.0718361
-0.188673 -0.0737938 0.0933416
-0.198215 -0.0737558 0.0805459
-0.159736 -0.0737368 0.0905275
-0.154275 -0.0736989 0.0852523
-0.214401 -0.0736609 0.0471946
-0.118796 -0.0736419 0.0857608
-0.205476 -0.0736039 0.0344458
-0.260095 -0.0735659 -0.000828342
-0.210684 -0.0735469 0.0146631
-0.208677 -0.0735089 0.00772167
-0.0277963 -0.0669802 1.43831
-0.0249132 -0.0667437 1.44087
-0.0751591 -0.0666494 1.40937
-0.0730103 -0.0665555 1.40408
-0.0685365 -0.0664621 1.39995
-0.0877419 -0.0664 1.38234
-0.136847 -0.0663076 1.35143
-0.147357 -0.066246 1.33818
-0.100583 -0.0661847 1.35358
-0.133342 -0.0661236 1.32922
-0.0499836 -0.0661079 1.36046
-0.0628225 -0.0660471 1.34608
-0.156549 -0.0659865 1.29127
-0.107686 -0.0659262 1.30775
-0.139346 -0.0658662 1.28398
-0.0927387 -0.0658066 1.29934
-0.104475 -0.0657472 1.28553
-0.0599715 -0.0657159 1.2983
-0.139723 -0.065657 1.2505
-0.140082 -0.0655984 1.2424
-0.170446 -0.0655827 1.21689
-0.107539 -0.0655245 1.24043
-0.131304 -0.0654667 1.22063
-0.192695 -0.0654354 1.18053
-0.113227 -0.065378 1.21236
-0.126093 -0.0653467 1.19655
-0.184657 -0.0652897 1.15937
-0.170194 -0.0652741 1.15635
-0.253159 -0.0652176 1.10697
-0.167272 -0.0651616 1.14202
-0.177576 -0.0651302 1.12755
-0.116846 -0.0650747 1.15003
-0.0895846 -0.0650433 1.15437
-0.123822 -0.0650277 1.12706
-0.236815 -0.0649726 1.06268
-0.114894 -0.0649413 1.11439
-0.108367 -0.0648867 1.10978
-0.260284 -0.0648554 1.0246
-0.13951 -0.0648014 1.07711
-0.249453 -0.0647857 1.012
-0.155217 -0.0647322 1.05125
-0.111701 -0.0647009 1.06383
-0.154445 -0.0646695 1.03329
-0.100365 -0.0646166 1.05247
-0.221511 -0.0646009 0.981803
-0.164112 -0.0645695 1.00137
-0.166464 -0.0645172 0.992342
-0.19149 -0.0644858 0.97072
-0.177286 -0.0644341 0.969968
-0.145468 -0.0644184 0.97583
-0.14225 -0.064387 0.968363
-0.249317 -0.0643359 0.906983
-0.15862 -0.0643045 0.94328
-0.201178 -0.0642731 0.912961
-0.226474 -0.0642383 0.891497
-0.130543 -0.0642069 0.930445
-0.134624 -0.0641755 0.919397
-0.175878 -0.0641256 0.890934
-0.158346 -0.0640942 0.890717
-0.18801 -0.0640785 0.865924
-0.216832 -0.0640292 0.843679
-0.220516 -0.0639978 0.832887
-0.194355 -0.0639664 0.837029
-0.186691 -0.063935 0.831934
-0.204705 -0.0639021 0.814105
-0.145949 -0.0638707 0.834577
-0.202007 -0.0638393 0.797653
-0.219508 -0.0637913 0.781083
-0.0903545 -0.0637756 0.835774
-0.248091 -0.0637442 0.748044
-0.185158 -0.0637128 0.77066
-0.244988 -0.0636655 0.732934
-0.243639 -0.0636498 0.723756
-0.196109 -0.0636184 0.738703
-0.224799 -0.0635869 0.71555
-0.277201 -0.0635404 0.681547
-0.171761 -0.0635089 0.725483
-0.192035 -0.0634932 0.705534
-0.118076 -0.0634618 0.73375
-0.181474 -0.0634303 0.693298
-0.232645 -0.0633845 0.659928
-0.243597 -0.0633688 0.644673
-0.213008 -0.0633373 0.651246
-0.220808 -0.0633059 0.638636
-0.193431 -0.0632608 0.644545
-0.213913 -0.063245 0.624556
-0.251597 -0.0632136 0.597036
-0.195266 -0.0631821 0.616535
-0.156296 -0.0631506 0.627364
-0.204836 -0.0631349 0.593378
-0.229518 -0.0630906 0.573281
-0.203946 -0.0630591 0.577442
-0.168815 -0.0630276 0.586395
-0.244144 -0.0630119 0.539045
-0.162679 -0.0629804 0.571184
-0.232371 -0.0629368 0.528595
-0.240256 -0.0629174 0.515244
-0.222745 -0.0628896 0.515184
-0.175456 -0.0628581 0.530277
-0.282681 -0.0628266 0.468125
-0.206226 -0.0628071 0.496983
-0.227216 -0.0627794 0.477706
-0.194561 -0.0627366 0.48632
-0.231738 -0.0627051 0.459234
-0.100419 -0.0626893 0.515294
-0.19029 -0.0626578 0.46188
-0.241574 -0.0626263 0.427772
-0.186958 -0.0625948 0.446625
-0.195811 -0.062579 0.432628
-0.228037 -0.062537 0.40883
-0.283909 -0.0625055 0.372469
-0.177058 -0.0624898 0.416348
-0.225354 -0.0624583 0.383794
-0.195167 -0.0624268 0.390494
-0.144406 -0.0623952 0.407492
-0.133144 -0.0623795 0.403606
-0.115274 -0.0623479 0.404178
-0.270903 -0.0623068 0.318714
-0.256514 -0.062291 0.316415
-0.170531 -0.0622595 0.351074
-0.230447 -0.062228 0.312794
-0.216505 -0.0621964 0.311454
-0.214954 -0.0621807 0.302766
-0.201327 -0.0621491 0.301288
-0.197239 -0.0621176 0.295052
-0.18142 -0.0621018 0.29352
-0.312268 -0.0620703 0.219836
-0.152303 -0.0620387 0.291569
-0.157595 -0.062023 0.279503
-0.256544 -0.0619827 0.222451
-0.236335 -0.0619511 0.224336
-0.250437 -0.0619196 0.209077
-0.256069 -0.0619038 0.196873
-0.193244 -0.0618723 0.220096
-0.311625 -0.0618407 0.152728
-0.257326 -0.0618249 0.170511
-0.229341 -0.0617934 0.176345
-0.175425 -0.0617618 0.195155
-0.188189 -0.061746 0.179428
-0.197664 -0.0617145 0.166563
-0.172556 -0.0616829 0.171
-0.120419 -0.0616671 0.187746
-0.16499 -0.0616355 0.157363
-0.178399 -0.0616039 0.142571
-0.342869 -0.0615881 0.051036
-0.154885 -0.0615566 0.136961
-0.254749 -0.061525 0.0789721
-0.209956 -0.0615092 0.0920898
-0.170433 -0.06147 0.10441
-0.204194 -0.0614384 0.0795029
-0.256441 -0.0614226 0.0441226
-0.224675 -0.061391 0.0519984
-0.26414 -0.0613594 0.0242693
-0.227043 -0.0613436 0.0335829
-0.242974 -0.061312 0.0176406
-0.278358 -0.0612805 -0.00801756
-0.232271 -0.0612647 0.00581305
-0.263913 -0.0612331 -0.0179549
0.016132 -0.0535702 1.5184
-0.0266676 -0.0534947 1.4905
-0.00665068 -0.0534194 1.49401
-0.107061 -0.0533445 1.43733
-0.0760622 -0.05327 1.44635
-0.0647802 -0.0532205 1.44389
-0.0627005 -0.0531711 1.43685
-0.0925391 -0.0530977 1.41546
-0.0961084 -0.0530489 1.4056
-0.154303 -0.0530002 1.36844
-0.150142 -0.0529518 1.36246
-0.109763 -0.0529035 1.37459
-0.173068 -0.0528556 1.33489
-0.154583 -0.0528078 1.33608
-0.0229939 -0.0527829 1.3923
-0.0443334 -0.0527354 1.3736
-0.116089 -0.0527007 1.32884
-0.192275 -0.0526757 1.28121
-0.094864 -0.0526288 1.3219
-0.145456 -0.0525823 1.28858
-0.13466 -0.0525573 1.28449
-0.12302 -0.052511 1.2823
-0.0728919 -0.0524651 1.29936
-0.146923 -0.0524401 1.25289
-0.0603922 -0.052407 1.28728
-0.142444 -0.052382 1.23682
-0.179453 -0.0523368 1.21032
-0.146269 -0.052292 1.21892
-0.169056 -0.052267 1.19813
-0.225261 -0.0522225 1.16204
-0.133823 -0.0521975 1.1984
-0.12136 -0.0521659 1.19574
-0.167258 -0.0521409 1.16345
-0.147522 -0.0520973 1.16534
-0.147689 -0.0520722 1.15594
-0.193417 -0.052029 1.12509
-0.15795 -0.052004 1.13354
-0.115913 -0.0519915 1.14436
-0.170543 -0.0519486 1.10908
-0.157205 -0.0519236 1.10649
-0.157839 -0.0518812 1.09821
-0.220928 -0.0518562 1.05743
-0.183726 -0.0518268 1.06714
-0.177958 -0.0518018 1.06081
-0.24377 -0.0517767 1.01871
-0.216413 -0.0517353 1.02443
-0.211811 -0.0517102 1.01756
-0.231626 -0.0516693 0.999684
-0.172958 -0.0516567 1.01893
-0.160379 -0.0516317 1.01608
-0.263275 -0.0515912 0.956671
-0.189658 -0.0515662 0.984365
-0.176971 -0.0515411 0.981606
-0.182168 -0.0515136 0.9701
-0.248969 -0.0514886 0.927617
-0.20531 -0.0514635 0.940376
-0.247603 -0.051424 0.911283
-0.197315 -0.051399 0.927381
-0.24182 -0.0513865 0.895123
-0.189825 -0.0513475 0.913174
-0.23041 -0.0513224 0.883869
-0.160825 -0.0512974 0.90966
-0.125183 -0.0512589 0.919538
-0.214225 -0.0512464 0.865054
-0.226097 -0.0512213 0.850148
-0.171439 -0.0511962 0.868519
-0.192663 -0.0511583 0.849975
-0.21614 -0.0511458 0.828306
-0.152768 -0.0511207 0.851067
-0.215397 -0.0510834 0.811818
-0.27295 -0.0510583 0.774139
-0.186806 -0.0510332 0.80832
-0.21871 -0.0510207 0.782479
-0.28283 -0.0509839 0.742492
-0.206523 -0.0509588 0.771787
-0.128932 -0.0509337 0.801735
-0.180545 -0.0509086 0.767092
-0.258985 -0.0508849 0.718931
-0.150862 -0.0508599 0.764176
-0.196918 -0.0508348 0.732344
-0.20568 -0.0508097 0.71917
-0.216001 -0.0507971 0.704192
-0.161638 -0.0507615 0.72347
-0.267216 -0.0507364 0.661919
-0.179377 -0.0507113 0.697088
-0.21091 -0.0506987 0.671536
-0.18466 -0.0506637 0.67676
-0.238144 -0.0506386 0.641299
-0.177112 -0.0506134 0.663107
-0.22495 -0.0506009 0.629434
-0.201458 -0.0505758 0.632492
-0.182018 -0.0505413 0.634324
-0.237283 -0.0505162 0.598026
-0.26451 -0.0505037 0.57469
-0.175866 -0.0504785 0.610366
-0.215443 -0.0504534 0.581943
-0.163599 -0.0504196 0.599987
-0.214095 -0.050407 0.565048
-0.198942 -0.0503819 0.564021
-0.204223 -0.0503568 0.552788
-0.175953 -0.0503316 0.558342
-0.275352 -0.0503191 0.498983
-0.202644 -0.0502939 0.526775
-0.184845 -0.0502608 0.527824
-0.245573 -0.0502356 0.488921
-0.176074 -0.0502231 0.514041
-0.237141 -0.0501979 0.474988
-0.165277 -0.0501728 0.502412
-0.262208 -0.0501476 0.445449
-0.258455 -0.0501276 0.438381
-0.196155 -0.0501025 0.461052
-0.271628 -0.0500774 0.414849
-0.154436 -0.0500648 0.46387
-0.197022 -0.0500396 0.434129
-0.239569 -0.0500145 0.404419
-0.277041 -0.0499893 0.377259
-0.282766 -0.0499767 0.36485
-0.225177 -0.0499449 0.385843
-0.169276 -0.0499197 0.405399
-0.26227 -0.0499071 0.349379
-0.237115 -0.049882 0.353581
-0.194227 -0.0498568 0.366661
-0.265479 -0.0498316 0.322682
-0.245953 -0.0498191 0.322953
-0.156841 -0.0497939 0.359175
-0.252175 -0.0497687 0.303185
-0.249365 -0.0497561 0.29512
-0.220691 -0.049725 0.301705
-0.179769 -0.0496998 0.313873
-0.217862 -0.0496746 0.286545
-0.244448 -0.049662 0.263812
-0.208711 -0.0496368 0.273419
-0.238348 -0.0496117 0.250349
-0.236779 -0.0495991 0.241716
-0.122897 -0.0495739 0.290425
-0.165525 -0.0495487 0.26089
-0.202871 -0.0495361 0.232821
-0.216883 -0.0495109 0.217614
-0.326578 -0.0494857 0.154577
-0.211363 -0.0494605 0.204005
-0.216082 -0.0494479 0.192279
-0.312226 -0.0494175 0.136541
-0.161231 -0.0493923 0.203889
-0.319597 -0.0493797 0.115362
-0.255887 -0.0493545 0.139087
-0.262274 -0.0493293 0.127774
-0.23753 -0.0493167 0.130824
-0.176655 -0.0492915 0.153161
-0.252407 -0.0492663 0.107197
-0.223542 -0.0492537 0.112329
-0.177864 -0.0492285 0.127099
-0.227292 -0.0492033 0.0943257
-0.267685 -0.0491907 0.0648509
-0.227402 -0.0491655 0.0769531
-0.299768 -0.0491402 0.0327415
-0.301228 -0.0491276 0.0227553
-0.259287 -0.0491024 0.0357165
-0.224179 -0.0490772 0.0452726
-0.256016 -0.0490646 0.0201192
-0.278601 -0.0490393 0.000847842
-0.203873 -0.0490141 0.0302441
-0.247143 -0.0490015 -0.000603641
-0.188502 -0.0489763 0.0207681
0.0307852 -0.0403468 1.57998
-0.0730645 -0.0402521 1.52465
-0.0561344 -0.0401956 1.52649
0.00429581 -0.0401393 1.55011
-0.0683225 -0.0400554 1.50961
-0.116272 -0.0400182 1.47744
-0.0345074 -0.0399812 1.51015
-0.147454 -0.0399262 1.44708
-0.129095 -0.0398895 1.44809
-0.0885469 -0.0398802 1.45783
-0.131332 -0.0398437 1.42829
-0.0997714 -0.0398074 1.43593
-0.0689992 -0.0397712 1.44318
-0.152906 -0.0397352 1.3931
-0.161405 -0.0396994 1.38073
-0.0720044 -0.0396638 1.4173
-0.108586 -0.0396285 1.39089
-0.118562 -0.0395933 1.37778
-0.103293 -0.0395746 1.37583
-0.177592 -0.0395397 1.33057
-0.146741 -0.039505 1.33789
-0.0839545 -0.0394956 1.35889
-0.118805 -0.0394612 1.33336
-0.19248 -0.039427 1.28843
-0.0642161 -0.0394083 1.34305
-0.178267 -0.0393743 1.27793
-0.195753 -0.0393407 1.26109
-0.206492 -0.039322 1.24625
-0.118381 -0.0393033 1.28085
-0.164199 -0.0392793 1.249
-0.15958 -0.0392462 1.24322
-0.202628 -0.0392275 1.21228
-0.197462 -0.0391947 1.20678
-0.167294 -0.039176 1.21247
-0.2414 -0.0391435 1.16734
-0.131149 -0.0391342 1.21221
-0.217374 -0.039102 1.16102
-0.213925 -0.0390833 1.1534
-0.207208 -0.0390515 1.14868
-0.230531 -0.0390328 1.1277
-0.166095 -0.0390013 1.15184
-0.228381 -0.0389919 1.1105
-0.141633 -0.0389732 1.14458
-0.170194 -0.0389421 1.12224
-0.221191 -0.0389234 1.08748
-0.083135 -0.0388926 1.14844
-0.227283 -0.0388739 1.06713
-0.271741 -0.0388645 1.03475
-0.19168 -0.0388341 1.06672
-0.179665 -0.0388153 1.06352
-0.222338 -0.0387853 1.03412
-0.145231 -0.0387666 1.0635
-0.19671 -0.0387478 1.02859
-0.181465 -0.0387275 1.02721
-0.142132 -0.0387088 1.03774
-0.194916 -0.03869 1.00221
-0.245609 -0.0386607 0.968807
-0.192224 -0.038642 0.98639
-0.142232 -0.0386326 1.00133
-0.157701 -0.0386037 0.985544
-0.123685 -0.038585 0.993476
-0.183307 -0.0385662 0.954599
-0.236933 -0.0385377 0.919732
-0.308769 -0.0385284 0.873806
-0.156079 -0.0385096 0.941119
-0.100455 -0.0384815 0.960876
-0.104198 -0.0384628 0.949995
-0.245215 -0.038444 0.870488
-0.173177 -0.0384346 0.89654
-0.194897 -0.038407 0.877634
-0.225358 -0.0383882 0.853438
-0.26407 -0.0383694 0.825128
-0.202976 -0.0383507 0.846731
-0.167405 -0.0383328 0.855487
-0.20158 -0.038314 0.829477
-0.171138 -0.0382953 0.835787
-0.242433 -0.0382684 0.792097
-0.149454 -0.0382591 0.828694
-0.210395 -0.0382403 0.789344
-0.18702 -0.0382215 0.792163
-0.278803 -0.0381951 0.738234
-0.244067 -0.0381839 0.745936
-0.271952 -0.038167 0.722961
-0.203969 -0.0381482 0.748127
-0.243918 -0.0381222 0.720119
-0.140764 -0.0381035 0.762892
-0.155373 -0.0380941 0.745767
-0.190975 -0.0380753 0.719183
-0.240468 -0.0380565 0.685664
-0.233454 -0.038031 0.681149
-0.171632 -0.0380216 0.702271
-0.145513 -0.0380028 0.706589
-0.108945 -0.037984 0.716144
-0.135752 -0.0379652 0.694022
-0.177631 -0.0379496 0.66402
-0.268556 -0.0379308 0.609858
-0.27664 -0.037912 0.597129
-0.260763 -0.0378932 0.596391
-0.250007 -0.0378806 0.592407
-0.221618 -0.0378593 0.59823
-0.149539 -0.0378405 0.625624
-0.265855 -0.0378217 0.558832
-0.281629 -0.0378086 0.54167
-0.256205 -0.0377935 0.545345
-0.258991 -0.0377747 0.535348
-0.203625 -0.0377506 0.555044
-0.132546 -0.0377412 0.580917
-0.190728 -0.0377224 0.543254
-0.198377 -0.0377036 0.530867
-0.262539 -0.0376847 0.490235
-0.208174 -0.0376753 0.507782
-0.205547 -0.0376517 0.501121
-0.230272 -0.0376329 0.480238
-0.202187 -0.0376141 0.485771
-0.232643 -0.0376047 0.460938
-0.264229 -0.0375859 0.436655
-0.212471 -0.0375671 0.454055
-0.128979 -0.0375482 0.487334
-0.175735 -0.0375388 0.454381
-0.23299 -0.0375157 0.417811
-0.288504 -0.0374969 0.381616
-0.305135 -0.0374869 0.363815
-0.186918 -0.0374687 0.414439
-0.200329 -0.0374498 0.399326
-0.0848328 -0.037431 0.448678
-0.214111 -0.0374216 0.374517
-0.182447 -0.0374028 0.381972
-0.198331 -0.0373802 0.366116
-0.207163 -0.0373651 0.352895
-0.23985 -0.0373519 0.32751
-0.159501 -0.0373331 0.359349
-0.260701 -0.0373143 0.300424
-0.276696 -0.0373048 0.282957
-0.306699 -0.037286 0.25965
-0.235368 -0.0372672 0.287022
-0.227332 -0.0372519 0.282309
-0.182701 -0.0372389 0.295632
-0.239637 -0.03722 0.2589
-0.229959 -0.0372012 0.255487
-0.202757 -0.0371886 0.260062
-0.28481 -0.0371697 0.210802
-0.219947 -0.0371509 0.23501
-0.162124 -0.0371415 0.254525
-0.299056 -0.0371226 0.177855
-0.216073 -0.0371038 0.211154
-0.260228 -0.0370915 0.180066
-0.168228 -0.0370755 0.217528
-0.204618 -0.0370566 0.191171
-0.26109 -0.0370378 0.154783
-0.240695 -0.0370283 0.155637
-0.1028 -0.0370095 0.216452
-0.207609 -0.0369906 0.155926
-0.18665 -0.0369812 0.157084
-0.305704 -0.0369623 0.0894544
-0.195212 -0.0369434 0.136609
-0.185019 -0.036934 0.132406
-0.294786 -0.0369151 0.0694504
-0.22466 -0.0368962 0.0964523
-0.222895 -0.0368868 0.0880566
-0.222142 -0.0368679 0.0803914
-0.272831 -0.0368466 0.0473364
-0.212419 -0.0368371 0.0682854
-0.294126 -0.0368183 0.0194191
-0.229079 -0.0367994 0.0439407
-0.190519 -0.0367899 0.0539857
-0.178592 -0.0367711 0.0519663
-0.117655 -0.0367522 0.0744634
-0.150273 -0.0367428 0.0489407
-0.186466 -0.0367239 0.0228915
0.0396784 -0.0269473 1.63566
-0.0932137 -0.0268969 1.56405
-0.0998679 -0.0268279 1.55796
-0.129336 -0.0267905 1.53651
-0.0270574 -0.0267657 1.57936
-0.084177 -0.0267287 1.5441
-0.07366 -0.0267041 1.54109
0.00140815 -0.0266796 1.57037
-0.0847928 -0.0266552 1.51902
-0.227725 -0.0266309 1.43932
-0.199543 -0.0266067 1.44518
-0.0584937 -0.0265826 1.50747
-0.066823 -0.0265586 1.49509
-0.119778 -0.0265347 1.4604
-0.150438 -0.0265172 1.43604
-0.0758317 -0.0264936 1.46513
-0.16529 -0.0264812 1.41073
-0.137384 -0.0264578 1.41648
-0.163942 -0.0264345 1.39501
-0.145312 -0.0264113 1.39612
-0.20495 -0.0263884 1.3581
-0.203159 -0.0263759 1.3494
-0.187384 -0.0263531 1.3491
-0.098054 -0.0263305 1.38557
-0.163062 -0.0263243 1.34266
-0.0947125 -0.0263018 1.36865
-0.147039 -0.0262894 1.33295
-0.111756 -0.0262671 1.34242
-0.142644 -0.0262547 1.31746
-0.122799 -0.0262326 1.31921
-0.148014 -0.0262108 1.29843
-0.147077 -0.0261983 1.28943
-0.154596 -0.0261921 1.27534
-0.249664 -0.0261705 1.21965
-0.15971 -0.026149 1.25645
-0.256257 -0.0261366 1.19875
-0.232835 -0.0261153 1.20229
-0.164128 -0.0261029 1.22725
-0.156991 -0.0260904 1.22144
-0.178037 -0.0260757 1.20187
-0.184057 -0.0260632 1.1895
-0.225944 -0.0260424 1.16039
-0.266034 -0.02603 1.13101
-0.147028 -0.0260094 1.18235
-0.153458 -0.025997 1.16983
-0.181052 -0.0259829 1.14696
-0.207712 -0.0259704 1.12434
-0.164145 -0.025958 1.13685
-0.187821 -0.0259379 1.11685
-0.21287 -0.0259255 1.09507
-0.247659 -0.0259119 1.0686
-0.195594 -0.0258994 1.0854
-0.174518 -0.025887 1.08672
-0.134998 -0.0258674 1.09832
-0.207456 -0.0258549 1.05289
-0.193488 -0.0258356 1.05171
-0.21702 -0.0258294 1.02984
-0.21161 -0.025817 1.02338
-0.218679 -0.0257979 1.01168
-0.265795 -0.0257854 0.97898
-0.201489 -0.025773 1.002
-0.242771 -0.0257605 0.972246
-0.133774 -0.025748 1.01765
-0.120524 -0.0257355 1.01517
-0.229508 -0.025717 0.952516
-0.246182 -0.0257045 0.935107
-0.126372 -0.0256981 0.985027
-0.234465 -0.0256858 0.921891
-0.17625 -0.0256676 0.942843
-0.210518 -0.0256551 0.916679
-0.194773 -0.0256427 0.915533
-0.190319 -0.0256302 0.908753
-0.267964 -0.0256185 0.860809
-0.174559 -0.025606 0.898525
-0.221484 -0.0255935 0.866087
-0.230153 -0.0255759 0.8536
-0.15564 -0.0255686 0.881091
-0.229324 -0.0255572 0.835132
-0.269917 -0.0255398 0.806676
-0.203801 -0.0255273 0.830814
-0.166084 -0.0255148 0.840762
-0.260494 -0.0255086 0.783659
-0.155302 -0.0254915 0.828098
-0.171608 -0.0254791 0.811067
-0.24033 -0.0254666 0.767839
-0.186812 -0.0254586 0.785008
-0.183746 -0.0254478 0.777417
-0.256591 -0.0254311 0.73285
-0.246298 -0.0254186 0.729172
-0.208696 -0.0254061 0.739159
-0.222026 -0.0253998 0.722667
-0.237252 -0.0253834 0.706909
-0.234651 -0.0253709 0.699427
-0.190628 -0.0253584 0.712667
-0.156126 -0.0253521 0.720122
-0.243137 -0.0253396 0.667864
-0.25763 -0.0253235 0.652482
-0.213036 -0.025311 0.666049
-0.203468 -0.0253021 0.66151
-0.221966 -0.0252923 0.643109
-0.19013 -0.0252797 0.650328
-0.274542 -0.0252639 0.599993
-0.22868 -0.0252547 0.613689
-0.198592 -0.0252452 0.619565
-0.18388 -0.0252327 0.618264
-0.254071 -0.0252202 0.574522
-0.208836 -0.0252076 0.588505
-0.186882 -0.0251984 0.590297
-0.224449 -0.0251859 0.562898
-0.26065 -0.0251734 0.536193
-0.139997 -0.0251638 0.587416
-0.168236 -0.0251546 0.564141
-0.184758 -0.0251421 0.547306
-0.229699 -0.0251269 0.516733
-0.169155 -0.025117 0.537993
-0.293618 -0.0251081 0.466587
-0.214605 -0.0250956 0.49756
-0.216676 -0.0250831 0.488003
-0.305103 -0.0250732 0.434821
-0.186375 -0.0250643 0.485039
-0.253569 -0.0250495 0.443359
-0.234196 -0.025037 0.444564
-0.166455 -0.0250307 0.468852
-0.170263 -0.0250182 0.458487
-0.248552 -0.0250057 0.410892
-0.0739062 -0.0249931 0.489776
-0.29353 -0.0249869 0.370412
-0.186014 -0.0249743 0.415749
-0.281584 -0.0249599 0.359909
-0.222458 -0.0249493 0.380721
-0.219438 -0.0249411 0.373061
-0.17864 -0.0249285 0.38508
-0.222316 -0.024916 0.354874
-0.194415 -0.0249097 0.359325
-0.147971 -0.0248972 0.374198
-0.16173 -0.0248847 0.35898
-0.177865 -0.0248721 0.342586
-0.263717 -0.0248659 0.29019
-0.249184 -0.0248517 0.289442
-0.266334 -0.0248392 0.27257
-0.24476 -0.0248329 0.273908
-0.203937 -0.0248204 0.286041
-0.214967 -0.0248079 0.272259
-0.268853 -0.0247969 0.236772
-0.19376 -0.024789 0.265188
-0.28194 -0.0247765 0.212862
-0.242446 -0.024764 0.224382
-0.156908 -0.0247577 0.257755
-0.128418 -0.0247451 0.263794
-0.241371 -0.0247326 0.199122
-0.175321 -0.0247263 0.222772
-0.225488 -0.0247138 0.189512
-0.250065 -0.0247 0.169283
-0.190468 -0.0246901 0.190426
-0.221764 -0.0246812 0.165933
-0.253439 -0.0246687 0.141959
-0.154788 -0.0246561 0.183159
-0.24425 -0.0246498 0.129105
-0.148416 -0.0246373 0.168916
-0.227406 -0.0246247 0.121325
-0.184079 -0.0246185 0.133687
-0.160367 -0.0246059 0.137467
-0.178578 -0.0245934 0.120296
-0.189898 -0.0245871 0.105357
-0.282165 -0.0245745 0.0511775
-0.267807 -0.024562 0.0503213
-0.292075 -0.0245557 0.0289296
-0.209774 -0.0245431 0.0620642
-0.19186 -0.0245306 0.0630165
-0.250719 -0.0245243 0.0243509
-0.20527 -0.0245117 0.0390893
-0.172677 -0.0244992 0.047411
-0.1819 -0.0244929 0.033585
-0.221968 -0.0244803 0.0055955
-0.0456621 -0.0135047 1.64289
-0.0689624 -0.0134637 1.62984
-0.0555275 -0.013445 1.62972
-0.10083 -0.0134263 1.60025
-0.111419 -0.0134139 1.58659
-0.0514241 -0.0133954 1.60977
-0.10203 -0.0133831 1.57612
-0.141825 -0.0133648 1.54941
-0.0468213 -0.0133527 1.58858
-0.169424 -0.0133406 1.51895
-0.122284 -0.0133285 1.5342
-0.0886053 -0.0133165 1.54273
-0.137794 -0.0133046 1.50982
-0.161044 -0.0132927 1.48989
-0.143489 -0.0132809 1.49037
-0.102738 -0.0132747 1.501
-0.183799 -0.013263 1.45219
-0.0923696 -0.0132514 1.48962
-0.0659152 -0.0132483 1.49234
-0.186771 -0.0132367 1.42363
-0.128168 -0.0132252 1.44466
-0.159203 -0.0132138 1.42086
-0.180321 -0.0132076 1.40066
-0.177949 -0.0131963 1.39358
-0.162197 -0.0131851 1.39319
-0.129369 -0.0131789 1.4
-0.152345 -0.0131677 1.38025
-0.156121 -0.0131615 1.36879
-0.125788 -0.0131536 1.37486
-0.165746 -0.0131427 1.34661
-0.200855 -0.0131364 1.31952
-0.134081 -0.0131256 1.34465
-0.140334 -0.0131194 1.33201
-0.181214 -0.0131087 1.30331
-0.189252 -0.0130981 1.29103
-0.174574 -0.013095 1.28804
-0.276127 -0.0130887 1.2278
-0.21666 -0.0130782 1.24927
-0.211328 -0.013072 1.2425
-0.197787 -0.0130616 1.24102
-0.206631 -0.0130554 1.22718
-0.229781 -0.0130451 1.20735
-0.203816 -0.013042 1.21007
-0.139132 -0.0130319 1.23415
-0.189213 -0.0130257 1.19975
-0.152445 -0.0130156 1.20987
-0.229801 -0.0130094 1.16185
-0.175868 -0.0130032 1.17948
-0.122492 -0.0129964 1.19702
-0.103505 -0.0129902 1.19721
-0.18798 -0.0129804 1.14671
-0.215276 -0.0129742 1.12378
-0.197309 -0.0129679 1.12349
-0.227866 -0.0129583 1.09995
-0.218364 -0.0129552 1.09454
-0.229468 -0.0129489 1.07975
-0.162964 -0.0129394 1.10475
-0.135734 -0.0129332 1.10915
-0.104357 -0.0129238 1.11658
-0.213318 -0.0129207 1.05198
-0.156155 -0.0129145 1.07138
-0.182301 -0.0129052 1.05004
-0.220259 -0.012899 1.0219
-0.236927 -0.0128928 1.00442
-0.215275 -0.0128836 1.00698
-0.242508 -0.0128805 0.983299
-0.251606 -0.0128743 0.969633
-0.177163 -0.0128653 0.998589
-0.224796 -0.0128591 0.96568
-0.198007 -0.0128529 0.969991
-0.191474 -0.0128494 0.963343
-0.199547 -0.0128409 0.950938
-0.299986 -0.0128347 0.891668
-0.229845 -0.0128285 0.917699
-0.248438 -0.0128198 0.900141
-0.228098 -0.0128167 0.900326
-0.2222 -0.0128104 0.894267
-0.207654 -0.0128019 0.893271
-0.240903 -0.0127956 0.867662
-0.224609 -0.0127894 0.866835
-0.209968 -0.0127863 0.864211
-0.171657 -0.0127779 0.875101
-0.186631 -0.0127717 0.858671
-0.186474 -0.0127654 0.849818
-0.238376 -0.0127592 0.814947
-0.22675 -0.0127541 0.811502
-0.230528 -0.0127478 0.800712
-0.186216 -0.0127416 0.813979
-0.168141 -0.0127354 0.814139
-0.260132 -0.0127304 0.758874
-0.20714 -0.0127242 0.776511
-0.249846 -0.0127179 0.746311
-0.254937 -0.0127117 0.73493
-0.241196 -0.0127055 0.732975
-0.199726 -0.0127006 0.744436
-0.247926 -0.0126944 0.711531
-0.197205 -0.0126882 0.728097
-0.241379 -0.0126819 0.697227
-0.251601 -0.0126772 0.682827
-0.227525 -0.012671 0.686101
-0.217808 -0.0126648 0.682207
-0.171186 -0.0126585 0.696776
-0.250725 -0.0126538 0.647764
-0.169583 -0.0126478 0.67955
-0.286872 -0.0126415 0.612194
-0.162189 -0.0126353 0.665836
-0.2034 -0.0126291 0.636542
-0.17302 -0.0126259 0.641998
-0.192266 -0.0126185 0.624123
-0.254704 -0.0126122 0.584245
-0.189606 -0.012606 0.608146
-0.190109 -0.0126029 0.598192
-0.304141 -0.0125966 0.532547
-0.215095 -0.0125904 0.568453
-0.231872 -0.0125841 0.551458
-0.218994 -0.01258 0.54859
-0.21958 -0.0125737 0.53971
-0.210048 -0.0125675 0.535899
-0.164117 -0.0125612 0.5503
-0.25438 -0.0125581 0.495525
-0.218226 -0.0125519 0.505057
-0.205488 -0.0125447 0.503203
-0.312833 -0.0125394 0.440695
-0.228076 -0.0125354 0.473771
-0.172675 -0.0125291 0.492967
-0.233039 -0.0125229 0.454291
-0.253342 -0.0125175 0.435349
-0.253348 -0.0125135 0.426071
-0.217701 -0.0125065 0.435687
-0.188834 -0.0125003 0.441666
-0.232459 -0.0124956 0.410854
-0.217503 -0.0124909 0.409336
-0.22696 -0.0124846 0.396185
-0.187528 -0.0124784 0.407488
-0.198543 -0.0124753 0.39245
-0.226428 -0.012469 0.370115
-0.161826 -0.0124628 0.394034
-0.235063 -0.0124565 0.349045
-0.205626 -0.0124528 0.354457
-0.265633 -0.0124466 0.3161
-0.124359 -0.0124403 0.378396
-0.180203 -0.0124372 0.340994
-0.194144 -0.012431 0.325701
-0.194103 -0.0124247 0.31741
-0.284842 -0.0124184 0.263741
-0.285525 -0.0124153 0.25395
-0.217326 -0.0124091 0.279768
-0.253431 -0.0124028 0.253446
-0.234112 -0.0123997 0.253678
-0.167184 -0.0123931 0.279018
-0.294469 -0.0123868 0.207135
-0.270327 -0.0123809 0.210851
-0.226215 -0.0123774 0.223633
-0.238823 -0.0123712 0.209118
-0.23328 -0.0123649 0.203689
-0.217568 -0.0123618 0.202169
-0.276278 -0.0123555 0.164633
-0.275127 -0.0123493 0.157039
-0.20153 -0.0123461 0.184482
-0.293644 -0.0123399 0.130274
-0.330347 -0.0123336 0.103783
-0.232635 -0.0123273 0.14451
-0.156716 -0.0123242 0.173145
-0.232241 -0.0123179 0.127273
-0.278149 -0.0123117 0.0962204
-0.21929 -0.0123085 0.116347
-0.134733 -0.0123023 0.150546
-0.211653 -0.012296 0.104018
-0.217318 -0.0122929 0.0919039
-0.23271 -0.0122866 0.0761586
-0.182863 -0.0122803 0.0930437
-0.223485 -0.0122772 0.063473
-0.183643 -0.0122709 0.0753747
-0.203346 -0.0122647 0.0575149
-0.24377 -0.0122615 0.0280653
-0.159471 -0.0122553 0.0622255
-0.225175 -0.012249 0.0213948
-0.172621 -0.0122459 0.0384562
-0.279698 -0.0122396 -0.0230419
-0.037449 0 1.69718
-0.0767452 0 1.67594
-0.112284 0 1.65122
0.0110737 0 1.70597
-0.104449 0 1.63976
-0.0103645 0 1.67989
-0.0429611 0 1.65516
-0.0356888 0 1.65188
-0.0990195 0 1.6118
-0.182868 0 1.56147
-0.215979 0 1.53652
-0.126531 0 1.57285
-0.114433 0 1.57051
-0.0924835 0 1.5731
-0.0247776 0 1.59857
-0.179187 0 1.51299
-0.109667 0 1.53937
-0.167369 0 1.50076
-0.119196 0 1.51648
-0.160377 0 1.48753
-0.119962 0 1.49937
-0.18059 0 1.45855
-0.153095 0 1.46394
-0.202482 0 1.43089
-0.156662 0 1.44413
-0.254231 0 1.38699
-0.167275 0 1.42211
-0.141323 0 1.42546
-0.120554 0 1.4275
-0.138062 0 1.40914
-0.182747 0 1.37762
-0.151281 0 1.38378
-0.176402 0 1.36287
-0.140292 0 1.37258
-0.109899 0 1.37823
-0.194256 0 1.32771
-0.206926 0 1.31186
-0.178286 0 1.31783
-0.147925 0 1.32267
-0.20118 0 1.28769
-0.131242 0 1.31319
-0.177024 0 1.28195
-0.192053 0 1.26499
-0.187931 0 1.2587
-0.180944 0 1.25277
-0.186946 0 1.2395
-0.155149 0 1.24705
-0.211268 0 1.2096
-0.199522 0 1.20713
-0.269287 0 1.16288
-0.162803 0 1.20777
-0.167674 0 1.19511
-0.176783 0 1.18123
-0.179078 0 1.17173
-0.188147 0 1.15789
-0.26611 0 1.11054
-0.17378 0 1.14743
-0.191406 0 1.12844
-0.205783 0 1.1129
-0.2415 0 1.08579
-0.19903 0 1.09779
-0.245318 0 1.06629
-0.168619 0 1.09542
-0.175433 0 1.08194
-0.153832 0 1.08433
-0.272928 0 1.0156
-0.241351 0 1.02222
-0.229027 0 1.02002
-0.261206 0 0.99399
-0.250894 0 0.989872
-0.287973 0 0.962966
-0.230889 0 0.982393
-0.183737 0 0.996865
-0.13955 0 1.00987
-0.158397 0 0.991135
-0.213202 0 0.95466
-0.204778 0 0.950495
-0.243446 0 0.922111
-0.25874 0 0.904743
-0.199852 0 0.92488
-0.187054 0 0.922904
-0.216455 0 0.899197
-0.30202 0 0.847418
-0.122914 0 0.927987
-0.17296 0 0.893616
-0.255196 0 0.843533
-0.151368 0 0.886493
-0.226975 0 0.840306
-0.240125 0 0.823812
-0.235602 0 0.81715
-0.107146 0 0.872467
-0.174666 0 0.830322
-0.230867 0 0.793331
-0.235607 0 0.781082
-0.225088 0 0.777471
-0.171685 0 0.795314
-0.190385 0 0.777586
-0.185538 0 0.770703
-0.232475 0 0.737863
-0.226561 0 0.732003
-0.197763 0 0.738018
-0.250809 0 0.7027
-0.166852 0 0.735004
-0.197301 0 0.710867
-0.222244 0 0.689631
-0.166563 0 0.709092
-0.240499 0 0.662587
-0.27529 0 0.636214
-0.248621 0 0.640824
-0.33153 0 0.590657
-0.25418 0 0.620631
-0.260088 0 0.608258
-0.248651 0 0.605294
-0.189713 0 0.626091
-0.246273 0 0.58915
-0.20167 0 0.60174
-0.28349 0 0.552461
-0.194823 0 0.588163
-0.189853 0 0.582028
-0.18252 0 0.576013
-0.203148 0 0.557098
-0.179358 0 0.560404
-0.184167 0 0.549637
-0.206122 0 0.529008
-0.210105 0 0.518456
-0.176204 0 0.526858
-0.238049 0 0.487397
-0.191148 0 0.501226
-0.106517 0 0.535023
-0.266268 0 0.446798
-0.225597 0 0.458636
-0.166332 0 0.478677
-0.197343 0 0.454692
-0.190445 0 0.449674
-0.282057 0 0.395411
-0.178506 0 0.437625
-0.24009 0 0.398396
-0.224848 0 0.397591
-0.218534 0 0.392185
-0.260868 0 0.361729
-0.240899 0 0.363317
-0.21174 0 0.36951
-0.287012 0 0.322363
-0.258308 0 0.328348
-0.218149 0 0.340072
-0.238176 0 0.321713
-0.160728 0 0.350956
-0.162788 0 0.341601
-0.259173 0 0.285123
-0.274157 0 0.268171
-0.183509 0 0.305198
-0.136364 0 0.320484
-0.270785 0 0.244998
-0.148867 0 0.296528
-0.263004 0 0.231203
-0.253245 0 0.227838
-0.18304 0 0.253532
-0.153408 0 0.260122
-0.238256 0 0.209483
-0.20359 0 0.218613
-0.18009 0 0.220984
-0.257284 0 0.174203
-0.211782 0 0.18878
-0.332891 0 0.118869
-0.215198 0 0.169561
-0.223322 0 0.157355
-0.198668 0 0.160347
-0.261692 0 0.120712
-0.19095 0 0.147971
-0.220235 0 0.125228
-0.206955 0 0.122564
-0.169663 0 0.133129
-0.257246 0 0.081267
-0.257473 0 0.0718714
-0.336873 0 0.0241201
-0.193892 0 0.0875704
-0.220803 0 0.0648544
-0.233986 0 0.0502415
-0.273842 0 0.0223033
-0.24147 0 0.0292507
-0.246439 0 0.0187747
-0.227983 0 0.0200225
-0.265964 0 -0.00818507
-0.249053 0 -0.00769092
-0.0546852 0.0135728 1.73752
-0.0581162 0.0135318 1.73401
-0.067388 0.0135067 1.72383
-0.115213 0.013488 1.69288
-0.0229324 0.0134756 1.73049
-0.119111 0.0134571 1.67538
-0.0335089 0.0134449 1.70967
-0.124525 0.0134266 1.65714
-0.123042 0.0134144 1.64939
-0.138832 0.0134023 1.63302
-0.151968 0.0133903 1.61797
-0.15223 0.0133783 1.60937
-0.054091 0.0133664 1.64997
-0.100288 0.0133545 1.61841
-0.0155248 0.0133427 1.65234
-0.171481 0.013331 1.5659
-0.072516 0.0133194 1.60693
-0.177288 0.0133078 1.5461
-0.168722 0.0132963 1.54192
-0.209585 0.0132902 1.5117
-0.204123 0.0132787 1.50599
-0.191698 0.0132674 1.50377
-0.168829 0.0132562 1.50675
-0.164028 0.01325 1.49942
-0.0885301 0.013242 1.52793
-0.165974 0.0132358 1.4795
-0.15276 0.0132247 1.47768
-0.129766 0.0132138 1.48074
-0.176468 0.0132076 1.44772
-0.262001 0.0131968 1.39652
-0.196384 0.013186 1.42089
-0.160702 0.0131799 1.4291
-0.135686 0.0131692 1.43318
-0.201622 0.0131661 1.38978
-0.266136 0.0131556 1.34909
-0.233429 0.0131494 1.35586
-0.143623 0.013139 1.39234
-0.183224 0.0131328 1.36298
-0.227334 0.0131225 1.33249
-0.116283 0.0131164 1.37849
-0.155275 0.0131093 1.34972
-0.184296 0.0131031 1.3257
-0.228318 0.013093 1.29525
-0.120874 0.0130869 1.33949
-0.283982 0.0130769 1.2495
-0.112371 0.0130707 1.32584
-0.202796 0.0130609 1.27219
-0.176579 0.0130547 1.27586
-0.217132 0.0130516 1.24529
-0.167335 0.0130419 1.26176
-0.160529 0.0130358 1.25576
-0.19993 0.0130262 1.22762
-0.167424 0.01302 1.23449
-0.182704 0.0130106 1.2184
-0.197755 0.0130075 1.20064
-0.274175 0.0130013 1.15308
-0.209387 0.012992 1.17703
-0.261105 0.0129858 1.14185
-0.179085 0.0129767 1.1744
-0.262211 0.0129705 1.12354
-0.272802 0.0129673 1.10809
-0.230017 0.0129584 1.12099
-0.223554 0.0129522 1.11496
-0.120748 0.012946 1.1571
-0.228276 0.0129371 1.09488
-0.240923 0.0129309 1.07932
-0.26956 0.0129274 1.05499
-0.28471 0.0129191 1.03884
-0.258409 0.0129129 1.04278
-0.358488 0.0129067 0.983554
-0.182151 0.0128981 1.06326
-0.215749 0.0128943 1.03658
-0.224162 0.0128888 1.023
-0.154136 0.0128804 1.04955
-0.198206 0.0128742 1.01837
-0.297209 0.012868 0.959748
-0.256586 0.0128618 0.970945
-0.188588 0.0128566 0.99554
-0.21441 0.0128504 0.973535
-0.21616 0.0128422 0.964177
-0.19578 0.012836 0.965295
-0.168121 0.0128298 0.970065
-0.175612 0.0128256 0.95667
-0.227441 0.0128187 0.921918
-0.247425 0.0128125 0.902897
-0.260771 0.0128063 0.887206
-0.239882 0.0128001 0.888643
-0.212777 0.0127954 0.892746
-0.201313 0.0127892 0.88949
-0.146277 0.012783 0.908032
-0.198788 0.0127753 0.873283
-0.222323 0.0127691 0.852562
-0.192936 0.012766 0.857329
-0.210782 0.0127598 0.839471
-0.247767 0.0127522 0.812483
-0.23919 0.012746 0.807858
-0.215539 0.0127411 0.810356
-0.317859 0.0127367 0.749735
-0.222604 0.0127293 0.788861
-0.249773 0.0127231 0.766405
-0.25345 0.0127169 0.755706
-0.208006 0.0127119 0.7692
-0.249123 0.0127076 0.739171
-0.238601 0.0127004 0.735935
-0.260746 0.0126942 0.716043
-0.198885 0.0126879 0.738165
-0.218658 0.0126848 0.71846
-0.307409 0.0126786 0.665296
-0.223864 0.0126716 0.698573
-0.0991965 0.0126654 0.752139
-0.219171 0.01266 0.683116
-0.172552 0.012656 0.696925
-0.287285 0.0126498 0.630822
-0.253444 0.0126429 0.639247
-0.204044 0.0126374 0.655002
-0.194022 0.0126336 0.650492
-0.185818 0.0126274 0.645898
-0.288145 0.0126212 0.586049
-0.250919 0.012615 0.595988
-0.204359 0.0126113 0.609725
-0.175614 0.0126051 0.615441
-0.276592 0.0125989 0.556307
-0.222104 0.0125927 0.574918
-0.208993 0.0125896 0.571782
-0.144826 0.012583 0.595374
-0.173743 0.0125768 0.572311
-0.20693 0.0125706 0.547124
-0.17382 0.0125675 0.554018
-0.21425 0.0125612 0.525228
-0.197631 0.012555 0.524975
-0.198383 0.0125488 0.516046
-0.191445 0.0125429 0.510861
-0.233339 0.0125393 0.480466
-0.208858 0.0125331 0.484183
-0.260938 0.0125269 0.449631
-0.181308 0.0125237 0.479844
-0.221805 0.0125175 0.451103
-0.254939 0.0125113 0.426054
-0.160608 0.0125051 0.464751
-0.170615 0.012502 0.450175
-0.215687 0.0124957 0.419186
-0.22601 0.0124895 0.405584
-0.197092 0.0124833 0.411614
-0.236499 0.0124802 0.382368
-0.140557 0.0124739 0.421929
-0.14043 0.0124677 0.413594
-0.335129 0.0124615 0.307856
-0.176011 0.0124583 0.377903
-0.24261 0.0124521 0.336235
-0.231989 0.0124459 0.333188
-0.194787 0.0124428 0.342299
-0.213405 0.0124365 0.324651
-0.212036 0.0124303 0.317008
-0.183708 0.0124241 0.322833
-0.240514 0.012421 0.284969
-0.240207 0.0124147 0.276823
-0.245088 0.0124085 0.266095
-0.185559 0.0124023 0.287582
-0.192818 0.0123991 0.274521
-0.199614 0.0123929 0.262865
-0.286702 0.0123867 0.211074
-0.267951 0.0123835 0.211041
-0.21938 0.0123773 0.227099
-0.224144 0.0123711 0.216499
-0.259482 0.0123648 0.190625
-0.19469 0.0123617 0.213641
-0.220302 0.0123555 0.192648
-0.187425 0.0123492 0.200911
-0.194684 0.0123461 0.187924
-0.151379 0.0123401 0.201315
-0.232446 0.0123339 0.152634
-0.211319 0.0123307 0.15386
-0.183224 0.0123245 0.159779
-0.244777 0.0123183 0.120885
-0.191974 0.012312 0.139179
-0.213271 0.0123089 0.119224
-0.189997 0.0123026 0.122773
-0.176237 0.0122964 0.121576
-0.142212 0.0122933 0.129303
-0.285142 0.012287 0.0497801
-0.263227 0.0122808 0.0526906
-0.149128 0.0122777 0.100476
-0.264696 0.0122714 0.0346642
-0.162149 0.0122652 0.0779208
-0.20672 0.012262 0.0463932
-0.227482 0.0122558 0.0280141
-0.209648 0.0122495 0.0289441
-0.271435 0.0122464 -0.0111701
-0.281252 0.0122402 -0.0240467
-0.0142182 0.0271566 1.80283
-0.0692537 0.0270875 1.77186
-0.0303609 0.0270501 1.78417
-0.0683283 0.0270128 1.75805
-0.0508523 0.0269758 1.75966
-0.0970776 0.0269513 1.72796
-0.114834 0.0269268 1.71051
-0.103833 0.0268904 1.70889
-0.129732 0.0268662 1.68737
-0.142245 0.0268422 1.67256
-0.133283 0.0268182 1.66849
-0.129556 0.0267944 1.66182
-0.122923 0.0267706 1.65659
-0.0634311 0.0267471 1.67781
-0.114285 0.0267236 1.64385
-0.214605 0.0267003 1.58516
-0.068492 0.0266772 1.64968
-0.194215 0.0266542 1.57829
-0.171805 0.0266419 1.57965
-0.176175 0.0266191 1.56895
-0.145331 0.0265964 1.57586
-0.155721 0.026574 1.56214
-0.172646 0.0265517 1.54516
-0.190303 0.0265394 1.52655
-0.209022 0.0265173 1.50868
-0.200801 0.0265111 1.50225
-0.107783 0.0264892 1.54025
-0.21538 0.0264675 1.47794
-0.178899 0.0264552 1.48647
-0.145215 0.0264337 1.4948
-0.151529 0.0264124 1.48312
-0.127504 0.0264001 1.48546
-0.229672 0.026379 1.42587
-0.248077 0.0263667 1.40702
-0.178889 0.026352 1.43229
-0.201691 0.0263397 1.41126
-0.21607 0.0263191 1.39556
-0.217864 0.0263068 1.38506
-0.173105 0.0262864 1.39893
-0.1305 0.0262741 1.41066
-0.211751 0.0262539 1.36152
-0.192113 0.0262416 1.36179
-0.261499 0.0262279 1.31774
-0.24908 0.0262155 1.31442
-0.153346 0.0261959 1.35377
-0.224004 0.0261835 1.30894
-0.241982 0.0261641 1.29143
-0.115085 0.0261518 1.34539
-0.247865 0.0261327 1.27047
-0.246738 0.0261265 1.26073
