ply
format ascii 1.0
comment Created by Open3D
element vertex 1754
property double x
property double y
property double z
end_header
-0.121007 0.178726 0.79507
-0.306216 0.178684 0.692544
-0.241431 0.178648 0.71487
-0.0495738 0.178563 0.801875
-0.241566 0.178479 0.696966
-0.155156 0.178436 0.730275
-0.168709 0.17836 0.714409
-0.102545 0.178275 0.738607
-0.359989 0.178233 0.600009
-0.296099 0.178191 0.622083
-0.208843 0.178116 0.656614
-0.229029 0.178031 0.637673
0.143923 0.177946 0.815311
-0.0178406 0.177958 0.723288
-0.0578687 0.177874 0.694451
-0.0216203 0.177789 0.703763
-0.270277 0.177704 0.570633
-0.264509 0.177662 0.5637
-0.215423 0.177633 0.578102
-0.070176 0.177548 0.641949
-0.480627 0.177463 0.427958
0.196946 0.177379 0.75799
-0.278507 0.177351 0.510105
-0.192939 0.177267 0.544151
-0.318775 0.177224 0.471461
-0.146613 0.177139 0.548824
-0.00626926 0.177055 0.610288
-0.197407 0.177029 0.504546
-0.27445 0.176944 0.457334
-0.192303 0.176902 0.488668
-0.281246 0.176817 0.435524
-0.24692 0.176732 0.444026
-0.451994 0.176708 0.331303
-0.133558 0.176624 0.481876
0.100267 0.176581 0.589082
-0.00668086 0.176496 0.526982
-0.012601 0.176411 0.515407
-0.304327 0.176327 0.36094
-0.31867 0.176304 0.343573
-0.197834 0.176262 0.394318
-0.258581 0.176177 0.355365
-0.00261245 0.176092 0.47478
-0.235496 0.176007 0.34978
0.0779543 0.175922 0.497958
-0.292524 0.175944 0.301417
-0.346375 0.175859 0.265958
0.00663252 0.175774 0.433938
-0.268172 0.175689 0.288024
0.0430299 0.175647 0.434013
-0.121348 0.175562 0.343331
-0.212394 0.175477 0.289325
-0.27691 0.175392 0.248595
-0.0697577 0.175373 0.341968
-0.0992908 0.17533 0.317623
-0.25633 0.175245 0.230655
-0.129531 0.17516 0.285618
-0.137079 0.175075 0.273417
-0.0166978 0.175033 0.324058
0.18059 0.174948 0.414295
-0.152134 0.174863 0.239535
-0.215676 0.174777 0.199378
0.026378 0.174692 0.31203
-0.00358844 0.174718 0.285707
-0.207021 0.174633 0.175628
-0.0930674 0.174547 0.224254
-0.0592869 0.174462 0.232803
-0.139256 0.17442 0.18333
-0.093451 0.174335 0.197911
-0.155748 0.17425 0.15845
-0.0747075 0.174164 0.19067
-0.0598279 0.174122 0.188651
-0.230245 0.174037 0.0951597
-0.109465 0.173952 0.147279
0.00862606 0.173866 0.198063
-0.327195 0.173824 0.0207222
-0.327356 0.173739 0.0123996
-0.190655 0.173653 0.0725185
0.0472512 0.173568 0.183251
-0.115261 0.173526 0.0925933
-0.148209 0.17344 0.0679172
-0.292146 0.173355 -0.0122432
-0.156917 0.17327 0.04719
0.0542317 0.173227 0.143392
-0.118373 0.173142 0.0489272
0.00440211 0.173057 0.102163
0.00186106 0.172972 0.0927509
-0.0872829 0.172929 0.0388359
-0.1626 0.172844 -0.00694585
-0.168805 0.20283 2.01602
-0.270818 0.202678 1.95564
-0.0319569 0.202528 2.06569
-0.361524 0.202379 1.89152
-0.105498 0.202233 2.01014
-0.486592 0.202143 1.80938
-0.19701 0.201999 1.94477
-0.400224 0.201856 1.83376
-0.0521926 0.201766 1.9976
-0.277159 0.201625 1.87571
-0.225392 0.201486 1.89218
-0.155034 0.201397 1.91722
-0.111693 0.201304 1.9288
-0.273667 0.20117 1.83837
-0.285481 0.20108 1.82237
-0.100549 0.200946 1.9054
-0.270927 0.200856 1.81014
-0.497465 0.200726 1.68742
-0.22571 0.200597 1.81384
-0.281898 0.200507 1.7757
-0.365908 0.20038 1.72423
-0.0524402 0.200291 1.87094
-0.242426 0.200166 1.76648
-0.331339 0.200077 1.71202
-0.103013 0.199954 1.81671
-0.1401 0.199864 1.78818
-0.086668 0.199775 1.80493
-0.0595336 0.19967 1.80878
-0.321723 0.199581 1.66773
-0.20749 0.199464 1.71534
-0.166757 0.199375 1.72578
-0.321388 0.199261 1.63894
-0.24684 0.199171 1.66631
0.0293549 0.199059 1.79487
-0.389913 0.19897 1.57535
-0.285487 0.19888 1.61769
0.146562 0.198791 1.82385
-0.257112 0.198701 1.61217
-0.283987 0.198618 1.58877
-0.0140468 0.198513 1.71416
-0.314927 0.198424 1.5539
-0.302097 0.198321 1.55073
-0.510063 0.198231 1.43694
-0.188071 0.198141 1.58815
-0.113003 0.198052 1.61591
-0.36996 0.197951 1.47784
-0.546507 0.197861 1.37981
-0.462459 0.197772 1.41209
-0.250071 0.197712 1.50804
-0.31188 0.197618 1.46748
-0.247277 0.197529 1.49006
-0.237441 0.197439 1.48527
-0.105276 0.197349 1.54166
-0.124849 0.197259 1.52218
-0.432994 0.197169 1.35844
-0.120437 0.197123 1.5043
-0.40885 0.197033 1.35043
-0.259783 0.196944 1.41531
-0.191115 0.196854 1.44001
-0.20766 0.196768 1.42205
-0.26042 0.196678 1.38606
-0.209422 0.196593 1.40186
-0.489498 0.196503 1.25223
-0.16446 0.196413 1.40516
-0.0934187 0.196376 1.43016
-0.308194 0.196286 1.31321
-0.229071 0.196206 1.34303
-0.237148 0.196116 1.32945
-0.279054 0.196026 1.29896
-0.159887 0.195949 1.34879
-0.200087 0.195859 1.31918
-0.279306 0.195829 1.26897
-0.0447818 0.195739 1.37673
-0.169385 0.195649 1.30495
-0.116333 0.195576 1.32168
-0.177456 0.195485 1.28165
-0.275128 0.195415 1.223
-0.231409 0.19537 1.23457
-0.295967 0.19528 1.19285
-0.239 0.195211 1.2115
-0.0811669 0.195121 1.281
0.127536 0.195055 1.37549
0.0541925 0.194965 1.32941
-0.233298 0.194875 1.17628
-0.0708618 0.194856 1.24676
-0.26597 0.194766 1.13983
-0.296297 0.194675 1.11531
-0.140762 0.194614 1.18318
-0.0422593 0.194523 1.22308
-0.224315 0.194464 1.12213
-0.131013 0.194374 1.15946
-0.112774 0.194329 1.15839
-0.318061 0.194271 1.0458
-0.247873 0.194181 1.07159
-0.176722 0.194091 1.09788
-0.181286 0.194035 1.08563
-0.0387687 0.193945 1.14762
-0.129391 0.193855 1.09305
-0.14502 0.193847 1.07436
-0.308688 0.193757 0.983283
0.125824 0.193667 1.19131
-0.243453 0.193616 0.996662
-0.153995 0.193525 1.03218
-0.387016 0.193435 0.906465
-0.169624 0.193431 1.00422
-0.0671408 0.193341 1.04628
-0.1266 0.193251 1.00737
-0.302516 0.193204 0.909361
-0.232811 0.193114 0.935056
-0.271664 0.193023 0.906482
-0.282694 0.193024 0.889967
-0.105334 0.192933 0.969515
-0.369798 0.192843 0.828162
-0.202808 0.1928 0.901561
-0.252996 0.19271 0.867364
-0.136453 0.192619 0.916544
-0.107641 0.192624 0.919887
-0.194549 0.192533 0.867356
-0.222748 0.192443 0.84419
-0.201186 0.192398 0.844963
-0.138778 0.192314 0.866985
-0.278875 0.192223 0.787899
-0.194885 0.192178 0.819906
-0.0964379 0.192141 0.85897
-0.394619 0.192051 0.700867
-0.17212 0.191961 0.803115
-0.194206 0.191926 0.781891
-0.309439 0.191835 0.71529
-0.356505 0.191745 0.682784
-0.23247 0.191699 0.73486
-0.443667 0.191666 0.619062
-0.226723 0.191576 0.718586
-0.336624 0.191485 0.654699
0.106051 0.191454 0.865814
-0.088176 0.191409 0.758789
-0.20791 0.191318 0.69001
-0.0247058 0.191228 0.772711
-0.151793 0.191198 0.698927
-0.184501 0.191108 0.673689
-0.101288 0.191017 0.706423
-0.211438 0.190972 0.641478
-0.0311273 0.190944 0.721374
0.0184522 0.190854 0.737316
-0.372287 0.190763 0.533109
-0.193241 0.190718 0.612786
-0.06024 0.190692 0.66901
-0.269981 0.190601 0.555328
0.0138462 0.190511 0.68844
-0.0812738 0.190465 0.631059
-0.142844 0.190396 0.591011
-0.213921 0.190305 0.546698
0.00439597 0.19026 0.646056
-0.259096 0.190169 0.505555
-0.0683564 0.190146 0.590614
-0.207574 0.190056 0.512266
-0.0537533 0.189965 0.580449
-0.102664 0.18992 0.546226
-0.175011 0.189874 0.500289
-0.0844143 0.189808 0.536318
-0.305182 0.189717 0.417242
-0.113191 0.189627 0.504556
-0.210663 0.189581 0.446085
-0.0903403 0.189536 0.496516
-0.311678 0.189471 0.376579
-0.286788 0.18938 0.380378
-0.192062 0.18929 0.419105
0.111707 0.189244 0.561286
-0.21492 0.189199 0.388275
-0.11772 0.189136 0.427608
-0.216784 0.189045 0.369476
-0.123767 0.188954 0.407394
-0.22967 0.188909 0.344773
-0.207664 0.188818 0.347204
-0.186681 0.188801 0.347337
-0.206474 0.188711 0.328885
-0.0676423 0.18862 0.389757
-0.244304 0.188574 0.291788
-0.0491125 0.188484 0.380858
-0.218874 0.188393 0.287463
-0.0330178 0.188347 0.370774
-0.0843354 0.188287 0.335867
-0.232438 0.188241 0.25221
-0.241715 0.188151 0.239092
-0.248762 0.18806 0.227099
-0.115256 0.187969 0.285394
-0.030162 0.187923 0.318364
-0.218872 0.187832 0.215569
-0.330974 0.187741 0.151089
0.0384562 0.187728 0.325445
-0.409532 0.187637 0.0930379
0.0885272 0.187592 0.332523
-0.112314 0.187501 0.223708
-0.158439 0.18741 0.192261
-0.144519 0.187319 0.190848
-0.0622104 0.187273 0.222487
-0.12989 0.187182 0.180293
-0.250743 0.187091 0.111522
-0.058172 0.187 0.199475
-0.153266 0.186909 0.143605
-0.135643 0.186864 0.142938
-0.255948 0.186773 0.0744815
-0.198396 0.186727 0.0937917
0.00903125 0.18667 0.188349
-0.169553 0.186624 0.0896024
-0.0819061 0.186533 0.125156
-0.155378 0.186442 0.0801611
0.10639 0.186351 0.202796
-0.152301 0.186306 0.0640252
-0.0813712 0.186215 0.0912603
0.00237205 0.186123 0.124913
-0.25678 0.186032 -0.0128719
-0.387401 0.185987 -0.0875796
-0.0494274 0.185896 0.0732171
-0.144556 0.185805 0.0174733
-0.263609 0.185713 -0.0502221
-0.0597613 0.185668 0.0423336
0.0119236 0.185577 0.0700255
-0.339949 0.216156 1.93307
-0.362704 0.216 1.91225
-0.27246 0.215893 1.94729
0.0749811 0.21574 2.11155
-0.121266 0.215645 2.0032
-0.251011 0.215495 1.92887
-0.188486 0.215346 1.95066
-0.373408 0.215251 1.84801
-0.0536797 0.215105 1.99841
-0.33452 0.214961 1.8485
-0.288219 0.214866 1.8615
-0.462893 0.214724 1.76468
-0.226296 0.214584 1.87348
-0.211278 0.214489 1.87087
-0.128362 0.214351 1.90283
-0.188501 0.214256 1.86266
-0.278464 0.21412 1.80817
-0.143353 0.214025 1.86566
-0.0496486 0.21393 1.90245
-0.0658163 0.213808 1.8847
-0.225752 0.213701 1.79486
-0.210691 0.213584 1.79268
-0.181463 0.213458 1.79773
-0.245076 0.213363 1.75592
-0.271307 0.213238 1.73323
-0.38171 0.213143 1.66805
-0.401958 0.213021 1.64835
-0.183131 0.212926 1.7478
-0.406993 0.212831 1.62592
-0.25722 0.212736 1.69087
-0.327827 0.21264 1.64563
-0.131451 0.212521 1.73427
-0.223709 0.212425 1.67823
-0.388698 0.212337 1.58574
-0.376576 0.212225 1.58217
-0.299669 0.212115 1.61097
-0.134907 0.212019 1.68349
-0.329991 0.211924 1.57609
-0.174794 0.211829 1.64384
-0.123954 0.211733 1.65943
-0.331507 0.211638 1.54583
-0.281041 0.211569 1.56084
-0.227107 0.211466 1.57812
-0.176811 0.211366 1.59355
-0.306407 0.21127 1.51897
-0.147566 0.211175 1.58861
-0.0882676 0.21108 1.6085
-0.444045 0.210984 1.42086
-0.379731 0.210888 1.44328
-0.0330726 0.210839 1.60615
-0.26814 0.210743 1.47889
-0.187302 0.210648 1.50959
-0.0552657 0.210552 1.56591
-0.594377 0.210457 1.28666
-0.234836 0.210364 1.45671
-0.158622 0.210268 1.48514
-0.406372 0.210178 1.35152
-0.36769 0.210082 1.36121
-0.293369 0.210042 1.38782
-0.088785 0.209947 1.48048
-0.264279 0.209861 1.38294
-0.0175159 0.209766 1.49671
-0.0349354 0.209683 1.47818
-0.116785 0.209587 1.42767
-0.444871 0.209491 1.25404
-0.106021 0.209459 1.41283
-0.0551762 0.209363 1.42869
-0.296801 0.209285 1.29803
-0.147648 0.209189 1.36306
-0.298633 0.209093 1.27803
0.00745477 0.209018 1.42121
-0.215253 0.208922 1.30034
-0.282659 0.208896 1.25592
-0.425685 0.208801 1.17491
0.0599242 0.208705 1.40823
0.0523802 0.208634 1.39455
-0.173215 0.208538 1.27228
-0.347434 0.20847 1.17524
-0.0749402 0.208374 1.30204
-0.064387 0.208326 1.29703
-0.276462 0.20826 1.18104
-0.00256779 0.208164 1.30857
-0.179676 0.2081 1.21004
-0.409321 0.208004 1.08581
-0.207236 0.207908 1.17746
-0.0856199 0.207847 1.22827
-0.238818 0.207751 1.1423
-0.241489 0.207703 1.13074
-0.464759 0.207644 1.00909
-0.0554279 0.207548 1.20441
-0.179917 0.207491 1.13212
-0.250331 0.207395 1.08758
-0.260464 0.20734 1.07244
-0.145346 0.207292 1.11981
-0.474926 0.207196 0.945723
-0.474407 0.207144 0.935889
-0.304296 0.207048 1.01166
0.00343219 0.206952 1.15625
-0.287007 0.206901 1.00092
-0.437575 0.206805 0.916384
-0.373891 0.206709 0.938984
-0.281656 0.206709 0.974065
-0.314347 0.206613 0.948493
0.226432 0.206517 1.20967
-0.290967 0.206471 0.94081
-0.181785 0.206375 0.986202
-0.416515 0.206327 0.858734
-0.133004 0.206283 0.99031
-0.0333733 0.206187 1.03095
-0.245299 0.206091 0.915829
-0.170121 0.206049 0.943217
-0.100676 0.205953 0.968796
-0.0996 0.205905 0.959269
-0.111874 0.205865 0.942908
-0.279749 0.205769 0.849852
-0.137532 0.205721 0.910913
0.00578065 0.205636 0.973265
-0.212994 0.205539 0.854787
0.00428434 0.205491 0.953399
-0.229209 0.205456 0.826385
-0.111482 0.205359 0.876183
-0.211604 0.205263 0.817069
-0.0118876 0.20523 0.906638
-0.333029 0.205133 0.73703
-0.217275 0.205085 0.784918
-0.123361 0.205053 0.821562
-0.261287 0.204957 0.743588
-0.374695 0.204861 0.677883
-0.170297 0.204831 0.769748
-0.238471 0.204735 0.726678
-0.299076 0.204638 0.687403
-0.230058 0.204658 0.710576
-0.190967 0.204562 0.721162
-0.0828117 0.204466 0.766293
-0.0889929 0.204418 0.753275
-0.201984 0.204343 0.687398
-0.227996 0.204247 0.665472
-0.263992 0.204199 0.637567
-0.284062 0.204174 0.617137
-0.210214 0.204078 0.645166
-0.109346 0.203981 0.686716
-0.230552 0.203933 0.61623
-0.112754 0.203862 0.665729
-0.221847 0.203814 0.601312
-0.000661077 0.203718 0.703056
0.00206784 0.203697 0.693989
-0.468333 0.2036 0.449957
-0.201962 0.203504 0.574321
-0.0665582 0.203455 0.632184
-0.0541787 0.203436 0.627926
-0.263363 0.203339 0.514537
-0.285275 0.203243 0.494795
-0.169947 0.203195 0.542645
-0.0176925 0.203129 0.60935
-0.073961 0.20308 0.571413
-0.227605 0.202984 0.48584
-0.245547 0.202936 0.46708
-0.107265 0.202871 0.526793
-0.0573292 0.202774 0.543037
0.0801487 0.202726 0.602006
-0.0264163 0.202678 0.538958
0.0243776 0.202615 0.554923
-0.0192885 0.202518 0.524401
-0.0979376 0.202421 0.476398
-0.0637586 0.202373 0.48375
-0.0944402 0.20236 0.457902
-0.194638 0.202263 0.399149
-0.181603 0.202167 0.397023
0.0357205 0.20207 0.497052
-0.26514 0.202022 0.336916
-0.180136 0.202009 0.368902
-0.10631 0.201913 0.397207
-0.0732376 0.201816 0.405145
-0.10863 0.201719 0.378862
-0.111558 0.201671 0.367724
0.0769476 0.20166 0.451452
-0.104895 0.201564 0.351968
-0.0790581 0.201467 0.356334
-0.135796 0.20137 0.319423
0.036684 0.201274 0.397132
-0.0864027 0.201313 0.323945
-0.0858614 0.201216 0.315698
-0.0407681 0.201119 0.329738
-0.0995515 0.201022 0.291849
0.085279 0.200974 0.374655
0.0827554 0.200877 0.364915
-0.0441968 0.20078 0.292972
-0.149732 0.200732 0.230616
-0.152218 0.200675 0.21998
-0.00257862 0.200627 0.285222
-0.440578 0.20053 0.0577893
0.170801 0.200433 0.355057
-0.367732 0.200337 0.0773784
-0.231251 0.20024 0.137218
-0.369779 0.200191 0.0584128
-0.0497927 0.200094 0.210024
-0.270914 0.199997 0.0910916
-0.24753 0.199991 0.0922696
-0.292395 0.199942 0.0603197
-0.176522 0.199845 0.109908
-0.141231 0.199748 0.119216
-0.0904316 0.199651 0.136289
-0.0582707 0.199603 0.142881
0.078159 0.199506 0.202788
-0.247838 0.199409 0.0314915
0.00643855 0.199312 0.150343
-0.0905539 0.199215 0.0935699
-0.119555 0.199167 0.0696181
-0.131934 0.19907 0.0551702
0.233411 0.198973 0.229596
-0.249628 0.198876 -0.0201612
0.0576748 0.198827 0.124068
-0.328591 0.19873 -0.0772837
-0.225776 0.198633 -0.0340837
-0.0769481 0.198536 0.0321329
-0.111973 0.198488 0.00522658
-0.125453 0.198391 -0.00969232
-0.0812492 0.229527 2.06418
-0.315039 0.229367 1.93777
-0.00726255 0.229209 2.08214
-0.0443472 0.229053 2.05407
-0.315869 0.228953 1.90809
-0.0492286 0.228799 2.03187
-0.269848 0.228698 1.91137
-0.217818 0.228547 1.92785
-0.212385 0.228447 1.92039
-0.209568 0.228346 1.91164
-0.0773721 0.228197 1.96821
-0.149769 0.228058 1.92238
-0.107191 0.227957 1.93354
-0.174215 0.227815 1.89045
-0.301226 0.227714 1.81684
-0.142586 0.227575 1.88658
-0.38089 0.227438 1.75783
-0.523837 0.227337 1.67628
-0.465768 0.227203 1.69571
-0.299842 0.227102 1.76862
-0.271317 0.227001 1.77285
-0.467543 0.226869 1.66513
-0.238362 0.226768 1.76971
-0.0970704 0.226663 1.8304
-0.128001 0.226562 1.80494
-0.0662288 0.226436 1.82618
-0.33463 0.226336 1.68199
-0.21635 0.226214 1.73146
-0.380786 0.226114 1.63929
-0.144333 0.225994 1.74784
-0.0147405 0.225893 1.8027
-0.296691 0.225792 1.65181
-0.313056 0.225691 1.63372
-0.345652 0.22559 1.60752
-0.312877 0.225473 1.61424
-0.132221 0.225399 1.69431
-0.20923 0.225289 1.64605
-0.348721 0.225188 1.56645
-0.199404 0.225082 1.63134
-0.212417 0.224981 1.61499
-0.372533 0.22488 1.5251
-0.113451 0.224779 1.64483
-0.253976 0.224677 1.56476
-0.254963 0.224624 1.55377
-0.33444 0.224523 1.50424
-0.394637 0.224422 1.46436
-0.0722168 0.22432 1.61581
-0.113701 0.224219 1.58531
-0.0435976 0.22412 1.61057
-0.166333 0.224019 1.53947
-0.120857 0.223923 1.55241
-0.382961 0.223822 1.41164
-0.0300964 0.223779 1.57748
-0.227065 0.223677 1.46929
-0.165787 0.223576 1.49024
-0.058151 0.223485 1.53423
-0.409727 0.223384 1.34877
-0.311243 0.223295 1.38815
-0.0257304 0.223194 1.52126
-0.326165 0.223108 1.36117
-0.180938 0.223007 1.42415
-0.160884 0.222974 1.42348
0.0789118 0.222873 1.53377
-0.383492 0.222792 1.29264
-0.355926 0.222691 1.29683
-0.177459 0.222589 1.37649
-0.155317 0.222511 1.37762
-0.260757 0.22241 1.31534
-0.160227 0.222385 1.35482
-0.271167 0.222283 1.28981
-0.142801 0.22221 1.344
-0.294741 0.222109 1.2585
-0.189575 0.222007 1.30157
-0.456 0.221937 1.15835
-0.162402 0.221835 1.29566
-0.159027 0.221818 1.28648
-0.141362 0.221716 1.28583
-0.118785 0.221615 1.28765
-0.157694 0.221549 1.25815
-0.325935 0.221448 1.16458
-0.43343 0.221384 1.10075
-0.234874 0.221283 1.1906
-0.250448 0.221232 1.17254
-0.0305138 0.221171 1.27241
-0.313303 0.22107 1.12162
-0.248214 0.221011 1.14404
-0.0520241 0.22091 1.23275
-0.392882 0.220853 1.05217
-0.315395 0.220752 1.08154
-0.388956 0.22065 1.03541
-0.191588 0.220647 1.12305
-0.0102402 0.220546 1.20438
-0.581074 0.220444 0.909637
-0.137096 0.220393 1.12144
-0.0350273 0.220291 1.16316
-0.0982012 0.22024 1.12139
-0.106768 0.220191 1.10689
-0.334475 0.220089 0.98375
-0.0866223 0.220038 1.09751
0.00628254 0.219941 1.13462
-0.196311 0.219839 1.02407
-0.0055818 0.219794 1.10917
-0.134322 0.219692 1.03556
-0.198779 0.219641 0.993201
-0.363198 0.219599 0.90071
-0.230819 0.219497 0.957685
-0.225285 0.219446 0.950336
-0.338969 0.219355 0.884106
-0.240226 0.219253 0.924292
-0.440237 0.219266 0.813036
-0.198311 0.219164 0.924829
-0.17767 0.219062 0.92599
0.037667 0.219026 1.02331
-0.124386 0.218924 0.933138
-0.362519 0.218873 0.804005
-0.305091 0.218839 0.822345
0.0343593 0.218737 0.982953
-0.152435 0.218686 0.879507
-0.298221 0.218603 0.797163
0.0092488 0.218501 0.941809
-0.354497 0.218471 0.749516
-0.118014 0.218369 0.858686
0.0317141 0.218318 0.923532
-0.253829 0.21829 0.770319
-0.179959 0.218188 0.798207
-0.249773 0.218086 0.754263
-0.263088 0.21806 0.737144
-0.266761 0.217957 0.726289
-0.48834 0.217906 0.605518
-0.0308368 0.217882 0.823787
-0.277689 0.21778 0.691366
-0.0623585 0.217729 0.789067
-0.15605 0.217655 0.732699
-0.147527 0.217553 0.727994
-0.327685 0.217502 0.62797
-0.134716 0.217481 0.713931
-0.125097 0.217379 0.709798
-0.253062 0.217328 0.635888
-0.234326 0.217257 0.635711
-0.222661 0.217155 0.632628
-0.127474 0.217104 0.670313
-0.131607 0.217086 0.657685
-0.144734 0.216984 0.642231
-0.219724 0.216882 0.595855
-0.113378 0.216866 0.63845
-0.224105 0.216763 0.574222
-0.310444 0.216712 0.521179
-0.409271 0.216698 0.461168
-0.326735 0.216595 0.493596
0.109969 0.216493 0.70312
-0.24204 0.21648 0.516501
0.185855 0.216429 0.720603
-0.0675637 0.216326 0.585089
-0.0437882 0.216275 0.587144
0.00542776 0.216212 0.602164
0.0803701 0.21611 0.630858
-0.00866653 0.216059 0.576526
0.0359186 0.216048 0.588174
-0.284904 0.215946 0.419009
-0.140389 0.215844 0.482523
-0.0898914 0.215835 0.497114
-0.0692072 0.215732 0.498729
-0.0816901 0.215681 0.482709
-0.137587 0.215579 0.446052
0.0236202 0.215571 0.515986
-0.0119318 0.215468 0.489518
0.111024 0.215366 0.542315
-0.0815415 0.21541 0.434274
-0.111672 0.215308 0.410541
-0.0919123 0.215205 0.411763
-0.0676243 0.215103 0.41526
0.348328 0.215097 0.612545
0.0806417 0.214995 0.470071
-0.193596 0.214944 0.32324
-0.0532992 0.214841 0.384776
-0.211643 0.214837 0.294904
0.017794 0.214734 0.401026
-0.0860153 0.214632 0.340536
-0.168113 0.21458 0.289806
-0.233896 0.214529 0.247239
-0.0759145 0.214474 0.316636
-0.0486321 0.214372 0.321726
-0.0126139 0.214269 0.331194
-0.121406 0.214218 0.267149
-0.0292825 0.214215 0.302502
-0.12184 0.214113 0.247706
-0.051957 0.21401 0.274141
-0.209997 0.213907 0.186625
0.127122 0.213856 0.345568
0.111638 0.213854 0.327116
-0.140502 0.213752 0.192574
-0.235468 0.213649 0.136629
-0.0830499 0.213546 0.204387
-0.0202153 0.213495 0.226219
-0.274491 0.213392 0.0906487
-0.246863 0.213391 0.0937581
-0.214638 0.213289 0.101454
-0.296476 0.213237 0.0509726
-0.229218 0.213135 0.0762037
-0.118699 0.213032 0.123076
-0.094463 0.212929 0.126817
-0.0102939 0.212826 0.160535
0.0319237 0.212775 0.172118
-0.247602 0.212672 0.0240072
-0.054139 0.212569 0.112401
-0.0899524 0.212467 0.0861681
-0.0167104 0.212415 0.113292
0.142503 0.212312 0.184591
0.113517 0.212209 0.1618
-0.172901 0.212107 0.0103042
-0.0812532 0.212004 0.0478514
-0.102858 0.211952 0.027589
-0.0883095 0.211849 0.0266052
-0.00159814 0.211747 0.0617133
0.032464 0.211644 0.0705074
-0.153567 0.211592 -0.0319395
0.0556202 0.211489 0.0644356
-0.298295 0.242905 1.95713
-0.253806 0.242737 1.96985
-0.204897 0.242577 1.9847
-0.172356 0.242471 1.99074
-0.200026 0.242313 1.96731
-0.222192 0.242158 1.94661
-0.0116447 0.242051 2.04169
-0.105158 0.241899 1.98531
-0.343158 0.241749 1.85667
-0.172048 0.241642 1.93207
-0.0921784 0.241495 1.96236
-0.345157 0.241388 1.82574
-0.131302 0.241282 1.92254
-0.29501 0.241137 1.83105
-0.311355 0.24103 1.81277
-0.44403 0.240907 1.73654
-0.0588649 0.240801 1.91904
-0.517217 0.240664 1.68018
-0.174201 0.240557 1.84163
-0.262039 0.240423 1.78801
-0.359443 0.240291 1.7296
-0.168506 0.240184 1.81504
-0.328243 0.240077 1.72515
-0.00912993 0.239948 1.87499
-0.586336 0.239842 1.57639
-0.307617 0.239735 1.70577
-0.264017 0.239628 1.71759
-0.280654 0.239538 1.69909
-0.362244 0.239395 1.64882
-0.253624 0.239298 1.69306
-0.0709818 0.239191 1.77444
-0.428361 0.239076 1.58595
-0.103705 0.238969 1.73836
-0.0784895 0.238862 1.74107
-0.414051 0.238756 1.56339
-0.239302 0.238649 1.64089
-0.262343 0.238586 1.6189
-0.196714 0.238478 1.64186
-0.407347 0.238371 1.52669
-0.303514 0.238265 1.56876
-0.171147 0.238158 1.62511
0.0899258 0.238051 1.74582
-0.00634104 0.237944 1.68788
-0.208681 0.237839 1.57688
0.00565418 0.237737 1.67418
-0.216169 0.23763 1.55349
-0.314421 0.237577 1.49384
-0.162019 0.237478 1.56017
-0.149792 0.237371 1.55653
-0.410518 0.237274 1.41627
-0.376134 0.237167 1.42373
-0.260712 0.237073 1.47153
-0.26108 0.236966 1.46163
-0.258128 0.236875 1.45318
-0.16584 0.236768 1.48963
-0.294822 0.236734 1.4144
-0.0831351 0.236627 1.51057
-0.236645 0.236541 1.42384
-0.106262 0.236434 1.47937
-0.411924 0.236327 1.3169
-0.169551 0.236244 1.42809
-0.187752 0.236137 1.40936
-0.277639 0.23611 1.35361
-0.120669 0.236003 1.42248
-0.301224 0.235925 1.32216
-0.248716 0.235818 1.33883
-0.346728 0.235743 1.27976
-0.0713349 0.235636 1.40788
-0.0604154 0.235529 1.40378
-0.207424 0.235456 1.3202
-0.162303 0.235403 1.3324
-0.259361 0.235333 1.27376
-0.236899 0.235226 1.27547
-0.063464 0.235159 1.35205
-0.155191 0.235052 1.29668
-0.621701 0.234944 1.05393
-0.254735 0.23488 1.22727
-0.153236 0.234772 1.26854
-0.360465 0.234764 1.15391
-0.434317 0.234657 1.10752
-0.206222 0.234597 1.21137
-0.365831 0.23449 1.12212
-0.0951814 0.234382 1.24801
-0.00331398 0.234325 1.28373
-0.282057 0.234218 1.13494
-0.0723317 0.234217 1.2287
-0.0723974 0.23411 1.21927
-0.0156836 0.234002 1.23824
-0.112983 0.23395 1.17932
-0.251873 0.233843 1.10051
-0.179098 0.233793 1.1266
-0.183787 0.233739 1.11403
0.121987 0.233632 1.25758
-0.106443 0.233584 1.13305
-0.236943 0.233477 1.05847
-0.111758 0.233432 1.11072
-0.0668052 0.233324 1.12389
-0.122742 0.23327 1.08574
-0.0317084 0.233228 1.12089
-0.13262 0.23312 1.06115
-0.021141 0.233066 1.10672
-0.341202 0.232972 0.937209
-0.0393628 0.232918 1.07797
-0.261199 0.232826 0.957549
-0.111577 0.232718 1.02312
0.0790304 0.232736 1.10708
-0.198739 0.232628 0.958976
0.115135 0.232521 1.1067
-0.184531 0.232486 0.946414
-0.270451 0.232379 0.894259
0.0308654 0.232347 1.03444
-0.254096 0.232293 0.881855
-0.0892097 0.232185 0.955128
-0.204862 0.232155 0.886802
-0.223514 0.232047 0.868323
-0.0299102 0.231993 0.955047
-0.241234 0.231912 0.839802
-0.120421 0.231858 0.890142
-0.16642 0.231831 0.856596
-0.0918794 0.231724 0.884755
-0.218847 0.23167 0.811222
-0.178974 0.231592 0.821544
-0.250794 0.231484 0.77655
-0.385965 0.231461 0.698377
0.0720774 0.231408 0.917372
-0.0773546 0.2313 0.833597
-0.307358 0.231279 0.707988
-0.286488 0.231171 0.70938
-0.176774 0.231152 0.753607
0.0824412 0.231044 0.874189
-0.248525 0.23099 0.698715
-0.238273 0.230973 0.693192
0.127474 0.230865 0.867064
-0.260402 0.230811 0.663152
-0.143273 0.230742 0.712035
0.129567 0.230688 0.838492
-0.474459 0.230673 0.52579
-0.482558 0.230565 0.51278
0.0483952 0.230511 0.76831
-0.192707 0.230445 0.638052
-0.266266 0.230337 0.592339
-0.106167 0.230326 0.661665
-0.160868 0.230272 0.62439
0.136838 0.230164 0.764333
-0.0694705 0.230154 0.65044
-0.0995604 0.230046 0.626502
-0.24188 0.230037 0.544585
-0.108935 0.229929 0.60218
0.0582952 0.229875 0.675905
0.091841 0.229868 0.681906
-0.0811643 0.22976 0.58655
-0.141423 0.229754 0.545632
-0.141837 0.229646 0.536588
-0.0176978 0.229592 0.588795
0.00591704 0.229587 0.589801
-0.159145 0.229478 0.498457
-0.164812 0.229475 0.484807
-0.237965 0.229366 0.439433
-0.108657 0.229364 0.493257
0.0904801 0.229309 0.582992
-0.225203 0.229201 0.416377
-0.00663519 0.229199 0.51482
-0.122646 0.229091 0.448057
-0.103694 0.22909 0.446681
0.0915183 0.228982 0.535546
0.112598 0.229036 0.534155
0.0374738 0.228927 0.487864
-0.0103872 0.228873 0.454142
0.0489619 0.22882 0.47402
-0.20786 0.228821 0.334725
0.0517901 0.228767 0.454772
-0.0717722 0.228713 0.383217
0.0127232 0.22866 0.415661
-0.000487061 0.228663 0.398156
0.225194 0.228608 0.501236
-0.038432 0.228611 0.358516
-0.0199514 0.228557 0.358003
-0.301851 0.22856 0.20614
-0.0153308 0.228564 0.338478
-0.1182 0.22868 0.273819
-0.209508 0.256111 1.99325
-0.104611 0.255947 2.03605
-0.280419 0.255835 1.93792
-0.131482 0.255723 2.00217
-0.0863952 0.255562 2.01507
-0.536706 0.255416 1.78011
-0.0320178 0.255291 2.02242
-0.235834 0.25515 1.91067
-0.410842 0.255 1.81345
-0.0959132 0.254888 1.96077
-0.198989 0.25474 1.89951
-0.287137 0.254595 1.8457
-0.0680217 0.254483 1.94514
-0.189589 0.254371 1.87425
-0.245767 0.254229 1.83642
-0.452718 0.254116 1.72286
-0.31841 0.254004 1.77994
-0.243686 0.253892 1.80724
-0.329611 0.253752 1.75456
-0.319511 0.253651 1.74944
-0.115214 0.25352 1.84178
-0.0379273 0.253407 1.8704
-0.157017 0.253279 1.80104
-0.26157 0.253167 1.73876
-0.101453 0.253055 1.80883
-0.0437373 0.25293 1.82787
-0.316342 0.252817 1.6816
-0.260896 0.252705 1.69937
-0.393049 0.252632 1.62285
-0.382119 0.252515 1.61842
-0.188527 0.252403 1.70529
-0.575964 0.252289 1.50167
-0.438092 0.252177 1.5607
-0.408826 0.252065 1.56543
-0.21284 0.251952 1.65354
-0.297309 0.25184 1.60143
-0.324207 0.251729 1.57809
-0.485838 0.251616 1.48741
-0.246509 0.25156 1.5965
-0.127433 0.251452 1.64614
-0.249184 0.25134 1.57543
-0.273891 0.251235 1.55316
-0.170999 0.251133 1.59466
-0.279801 0.25102 1.53046
-0.319404 0.250921 1.50069
-0.362643 0.250808 1.46929
-0.336267 0.250752 1.47196
-0.0982753 0.250656 1.58097
-0.450399 0.250543 1.39516
-0.269467 0.25045 1.47562
-0.262123 0.250337 1.46957
-0.178028 0.250246 1.50159
-0.27386 0.250134 1.44396
-0.197939 0.250046 1.47188
-0.0468918 0.249933 1.53771
-0.386156 0.249905 1.35724
-0.292036 0.249792 1.39462
-0.268817 0.24971 1.39614
-0.14482 0.249597 1.44848
-0.233947 0.249518 1.3938
-0.100309 0.249405 1.45099
-0.355082 0.249328 1.31346
-0.282566 0.249216 1.3401
-0.114449 0.249159 1.41375
-0.262832 0.249085 1.32941
-0.162093 0.248972 1.37019
-0.329526 0.248901 1.27629
-0.112699 0.248789 1.37513
-0.145012 0.24872 1.34877
-0.299196 0.248607 1.26213
-0.172607 0.248551 1.31506
-0.244914 0.248485 1.26869
-0.206207 0.248372 1.27851
-0.149358 0.248309 1.29669
-0.0996739 0.248196 1.31202
-0.29683 0.248136 1.20317
-0.2003 0.248023 1.24195
0.0952796 0.248021 1.37861
0.0120409 0.247908 1.32751
-0.114666 0.247795 1.25469
-0.28099 0.24774 1.16121
-0.254225 0.247627 1.16515
-0.326755 0.247574 1.11854
-0.197431 0.247461 1.17378
-0.0397582 0.247411 1.24225
-0.221287 0.247298 1.14207
-0.00716954 0.247306 1.23788
-0.355336 0.247193 1.0544
-0.184812 0.24708 1.13028
-0.179459 0.247035 1.12254
-0.197657 0.246921 1.10407
-0.330664 0.246878 1.02713
-0.375367 0.246765 0.995431
-0.185287 0.246781 1.07913
-0.00453856 0.246668 1.16017
0.0907417 0.246555 1.19848
0.199053 0.246516 1.24216
-0.126047 0.246403 1.0703
-0.292848 0.246367 0.97639
-0.113152 0.24631 1.05605
-0.377081 0.246253 0.913911
-0.0965688 0.246163 1.04453
-0.233775 0.246106 0.965765
-0.187437 0.246017 0.979282
-0.192763 0.245904 0.967372
0.0967513 0.245874 1.10155
-0.161442 0.245817 0.962312
-0.372033 0.245761 0.846878
-0.115133 0.245676 0.965645
0.0832412 0.245619 1.05471
-0.158713 0.245537 0.924029
-0.534942 0.24548 0.725799
-0.145918 0.245456 0.909665
-0.126134 0.245343 0.910382
-0.00520242 0.245286 0.96075
-0.0838931 0.245207 0.911675
-0.344859 0.245151 0.771105
-0.157789 0.245074 0.854894
0.0356617 0.245017 0.941544
-0.381145 0.244998 0.722431
-0.162149 0.244885 0.822812
-0.085353 0.244868 0.85048
0.0751362 0.244755 0.921624
-0.288498 0.24474 0.729056
0.0935317 0.244626 0.910986
-0.0326064 0.244669 0.836185
-0.250221 0.244556 0.718306
-0.125548 0.244499 0.770614
-0.000272025 0.24443 0.823434
-0.0664169 0.244373 0.780344
0.0286122 0.244306 0.818028
0.148916 0.244249 0.868173
-0.0566937 0.24424 0.754543
0.204842 0.244183 0.875313
-0.068801 0.244119 0.728633
-0.259701 0.244062 0.623196
-0.25863 0.243998 0.613863
0.0935154 0.243942 0.779959
-0.0566421 0.243936 0.694004
-0.0982424 0.243879 0.663235
-0.00505554 0.243818 0.699939
-0.376512 0.243815 0.503301
-0.165468 0.243758 0.598868
0.123151 0.243756 0.732254
-0.0469435 0.243699 0.637259
-0.287599 0.243641 0.507009
-0.144861 0.243641 0.567426
-0.0264926 0.243584 0.616677
-0.202878 0.243585 0.51752
0.0727331 0.243586 0.644349
-0.0447811 0.243529 0.575668
0.0575377 0.243531 0.61584
-0.0184218 0.243534 0.566862
-0.0247453 0.243655 0.55055
-0.162975 0.243716 0.469364
0.0899015 0.243839 0.582589
-0.292118 0.269494 1.95299
-0.30559 0.26933 1.93652
-0.310073 0.269168 1.92453
-0.431526 0.269051 1.85358
-0.229409 0.268933 1.94443
-0.282157 0.268774 1.90831
-0.248438 0.268657 1.91499
-0.217263 0.268525 1.92056
-0.324199 0.268383 1.85719
-0.160607 0.268257 1.92893
-0.116212 0.26814 1.94098
-0.331026 0.267993 1.82377
-0.249006 0.267849 1.85496
-0.249794 0.267731 1.84446
-0.0947939 0.26759 1.91212
-0.140406 0.267473 1.87923
-0.511622 0.267355 1.68354
0.0528861 0.267217 1.95596
-0.487318 0.267099 1.6758
-0.196444 0.266981 1.8112
-0.173425 0.266846 1.81287
-0.282051 0.266728 1.74853
0.0122905 0.266644 1.88529
-0.280014 0.266518 1.72923
-0.244771 0.266396 1.73691
-0.179743 0.266278 1.75944
-0.0959271 0.26616 1.79138
-0.208332 0.266042 1.72521
-0.356686 0.265924 1.64108
0.052271 0.265804 1.83564
-0.309774 0.265686 1.64468
-0.27171 0.265627 1.65308
-0.168754 0.26551 1.69463
-0.0739789 0.265392 1.73211
-0.325834 0.265278 1.59624
-0.107506 0.265168 1.69543
-0.29359 0.26505 1.59251
-0.44229 0.264942 1.50817
-0.285304 0.264824 1.57681
-0.104518 0.264719 1.65719
-0.139702 0.264601 1.62976
-0.201014 0.264559 1.58833
-0.29767 0.26444 1.53019
-0.174105 0.264342 1.58192
-0.0619844 0.264224 1.62818
-0.233755 0.264128 1.53222
-0.352318 0.26401 1.46316
-0.452154 0.263917 1.40315
-0.0459829 0.263799 1.59648
-0.324704 0.26374 1.44661
-0.21357 0.26365 1.49207
-0.0215158 0.263564 1.57795
-0.331346 0.263445 1.41332
-0.322902 0.263362 1.40737
-0.0732299 0.263243 1.52251
-0.000698907 0.263162 1.54859
-0.045678 0.263044 1.51642
-0.399568 0.262985 1.32902
-0.19538 0.262907 1.42091
-0.208469 0.262788 1.40471
-0.291242 0.262713 1.35309
-0.0116298 0.262595 1.48326
-0.207962 0.262523 1.37485
-0.150111 0.262404 1.39415
-0.148347 0.262394 1.38396
-0.178139 0.262276 1.35946
0.188038 0.262209 1.53225
-0.157391 0.262091 1.34995
-0.399589 0.262027 1.21853
-0.148699 0.261908 1.33441
-0.0531368 0.261847 1.37184
-0.135273 0.261728 1.32123
-0.348504 0.261669 1.20425
-0.362572 0.261611 1.18685
0.0252581 0.261492 1.37124
-0.167765 0.261436 1.26434
-0.43135 0.261318 1.12304
-0.0911933 0.261265 1.28271
-0.172846 0.261146 1.23239
-0.287254 0.261155 1.16391
-0.284038 0.261036 1.15605
-0.398045 0.260977 1.08874
-0.190027 0.260869 1.18313
-0.191489 0.26081 1.17211
-0.264682 0.260705 1.12588
-0.167945 0.260645 1.16396
0.141104 0.260543 1.30883
-0.272171 0.260483 1.09193
-0.173851 0.260443 1.13055
-0.225361 0.260324 1.0954
-0.333306 0.260286 1.03087
-0.175906 0.260167 1.10019
-0.235311 0.260131 1.05991
-0.128494 0.260012 1.10396
-0.0864346 0.260037 1.1135
-0.0315005 0.259918 1.13162
-0.106337 0.259859 1.08399
-0.238358 0.259768 1.00823
-0.0553038 0.259708 1.08955
-0.0876968 0.259619 1.0636
-0.040195 0.25956 1.07715
-0.131072 0.259533 1.02104
-0.143866 0.259414 1.00535
0.0645873 0.259388 1.09888
-0.0103951 0.259269 1.05212
-0.225465 0.259246 0.933869
-0.313506 0.259186 0.879685
-0.0406102 0.259165 1.00539
-0.351617 0.259046 0.840648
0.117734 0.259026 1.06456
-0.0551084 0.258907 0.968915
-0.163108 0.258889 0.904131
-0.269215 0.25883 0.840945
-0.245635 0.258754 0.842858
-0.129121 0.258695 0.890993
0.0536572 0.25868 0.971556
-0.0970166 0.258621 0.886106
0.0968669 0.258548 0.97314
-0.0961902 0.258489 0.86651
-0.0569567 0.258418 0.876206
-0.136884 0.258468 0.82441
-0.143944 0.258349 0.811739
-0.0141084 0.258341 0.865753
-0.204864 0.258281 0.760295
-0.111633 0.258214 0.796946
0.108475 0.258209 0.89606
-0.218175 0.258149 0.722669
-0.117743 0.258145 0.761928
0.113988 0.258085 0.867735
-0.124444 0.258022 0.738518
0.163292 0.25802 0.871399
-0.159906 0.258019 0.698796
-0.179576 0.258079 0.676963
0.0782366 0.257959 0.796808
-0.151423 0.25796 0.670946
-0.145884 0.258021 0.661684
-0.188533 0.258024 0.629299
-0.181471 0.25815 0.619713
-0.0656654 0.25809 0.667583
0.0547805 0.258343 0.712558
-0.338816 0.28292 1.93015
-0.299041 0.282728 1.94049
-0.217602 0.282605 1.97098
-0.183828 0.282445 1.97804
-0.225322 0.282321 1.94708
-0.2906 0.282164 1.90461
-0.188535 0.282041 1.94545
-0.476459 0.281886 1.79164
-0.21111 0.281763 1.91415
-0.267674 0.28164 1.87572
-0.211112 0.281489 1.89415
-0.109273 0.281365 1.93494
-0.318568 0.281257 1.82001
-0.352636 0.281093 1.7933
-0.0823563 0.280992 1.9181
0.0956757 0.280853 1.99719
-0.281372 0.280718 1.79872
-0.0774033 0.280595 1.89063
-0.411444 0.280471 1.71355
-0.104042 0.280348 1.8572
-0.201777 0.280215 1.7984
-0.00331535 0.280092 1.8876
-0.264154 0.279968 1.74716
-0.319352 0.279899 1.70895
-0.36142 0.279775 1.67792
-0.322925 0.279651 1.68718
-0.0531825 0.279528 1.81207
-0.206166 0.279405 1.7256
-0.206466 0.279286 1.71544
-0.103035 0.279162 1.75721
-0.265302 0.279046 1.66605
-0.514166 0.278922 1.5317
-0.112542 0.27886 1.72188
-0.350399 0.278685 1.59363
-0.15791 0.278637 1.6791
-0.451684 0.278513 1.52232
-0.33296 0.278407 1.5716
-0.452334 0.278283 1.50204
-0.273724 0.278179 1.58125
-0.233948 0.278055 1.59129
-0.186513 0.277955 1.60489
-0.139365 0.277831 1.61863
-0.187143 0.277796 1.58386
-0.0513597 0.277672 1.64194
-0.0668502 0.277577 1.62403
-0.192675 0.277454 1.55132
-0.129995 0.277362 1.57248
-0.156874 0.277238 1.54927
-0.386738 0.27715 1.42413
-0.311863 0.277026 1.45181
-0.15872 0.277003 1.51739
-0.0390541 0.276879 1.56749
0.0267194 0.276798 1.59012
-0.0774774 0.276674 1.5283
-0.0466454 0.276595 1.53345
-0.321852 0.276471 1.38614
-0.220292 0.276395 1.42662
-0.15476 0.27627 1.44971
-0.153647 0.27626 1.43916
-0.131764 0.276135 1.44043
-0.0257521 0.276065 1.48309
-0.334558 0.275941 1.31904
-0.131304 0.275874 1.4103
-0.342038 0.27575 1.2953
-0.256698 0.275686 1.32758
-0.141517 0.275561 1.37556
-0.162959 0.275562 1.35362
-0.0972045 0.275438 1.3769
-0.290333 0.275376 1.26994
-0.204602 0.275255 1.30318
-0.0205707 0.275193 1.38481
-0.117343 0.275075 1.32678
-0.175005 0.275012 1.28758
-0.371065 0.274897 1.17988
-0.272613 0.274835 1.21875
-0.192763 0.274784 1.24817
-0.278918 0.274722 1.19474
-0.0218436 0.274612 1.31358
-0.339555 0.27455 1.14439
-0.148284 0.274442 1.2303
-0.139646 0.27438 1.2243
0.0460494 0.274337 1.30656
0.0113125 0.274213 1.27972
-0.189479 0.274172 1.16872
-0.323674 0.27411 1.09132
-0.225787 0.27401 1.13049
-0.102507 0.273947 1.18184
-0.209452 0.27385 1.11857
-0.0722535 0.273787 1.17689
-0.362266 0.273754 1.02121
-0.101009 0.273692 1.14157
-0.220005 0.273598 1.07224
-0.14738 0.273536 1.09829
-0.212932 0.273445 1.05566
-0.221598 0.273418 1.04058
-0.297398 0.273356 0.992439
-0.185855 0.273294 1.03797
-0.316603 0.273207 0.962715
-0.116158 0.273184 1.05214
-0.169116 0.273059 1.01633
0.069224 0.273039 1.12469
-0.0599326 0.272977 1.0499
-0.198496 0.272958 0.96978
-0.246234 0.272895 0.935707
0.106063 0.272816 1.1019
-0.126943 0.272754 0.975206
-0.282956 0.272676 0.887231
-0.261399 0.272663 0.887112
-0.0576124 0.272601 0.978827
-0.275441 0.272589 0.858995
-0.151646 0.272526 0.910722
-0.00789117 0.272454 0.972584
-0.0610039 0.272445 0.935072
0.00489473 0.272438 0.957045
0.119531 0.272376 1.00421
0.00725365 0.27237 0.937076
-0.161825 0.272307 0.842391
-0.0295577 0.272303 0.897515
0.10579 0.2723 0.95416
0.13589 0.272297 0.958165
-8.42287e-05 0.272296 0.879115
-0.431595 0.272296 0.652282
0.123921 0.272297 0.918948
-0.182299 0.272362 0.753779
-0.0155921 0.272364 0.826011
-0.127752 0.272497 0.756818
-0.171623 0.272564 0.722764
-0.347557 0.296181 1.91634
-0.272478 0.296019 1.94398
-0.202208 0.29589 1.96889
-0.216625 0.295729 1.95179
-0.174193 0.295576 1.96305
-0.319616 0.295448 1.88015
-0.134595 0.295296 1.96272
-0.358403 0.295167 1.84065
-0.370017 0.295038 1.82468
-0.373889 0.294889 1.8128
-0.472751 0.29476 1.75324
-0.218079 0.294631 1.87045
-0.0759897 0.294486 1.93155
-0.072708 0.294357 1.92309
-0.146166 0.294263 1.8759
-0.204812 0.294134 1.83649
-0.389953 0.294002 1.73388
-0.188358 0.293873 1.82461
-0.356659 0.293744 1.7304
-0.535015 0.293615 1.63118
-0.230517 0.293486 1.7734
-0.453567 0.293357 1.65185
-0.121234 0.293228 1.808
-0.389864 0.293103 1.66364
-0.246093 0.293038 1.72484
-0.505884 0.292916 1.58488
-0.202992 0.292787 1.72636
-0.289734 0.292668 1.6729
-0.124844 0.292553 1.74524
-0.183644 0.292424 1.7059
-0.185483 0.292312 1.69485
-0.257264 0.292182 1.64904
-0.287224 0.292074 1.62391
-0.260367 0.291944 1.62744
-0.288948 0.291903 1.60226
-0.0547722 0.291774 1.70946
-0.0663761 0.291672 1.69348
-0.440043 0.291542 1.49678
-0.294515 0.291444 1.55934
-0.0589678 0.291348 1.66688
0.166684 0.291219 1.76986
-0.31823 0.291154 1.51683
-0.358648 0.291061 1.48638
-0.0743632 0.290932 1.61871
-0.172119 0.290843 1.55956
-0.0172926 0.290757 1.62667
-0.514531 0.290627 1.36827
-0.29853 0.290544 1.46595
-0.12669 0.290415 1.5421
-0.347733 0.290335 1.42123
-0.0682646 0.290205 1.55122
-0.362507 0.290194 1.39297
-0.368101 0.290064 1.38044
-0.266791 0.28999 1.4207
-0.0893237 0.289861 1.49972
-0.0721182 0.28979 1.49791
-0.146679 0.28966 1.45093
-0.302518 0.289593 1.36258
-0.183653 0.289463 1.41233
-0.293093 0.289464 1.34637
-0.237648 0.289334 1.36443
-0.0195789 0.289269 1.46302
-0.265157 0.289142 1.33054
-0.0205174 0.289083 1.44236
-0.192683 0.288954 1.34665
-0.304444 0.288898 1.28024
-0.311078 0.288833 1.26651
-0.172053 0.28878 1.32546
-0.0785901 0.28865 1.3626
-0.354238 0.288599 1.2142
-0.139002 0.288469 1.31224
0.0978522 0.288422 1.42006
-0.0427314 0.288357 1.33939
-0.244188 0.288247 1.22886
-0.329781 0.288182 1.17569
-0.179148 0.288139 1.24036
-0.135203 0.288074 1.25197
-0.346569 0.287969 1.13645
-0.0781468 0.287904 1.26031
-0.185168 0.287802 1.19694
-0.173555 0.287767 1.19203
-0.120969 0.287637 1.20883
-0.117101 0.287669 1.19917
-0.15849 0.287539 1.16901
-0.17081 0.287509 1.15208
-0.309454 0.287444 1.07244
0.0199437 0.28735 1.22721
-0.00992916 0.287285 1.20197
-0.375182 0.287259 1.00853
-0.00849579 0.287194 1.18158
-0.294774 0.287106 1.02848
-0.224912 0.287084 1.05255
0.021943 0.287019 1.1657
-0.1655 0.286934 1.06197
-0.258519 0.286916 1.00456
-0.136062 0.286851 1.05552
-0.112179 0.286835 1.05654
0.0306828 0.28677 1.11772
-0.165547 0.286691 1.00955
-0.230452 0.286679 0.966131
-0.251887 0.286668 0.944427
-0.0888833 0.286603 1.01569
-0.1843 0.286594 0.956979
-0.0794779 0.286586 0.998364
0.0343915 0.286521 1.04507
-0.212129 0.286515 0.910771
-0.0578243 0.28651 0.976862
-0.0704183 0.286507 0.959486
-0.174819 0.286505 0.896189
-0.210104 0.286504 0.867433
-0.326232 0.286504 0.798241
0.0255255 0.286571 0.962055
0.0885276 0.286706 0.980505
-0.0894318 0.286641 0.881319
-0.117213 0.28678 0.854317
0.142141 0.287675 0.960067
-0.434529 0.309577 1.87348
-0.463562 0.309443 1.84873
-0.195209 0.309309 1.97268
-0.216419 0.309146 1.95213
-0.283759 0.309033 1.90806
-0.112786 0.308881 1.98352
-0.382579 0.308747 1.83845
-0.394653 0.308598 1.82238
-0.328788 0.308464 1.84515
-0.305475 0.308319 1.84676
-0.40857 0.308184 1.78507
-0.434925 0.30805 1.76177
-0.129435 0.307908 1.90447
-0.289037 0.307774 1.81456
-0.185588 0.307703 1.85555
-0.372666 0.307501 1.75259
-0.455427 0.307433 1.70046
-0.406673 0.307299 1.71477
-0.155203 0.307168 1.83041
-0.249166 0.307033 1.77338
-0.296107 0.306905 1.7398
-0.390669 0.306771 1.68249
-0.242193 0.306646 1.7466
-0.338883 0.306526 1.68811
-0.314364 0.306391 1.69037
-0.232659 0.306323 1.72054
-0.308264 0.306206 1.67257
0.0707344 0.306092 1.85188
-0.0528553 0.305958 1.78012
-0.400024 0.305847 1.59633
-0.288284 0.305712 1.64226
-0.110988 0.305605 1.72068
-0.225545 0.305502 1.65314
-0.281817 0.305367 1.61509
-0.239517 0.305299 1.62562
0.0246092 0.305199 1.74741
-0.14538 0.305103 1.65212
-0.200969 0.304968 1.61445
-0.164824 0.304874 1.6222
0.0776328 0.304739 1.73357
-0.0672591 0.304649 1.65078
-0.294519 0.304514 1.52731
-0.265836 0.304427 1.5313
-0.275599 0.304292 1.51659
-0.133917 0.304276 1.57631
-0.136176 0.304141 1.56537
-0.1376 0.304061 1.55425
-0.178924 0.303926 1.5238
-0.147485 0.303849 1.52909
-0.103538 0.303775 1.54061
-0.344315 0.30364 1.41046
-0.330352 0.303572 1.40693
-0.20471 0.303501 1.45927
-0.320223 0.303433 1.39101
-0.376247 0.303298 1.35327
-0.198353 0.303231 1.43173
-0.0384194 0.303098 1.50195
0.0828964 0.303037 1.55206
-0.219065 0.302901 1.39138
-0.165254 0.30291 1.40693
-0.116575 0.302775 1.4216
-0.192398 0.302719 1.37309
-0.117157 0.302652 1.40026
-0.153986 0.302531 1.37201
-0.0258536 0.302463 1.42564
-0.0780699 0.302346 1.38969
-0.269408 0.302298 1.28335
-0.370318 0.302163 1.22328
-0.0403966 0.302186 1.37674
-0.294941 0.302051 1.23986
-0.176238 0.302009 1.28849
-0.170871 0.301941 1.28078
-0.243366 0.301834 1.2346
0.00113041 0.301797 1.34609
-0.00339281 0.301662 1.33426
-0.110059 0.301695 1.26931
-0.127998 0.30156 1.2508
-0.524544 0.301528 1.04171
-0.151535 0.30146 1.21785
-0.19837 0.301363 1.18443
-0.150471 0.301336 1.19752
-0.175847 0.301268 1.17448
-0.16913 0.301243 1.16696
-0.0714618 0.301175 1.20545
-0.0774368 0.301085 1.19241
0.0250983 0.301064 1.23276
-0.271667 0.300996 1.07404
-0.171134 0.300978 1.11337
-0.438484 0.300961 0.968721
-0.267667 0.300893 1.04381
-0.0438391 0.30081 1.1456
-0.140614 0.300798 1.08621
-0.00022743 0.300787 1.14537
-0.0809989 0.300777 1.09393
0.0970004 0.300709 1.17263
-0.12772 0.300701 1.0492
0.0346506 0.300695 1.1193
0.0128275 0.300691 1.09728
-0.113067 0.300687 1.02321
0.0643179 0.300685 1.10076
-0.166967 0.300752 0.973067
-0.107706 0.300753 0.991522
-0.0641512 0.300822 1.00121
-0.103435 0.300964 0.96852
-0.292671 0.301109 0.860794
0.0409423 0.301183 1.01543
-0.101158 0.32289 2.03
-0.31351 0.32275 1.9136
-0.262126 0.322591 1.92925
-0.0869012 0.322451 2.00666
-0.101759 0.322354 1.98864
-0.419947 0.322156 1.8199
-0.219394 0.322062 1.90957
-0.435888 0.321922 1.79116
-0.331032 0.321782 1.83344
-0.269903 0.321642 1.85386
-0.190982 0.321502 1.88319
-0.327103 0.321362 1.80501
-0.0318483 0.321221 1.94252
-0.00242088 0.321084 1.9471
-0.389527 0.321014 1.74279
-0.201537 0.320811 1.82731
-0.0161894 0.320751 1.90913
-0.34323 0.320611 1.73555
-0.253964 0.320485 1.76999
-0.330479 0.320345 1.72169
-0.18681 0.320222 1.78331
-0.0237804 0.320103 1.85459
-0.512674 0.319963 1.60013
-0.310501 0.319848 1.69096
-0.0934956 0.319707 1.78947
-0.173885 0.319666 1.73831
-0.133077 0.319525 1.74873
-0.0923557 0.319417 1.7588
-0.0266363 0.319277 1.7817
-0.405238 0.319172 1.58209
-0.0511691 0.319071 1.74878
-0.355751 0.318931 1.58656
0.0156106 0.318833 1.76188
-0.101009 0.318693 1.69366
-0.19876 0.318669 1.63368
-0.156054 0.318528 1.64514
-0.207833 0.318438 1.60884
-0.264983 0.318297 1.57039
-0.233002 0.31821 1.57596
-0.268508 0.318126 1.54775
-0.295919 0.317985 1.52419
-0.349366 0.317905 1.487
-0.455709 0.317764 1.42399
-0.239572 0.317757 1.52082
-0.104091 0.317616 1.57874
-0.235812 0.317542 1.50236
-0.311433 0.317402 1.45475
-0.173975 0.317331 1.51294
-0.269359 0.317261 1.45471
-0.2798 0.317123 1.43968
-0.282532 0.317129 1.42696
0.0283969 0.316917 1.57343
-0.119249 0.316926 1.48823
0.0385866 0.316786 1.55741
-0.30748 0.316727 1.37373
-0.369093 0.316657 1.33243
-0.256981 0.316531 1.3786
-0.402515 0.316461 1.29534
-0.143249 0.316338 1.41508
-0.0586245 0.316359 1.44589
-0.154983 0.316218 1.38803
-0.283728 0.316172 1.31292
-0.0209902 0.316101 1.43383
-0.175554 0.315987 1.34658
-0.317808 0.315946 1.26467
-0.0958802 0.315875 1.36519
-0.131534 0.315837 1.33656
-0.0279093 0.315766 1.37793
-0.286503 0.31566 1.23862
-0.123015 0.315627 1.3095
0.0604238 0.315556 1.3908
-0.182794 0.315455 1.25913
-0.142785 0.315427 1.26824
-0.0539842 0.315356 1.30223
0.088337 0.31533 1.36247
-0.131954 0.315259 1.24193
-0.03366 0.315165 1.28096
-0.0555682 0.315144 1.25904
-0.0616444 0.315124 1.24501
0.039055 0.315054 1.28498
-0.0289997 0.315036 1.23994
-0.141441 0.315021 1.17269
-0.158672 0.31495 1.15371
0.011222 0.314937 1.2276
-0.423217 0.314926 0.999311
-0.0731451 0.314916 1.16325
-0.142769 0.314908 1.11733
0.024095 0.314901 1.18963
-0.0488592 0.314897 1.142
0.0572981 0.314893 1.18391
-0.0557129 0.314962 1.11535
-0.222143 0.314961 1.02094
-0.0349199 0.315033 1.10246
-0.1808 0.315034 1.01828
-0.192307 0.315183 0.999479
-0.0935087 0.315482 1.03393
-0.0967576 0.315709 1.01825
-0.356157 0.336368 1.90228
-0.239551 0.336223 1.95036
-0.301105 0.336077 1.90937
-0.427744 0.335923 1.83591
-0.324698 0.335777 1.87724
-0.320185 0.335627 1.86935
-0.409761 0.335553 1.81375
-0.342594 0.335408 1.83717
-0.205321 0.335262 1.89565
-0.130991 0.335119 1.92264
-0.248941 0.33498 1.85347
-0.0848301 0.334835 1.92539
0.0529253 0.334699 1.98406
-0.453112 0.334568 1.7208
-0.560971 0.334422 1.65677
-0.327365 0.334295 1.76332
-0.26293 0.334149 1.78546
-0.16856 0.334098 1.8217
-0.286665 0.333952 1.75258
-0.075568 0.333832 1.84784
-0.280652 0.333715 1.73498
-0.0165593 0.333569 1.857
-0.292373 0.333457 1.70875
-0.313927 0.333311 1.68796
0.150439 0.333202 1.90979
-0.348548 0.333129 1.64961
-0.138351 0.33295 1.74503
-0.178943 0.332922 1.71363
-0.0830936 0.332776 1.75159
-0.314878 0.332677 1.62527
-0.255476 0.332531 1.64502
-0.155885 0.332437 1.68437
-0.271628 0.332346 1.61603
-0.224482 0.3322 1.62968
-0.207269 0.332185 1.62708
-0.197728 0.331966 1.62266
-0.0256471 0.331955 1.69746
-0.0264081 0.331809 1.68719
-0.135405 0.331728 1.62216
-0.198605 0.331651 1.58
-0.428487 0.331505 1.45519
-0.245306 0.331431 1.5362
-0.202374 0.331285 1.54782
0.105805 0.331288 1.69056
-0.401337 0.331142 1.42715
-0.222292 0.331074 1.50605
-0.0602658 0.331001 1.5765
-0.146141 0.330864 1.52366
-0.167327 0.330803 1.50239
0.043759 0.330657 1.59814
-0.161688 0.330599 1.48472
-0.149927 0.330526 1.48006
-0.0853851 0.330472 1.50161
-0.110862 0.330398 1.47834
-0.166087 0.330274 1.44075
0.0361509 0.330225 1.5311
-0.0559169 0.330152 1.47456
-0.238552 0.330033 1.37322
-0.0744229 0.32999 1.44446
-0.0599855 0.329917 1.44119
-0.143102 0.329877 1.38879
0.0880219 0.329803 1.49386
-0.266965 0.329693 1.3063
-0.187704 0.329658 1.33503
-0.378084 0.329626 1.22893
-0.0819734 0.329553 1.36652
-0.0178057 0.329523 1.38766
-0.209872 0.32945 1.28117
-0.158912 0.329423 1.29569
-0.167059 0.329325 1.28144
-0.276786 0.329303 1.21557
-0.104738 0.329282 1.29057
0.015989 0.329209 1.3405
-0.212362 0.329191 1.21527
-0.235519 0.329175 1.19262
0.134625 0.329161 1.3666
-0.214871 0.329088 1.18143
-0.0622566 0.329076 1.24663
-0.316548 0.329066 1.10835
-0.0749786 0.329058 1.21798
-0.00116459 0.329125 1.24288
-0.266088 0.32912 1.09923
-0.0928185 0.329117 1.17465
0.102093 0.329188 1.26004
0.186904 0.329262 1.29034
0.0444002 0.329338 1.20696
-0.276637 0.329492 1.0334
0.0191367 0.329804 1.16638
-0.126717 0.330041 1.07942
-0.35607 0.349731 1.8916
-0.175965 0.34958 1.97143
-0.405616 0.349429 1.8464
-0.503136 0.34928 1.78741
