ply
format ascii 1.0
comment Created by Open3D
element vertex 1729
property double x
property double y
property double z
end_header
-0.179581 0.138251 0.475692
-0.169459 0.138201 0.471617
-0.157361 0.138165 0.468095
-0.187623 0.138093 0.444563
-0.168973 0.138045 0.444705
-0.156442 0.137974 0.44258
-0.254169 0.137938 0.384168
-0.206151 0.137892 0.398948
-0.00667637 0.137821 0.490312
-0.244386 0.13775 0.363093
-0.0728849 0.137742 0.438397
-0.192442 0.137671 0.370262
-0.231667 0.1376 0.342301
-0.203205 0.137559 0.347205
-0.181517 0.137488 0.34971
-0.140177 0.137453 0.360877
-0.214116 0.137382 0.315583
-0.311274 0.137343 0.257629
-0.129772 0.137273 0.340064
-0.198192 0.137238 0.296371
-0.131582 0.137201 0.320249
-0.0753751 0.137131 0.340053
-0.221372 0.137062 0.258762
-0.14228 0.137027 0.288844
-0.273749 0.136957 0.214831
-0.396293 0.136923 0.144081
-0.224244 0.136854 0.221835
-0.327385 0.136784 0.162001
-0.343565 0.13675 0.144472
0.011733 0.136681 0.313872
-0.174482 0.136649 0.211234
-0.162982 0.136581 0.208741
-0.0537875 0.136546 0.253917
-0.211154 0.136478 0.167004
-0.205768 0.136409 0.161474
-0.252747 0.136341 0.129769
-0.188174 0.136346 0.151282
-0.307759 0.136278 0.0832784
-0.141996 0.13621 0.157956
-0.242182 0.136142 0.0996659
-0.143684 0.136108 0.139533
-0.142873 0.136041 0.131754
-0.242994 0.135973 0.0735148
-0.348914 0.135906 0.0123831
-0.264701 0.135838 0.0463242
-0.204183 0.135805 0.0672287
-0.243396 0.135738 0.0394689
-0.04782 0.135704 0.127913
-0.00274202 0.135646 0.141995
-0.0519232 0.135613 0.108066
-0.177562 0.135546 0.037109
-0.288061 0.135479 -0.0262727
-0.105089 0.135413 0.0570869
-0.147219 0.13538 0.026704
-0.319938 0.135314 -0.0677707
0.147696 0.161331 1.42139
0.17121 0.160685 1.43634
0.11371 0.160302 1.40488
0.0138198 0.160066 1.34891
-0.070088 0.159759 1.30259
0.0468509 0.159482 1.35606
-0.104587 0.159296 1.27328
-0.0779165 0.159068 1.28056
-0.151569 0.158842 1.23765
-0.0540895 0.158619 1.28028
0.0531775 0.158464 1.32623
-0.0545403 0.158246 1.2662
-0.0782405 0.158094 1.24666
-0.209714 0.157987 1.17218
-0.150086 0.157777 1.19572
-0.280836 0.157629 1.12262
-0.144565 0.157482 1.18302
-0.280894 0.157381 1.10606
-0.0775767 0.157237 1.19996
-0.00679005 0.15704 1.22888
-0.291292 0.156952 1.07756
-0.0475643 0.156856 1.19057
-0.155788 0.156667 1.12986
-0.239923 0.15658 1.07876
-0.103329 0.156488 1.13815
-0.183641 0.156354 1.09013
-0.27597 0.156221 1.03609
-0.227084 0.15609 1.05263
-0.16125 0.156003 1.07658
-0.107451 0.155875 1.09552
-0.147595 0.155789 1.06649
-0.0915076 0.155668 1.08646
-0.136901 0.155545 1.05574
-0.129638 0.155459 1.05045
-0.167336 0.155372 1.02269
-0.178962 0.155261 1.00861
-0.131688 0.155144 1.02416
-0.193716 0.155058 0.984262
-0.227601 0.154985 0.958124
-0.357739 0.154872 0.884911
-0.108179 0.154786 1.00084
-0.241665 0.154701 0.925259
-0.324304 0.154607 0.875325
-0.200889 0.154522 0.92821
-0.224207 0.154437 0.90774
-0.171807 0.154351 0.925174
-0.11366 0.154266 0.945453
-0.131848 0.154182 0.927575
-0.274107 0.154103 0.847522
-0.16547 0.154003 0.893479
-0.244974 0.153935 0.844561
-0.106808 0.153863 0.904556
-0.212554 0.153768 0.843252
-0.230546 0.153684 0.825519
-0.126887 0.153632 0.86778
-0.136937 0.15354 0.854251
-0.194217 0.153457 0.816898
-0.179317 0.153374 0.815646
-0.222506 0.153322 0.784526
-0.201139 0.153239 0.786518
-0.194247 0.153156 0.781284
-0.352166 0.153112 0.692599
-0.112832 0.153029 0.803612
-0.238201 0.152947 0.732269
-0.330363 0.152906 0.676419
-0.221713 0.152823 0.722104
-0.093092 0.152743 0.777734
-0.174271 0.152661 0.728521
-0.0694723 0.15262 0.77118
-0.0649312 0.152542 0.764736
-0.344943 0.152466 0.615969
-0.1805 0.152384 0.689597
-0.249628 0.152351 0.645101
-0.161799 0.15227 0.680435
-0.103995 0.152198 0.700493
-0.216216 0.152117 0.635816
-0.223791 0.152088 0.622007
-0.109106 0.152007 0.670796
-0.278909 0.15194 0.576964
-0.03618 0.1519 0.688651
-0.183859 0.151835 0.605837
-0.212435 0.151755 0.583021
-0.148413 0.151692 0.606012
-0.225501 0.151652 0.557812
-0.0526368 0.151572 0.635737
-0.259596 0.151512 0.523196
-0.312089 0.151432 0.488456
-0.277805 0.151414 0.495345
-0.144936 0.151334 0.553296
-0.233263 0.151278 0.499978
-0.15973 0.151199 0.528274
-0.19489 0.15116 0.501081
-0.0341884 0.151106 0.572234
-0.262831 0.151027 0.449461
-0.217078 0.150976 0.463091
-0.193983 0.150937 0.465044
-0.29105 0.150858 0.408077
-0.160609 0.150809 0.464006
-0.147816 0.150731 0.46198
-0.267934 0.150692 0.392349
-0.23464 0.150645 0.399657
-0.219907 0.150567 0.398619
-0.0920825 0.150523 0.453144
-0.097893 0.150484 0.440683
-0.247395 0.150407 0.357544
-0.127419 0.150365 0.408097
-0.199858 0.150287 0.363499
-0.172142 0.15021 0.368987
-0.111239 0.150209 0.388791
-0.303514 0.150132 0.284291
-0.0806281 0.150056 0.387379
-0.153781 0.150017 0.341288
-0.0515993 0.14998 0.382848
-0.0979891 0.149904 0.351314
-0.131407 0.149828 0.326274
-0.0925735 0.14979 0.336196
-0.0862332 0.149754 0.329785
-0.0507665 0.149679 0.339201
-0.089715 0.149603 0.311418
-0.295947 0.149565 0.198826
-0.288996 0.149495 0.193843
-0.218873 0.149458 0.219437
-0.286654 0.149382 0.177258
-0.0558077 0.149307 0.284401
-0.13954 0.149277 0.23285
-0.041977 0.14924 0.272182
-0.0486427 0.149166 0.260581
-0.186555 0.149091 0.183364
-0.26746 0.149017 0.134658
-0.324436 0.14898 0.096743
-0.247622 0.148952 0.125412
-0.187679 0.148878 0.147142
-0.285424 0.148805 0.0900346
-0.0466239 0.148731 0.201207
-0.276761 0.148657 0.0779164
-0.142402 0.148621 0.135697
-0.153265 0.148547 0.122056
-0.0915276 0.148474 0.144723
-0.120729 0.148437 0.120739
0.0128525 0.148414 0.177731
-0.297474 0.148341 0.0143757
-0.0469495 0.148268 0.131452
-0.0524978 0.148196 0.120497
-0.182206 0.148123 0.0474685
-0.0655604 0.148087 0.0964353
-0.113203 0.148015 0.0644514
-0.0491692 0.147943 0.0883113
-0.226752 0.147871 -0.00863146
-0.147778 0.147835 0.0215197
-0.15301 0.147763 0.0107641
-0.0783372 0.174811 1.33061
0.0158193 0.174189 1.37916
0.0299509 0.173774 1.38345
-0.125906 0.173519 1.29944
0.0144865 0.173188 1.3652
-0.0370914 0.172937 1.33333
-0.0472741 0.172688 1.32214
0.163299 0.172441 1.42131
0.0752166 0.172198 1.37112
-0.0224767 0.171957 1.3161
0.0126576 0.171791 1.32594
-0.171457 0.171673 1.22512
-0.17447 0.17144 1.21736
0.0132471 0.171277 1.30346
0.0268903 0.171051 1.30394
-0.190335 0.170955 1.18616
-0.0500346 0.170782 1.24887
0.0624525 0.170625 1.29731
-0.147556 0.17047 1.1845
-0.0550752 0.170317 1.22292
-0.210592 0.170212 1.13628
-0.18221 0.170061 1.14262
-0.256642 0.169912 1.09754
-0.0410231 0.169812 1.19641
-0.095605 0.169666 1.16122
-0.254186 0.169522 1.07402
-0.0370428 0.169426 1.17359
-0.00267261 0.169285 1.18282
-0.156718 0.169146 1.09782
-0.169593 0.169053 1.08239
-0.136764 0.16892 1.0907
-0.220597 0.168787 1.04073
-0.219314 0.168693 1.03241
-0.0810665 0.1686 1.09259
-0.142663 0.168479 1.05351
-0.169205 0.168351 1.03211
-0.0713218 0.168258 1.07214
-0.297763 0.168165 0.95001
-0.110137 0.168055 1.03534
-0.0482362 0.167963 1.0574
-0.223641 0.16786 0.961066
-0.160673 0.167768 0.983679
-0.163488 0.167675 0.973413
-0.109699 0.167581 0.991528
-0.0407874 0.167467 1.01765
-0.0881608 0.167376 0.985132
-0.193864 0.167284 0.923459
0.0226651 0.167193 1.02291
-0.0933523 0.16711 0.955891
-0.180163 0.167019 0.903689
-0.0668635 0.166928 0.951555
-0.198565 0.166854 0.876525
-0.247778 0.166763 0.843148
-0.250997 0.166672 0.832779
-0.211594 0.166606 0.843131
-0.184199 0.166516 0.848081
-0.233215 0.166426 0.814837
-0.236253 0.166368 0.803792
-0.197762 0.166278 0.814313
-0.308 0.166188 0.750481
-0.0479087 0.166139 0.87082
-0.21615 0.16605 0.777996
-0.270776 0.16596 0.741991
-0.140081 0.165871 0.798658
-0.295213 0.165828 0.711275
-0.344697 0.165739 0.677867
-0.31449 0.165653 0.684228
-0.26118 0.165608 0.701115
-0.048703 0.165525 0.798571
-0.366819 0.165444 0.630685
-0.169005 0.165356 0.720962
-0.0554348 0.165321 0.767758
-0.211396 0.165233 0.68116
-0.196881 0.165157 0.679507
-0.0765387 0.165069 0.731076
-0.17054 0.165039 0.673998
-0.0751004 0.164952 0.713128
-0.220473 0.16488 0.631446
-0.124303 0.164793 0.670956
-0.187282 0.164767 0.629298
-0.187778 0.16468 0.620486
-0.116184 0.164614 0.647201
-0.336554 0.16457 0.527332
-0.189789 0.164506 0.591587
-0.199643 0.16442 0.578121
-0.0794553 0.164358 0.629043
-0.288152 0.164315 0.515031
-0.140631 0.164255 0.579573
-0.264762 0.164169 0.508992
-0.149852 0.164126 0.5568
-0.219414 0.164069 0.512759
-0.111782 0.163983 0.558078
-0.234008 0.163929 0.487658
-0.198819 0.163844 0.496768
-0.205858 0.163834 0.48275
-0.267654 0.163749 0.443378
-0.0610451 0.163699 0.537281
-0.156696 0.163614 0.480992
-0.0508455 0.16353 0.525462
-0.161535 0.163524 0.459522
-0.0818504 0.16344 0.490918
-0.294905 0.163394 0.374896
-0.33725 0.163311 0.345288
-0.261759 0.163269 0.373454
-0.256966 0.163226 0.366309
-0.0682838 0.163142 0.452231
-0.336103 0.163059 0.309912
-0.110087 0.16306 0.412176
-0.30604 0.162977 0.305797
-0.0715984 0.162894 0.414624
-0.308354 0.162856 0.286609
-0.0699038 0.162773 0.397449
-0.265357 0.162732 0.290186
-0.064909 0.162691 0.380878
-0.172197 0.162614 0.318712
-0.211151 0.162532 0.290872
-0.148128 0.162491 0.312867
-0.219085 0.162458 0.267656
-0.0490543 0.162376 0.344323
-0.0956622 0.162295 0.312679
-0.00684059 0.162254 0.347591
-0.0969722 0.162223 0.292744
-0.382092 0.162142 0.141858
-0.258758 0.162061 0.195206
-0.0952713 0.162021 0.267469
-0.0103345 0.161952 0.301274
-0.0962346 0.161912 0.24885
-0.179119 0.161831 0.199109
-0.202954 0.161751 0.1789
-0.148156 0.161711 0.196842
-0.226349 0.161646 0.149034
-0.0592846 0.161606 0.223115
-0.207799 0.161526 0.140585
-0.099074 0.161446 0.186682
-0.0991562 0.161367 0.178381
-0.155877 0.161327 0.140593
-0.0934073 0.161305 0.161891
-0.175361 0.161226 0.112665
-0.202958 0.161147 0.0906246
-0.228672 0.161068 0.0695319
-0.039184 0.161029 0.154869
-0.184169 0.16095 0.0741535
-0.0649375 0.160872 0.125552
-0.125015 0.160794 0.0873019
-0.0608178 0.160716 0.111195
-0.081522 0.160677 0.0914631
-0.173682 0.160599 0.0371896
-0.136904 0.160521 0.0473909
-0.209505 0.160443 0.00290811
-0.0252696 0.160366 0.0868497
-0.0769427 0.160327 0.0516591
-0.123951 0.16025 0.0199896
-0.137818 0.188295 1.32314
0.0185381 0.187848 1.39842
-0.0353348 0.187264 1.37129
0.135643 0.18699 1.45064
-0.0871138 0.186634 1.33476
-0.0246725 0.186364 1.35984
-0.136251 0.186097 1.29789
0.0338552 0.185833 1.37676
-0.0343962 0.185572 1.33643
0.111756 0.185443 1.40073
-0.202984 0.185263 1.23559
-0.146801 0.18501 1.2574
-0.0178871 0.184833 1.31408
-0.154397 0.184587 1.23947
-0.123786 0.184465 1.24594
-0.170361 0.184294 1.21484
-0.278063 0.184124 1.15317
-0.246121 0.18389 1.16263
-0.162029 0.183788 1.19552
-0.0827069 0.183611 1.22756
-0.114992 0.183448 1.20353
0.0261322 0.183288 1.26618
-0.0786157 0.183179 1.20485
0.0712663 0.183022 1.27185
-0.0514398 0.182866 1.20254
0.0325958 0.182763 1.23554
-0.128302 0.18261 1.14709
-0.178598 0.18246 1.11392
-0.130137 0.182359 1.12913
-0.305033 0.182258 1.03266
-0.114497 0.182115 1.11981
-0.124098 0.181971 1.10694
-0.2187 0.181871 1.05065
-0.174295 0.181739 1.06455
-0.220911 0.181601 1.03308
0.0396471 0.181501 1.15441
-0.167968 0.181401 1.04166
-0.265405 0.181281 0.984438
-0.171828 0.181181 1.0223
-0.0423113 0.18107 1.07841
-0.22914 0.180942 0.976701
-0.201559 0.180843 0.981594
-0.0671284 0.180744 1.03992
-0.0877599 0.180645 1.02074
-0.136777 0.180546 0.987361
-0.162433 0.180448 0.965675
-0.306857 0.180357 0.88444
-0.209097 0.180259 0.924477
-0.199886 0.180161 0.920251
-0.261056 0.180079 0.88048
-0.0904992 0.179982 0.956941
-0.179227 0.179884 0.903771
-0.144086 0.179811 0.911989
-0.216498 0.179705 0.867187
-0.298591 0.179608 0.817355
-0.193624 0.179553 0.860118
-0.246767 0.179452 0.824877
-0.131621 0.179355 0.873687
-0.0363875 0.179258 0.912552
-0.24046 0.179162 0.801775
-0.215971 0.179112 0.804228
-0.31053 0.179015 0.748224
-0.124238 0.17892 0.832641
-0.26065 0.178872 0.754622
-0.0517904 0.178779 0.850286
-0.105833 0.178688 0.814454
-0.224459 0.178592 0.746453
-0.261595 0.178552 0.717928
-0.156145 0.178456 0.76198
-0.0728377 0.178371 0.794744
-0.228141 0.178323 0.707322
-0.23762 0.17824 0.693653
-0.0272029 0.178159 0.789886
-0.155855 0.178065 0.71692
-0.258924 0.178034 0.655253
-0.275052 0.17794 0.638562
-0.29518 0.177864 0.619439
-0.333398 0.17777 0.591717
-0.276539 0.177744 0.609924
-0.12416 0.17765 0.677513
-0.110689 0.17758 0.675103
-0.245048 0.177533 0.598213
-0.247002 0.177465 0.588046
-0.268712 0.177372 0.568616
0.0130515 0.177307 0.700264
-0.178356 0.17726 0.59487
-0.180887 0.177197 0.584325
-0.178443 0.177105 0.576996
-0.160828 0.177044 0.57648
-0.282671 0.176998 0.505887
-0.249811 0.17694 0.512948
-0.230494 0.176848 0.514078
-0.1868 0.176793 0.526509
-0.148918 0.176747 0.535799
-0.193638 0.176694 0.503977
-0.184072 0.176603 0.500253
-0.135376 0.176552 0.515093
-0.0908959 0.176507 0.527699
-0.282031 0.176416 0.423643
-0.188602 0.176368 0.460805
-0.371318 0.176277 0.360969
-0.245668 0.176277 0.413053
-0.329218 0.176186 0.362809
-0.0845104 0.176096 0.476702
-0.198641 0.176053 0.409992
-0.24191 0.175964 0.379907
-0.186816 0.175967 0.396617
-0.174333 0.175878 0.394416
-0.0816292 0.175789 0.432333
-0.334802 0.175751 0.29601
-0.255616 0.175662 0.327177
-0.108176 0.175617 0.391329
-0.160788 0.175581 0.35524
-0.126488 0.175493 0.36398
-0.0561448 0.175449 0.389596
-0.0425006 0.175371 0.387741
-0.107675 0.175327 0.345607
-0.0800047 0.175283 0.349899
-0.218347 0.175208 0.272007
-0.220761 0.175121 0.26242
-0.114695 0.175077 0.305925
-0.0357189 0.175048 0.335489
-0.0634125 0.174961 0.313277
-0.116195 0.174874 0.278528
-0.330841 0.174831 0.161694
-0.190675 0.174762 0.222965
-0.18688 0.174719 0.215359
-0.1706 0.174632 0.215161
-0.18519 0.174589 0.198373
-0.0117723 0.174523 0.276225
-0.185194 0.174437 0.18119
-0.322919 0.174394 0.102847
-0.0320819 0.174308 0.239954
-0.198877 0.174265 0.147086
-0.214673 0.174202 0.130285
-0.158873 0.174117 0.149885
0.0383258 0.174075 0.239027
-0.279556 0.17399 0.0717993
-0.140177 0.173905 0.133209
-0.0232529 0.173863 0.182229
-0.321892 0.173803 0.023956
-0.232674 0.173719 0.0602959
-0.21848 0.173677 0.0579621
-0.115907 0.173593 0.100991
-0.274174 0.173509 0.013607
-0.27503 0.173425 0.00493446
-0.213414 0.173342 0.0275038
-0.188076 0.1733 0.0307684
-0.0593907 0.173217 0.0868837
-0.166506 0.173134 0.0251048
-0.222806 0.173051 -0.0112606
-0.0753363 0.172968 0.0542642
-0.0307625 0.172926 0.0671721
-0.0398027 0.172844 0.054453
0.0237858 0.202114 1.42036
0.0541876 0.201396 1.43685
0.0400339 0.201009 1.42522
-0.00412263 0.200624 1.3986
-0.0482224 0.200187 1.37299
0.0911547 0.199898 1.43649
-0.0699264 0.199612 1.34975
-0.0138865 0.199384 1.37055
-0.0548267 0.199104 1.34382
0.000797046 0.19891 1.36384
-0.0688076 0.198636 1.32273
0.0600392 0.198366 1.3808
-0.146292 0.198256 1.26837
-0.104898 0.198046 1.28166
-0.0833148 0.197861 1.28461
-0.191295 0.197604 1.22414
-0.127675 0.197423 1.24807
-0.113642 0.197299 1.24618
-0.147605 0.197121 1.22131
0.00784614 0.196945 1.29113
-0.199467 0.19677 1.17955
-0.124318 0.196652 1.20816
-0.188866 0.196421 1.16909
-0.0126037 0.196312 1.2481
-0.134499 0.196145 1.17917
-0.0449758 0.196034 1.2149
-0.254575 0.195817 1.1031
-0.219005 0.195709 1.11182
0.077404 0.195601 1.25097
-0.280008 0.195447 1.06412
-0.216261 0.195292 1.08788
-0.16876 0.195184 1.10261
-0.0218493 0.195042 1.16774
-0.0700626 0.194935 1.13463
-0.156305 0.194827 1.08252
-0.224703 0.194679 1.04015
-0.192188 0.19455 1.04789
-0.205899 0.194443 1.03208
-0.187392 0.194322 1.03267
-0.150842 0.194216 1.042
-0.298561 0.194079 0.959822
-0.106766 0.193973 1.0468
-0.0710689 0.193865 1.05577
-0.159255 0.19376 1.00277
-0.272372 0.193654 0.937315
-0.120232 0.193556 1.00435
-0.26388 0.19345 0.92365
-0.108367 0.193345 0.99254
-0.442798 0.193256 0.816133
-0.360445 0.193137 0.848761
-0.153095 0.193032 0.943591
-0.347771 0.192928 0.83742
-0.27628 0.192853 0.863723
-0.251117 0.192749 0.867483
-0.409491 0.192645 0.779488
-0.15343 0.19258 0.897903
-0.0743231 0.192477 0.928659
-0.11818 0.192373 0.897945
-0.190136 0.192318 0.852173
-0.0455398 0.192215 0.915696
-0.211243 0.192112 0.824081
-0.16913 0.19206 0.835291
-0.155635 0.191959 0.833247
-0.251859 0.191861 0.776301
-0.272209 0.191759 0.757395
-0.266475 0.191714 0.750292
-0.274854 0.191612 0.737385
-0.336043 0.191519 0.69788
-0.0536121 0.191468 0.829291
-0.16937 0.191378 0.762462
-0.193414 0.191291 0.741445
-0.239276 0.19124 0.708726
-0.115447 0.191155 0.761605
-0.213044 0.191073 0.703724
-0.198246 0.190972 0.702459
-0.0420918 0.190892 0.771413
-0.193743 0.190842 0.685827
-0.188416 0.190765 0.679324
-0.41302 0.190665 0.558385
-0.0755588 0.190591 0.717907
-0.00593368 0.190541 0.742981
-0.0546412 0.190469 0.709376
-0.239796 0.1904 0.607499
-0.22759 0.190301 0.604995
-0.0795894 0.190284 0.668534
-0.246839 0.190185 0.576312
-0.176413 0.190121 0.602139
-0.197053 0.190022 0.583235
-0.10129 0.19001 0.620563
-0.338892 0.189912 0.493189
-0.00998114 0.189853 0.648168
-0.182049 0.189755 0.553573
-0.1241 0.189748 0.571901
-0.115038 0.189651 0.56788
-0.0794603 0.189597 0.576103
-0.121925 0.1895 0.546331
-0.280497 0.189497 0.456305
-0.17654 0.1894 0.499753
-0.109205 0.189352 0.523766
-0.258338 0.189255 0.440677
-0.146919 0.189207 0.486742
-0.311848 0.189161 0.394578
-0.104025 0.189065 0.489987
0.0523513 0.189021 0.558429
-0.240547 0.188926 0.403488
-0.152771 0.188933 0.436449
-0.160137 0.188837 0.424282
-0.00806624 0.188789 0.490702
-0.0463643 0.188703 0.462857
0.0286367 0.188656 0.490751
-0.265602 0.18862 0.333752
-0.246985 0.188525 0.334602
-0.0440136 0.188477 0.426494
-0.25352 0.188397 0.312959
-0.198568 0.18835 0.330849
-0.0471013 0.188318 0.396613
-0.0588274 0.188224 0.382315
-0.183968 0.188178 0.310172
-0.129763 0.188102 0.328406
-0.130834 0.188009 0.319452
-0.143148 0.187962 0.303736
-0.148609 0.187936 0.290946
-0.159625 0.187843 0.277033
-0.0929667 0.187796 0.300815
-0.0674963 0.187726 0.304597
-0.0415799 0.187634 0.309165
-0.170333 0.187587 0.235254
-0.17281 0.187566 0.223868
-0.00564176 0.187474 0.299075
-0.341227 0.187382 0.122912
-0.225298 0.187336 0.171359
-0.0445734 0.187317 0.251529
-0.143677 0.187226 0.193619
-0.145322 0.187135 0.184446
-0.288166 0.187089 0.103523
-0.17363 0.187027 0.15171
-0.164177 0.186937 0.148097
-0.164289 0.186891 0.138552
-0.0693548 0.186801 0.177693
-0.284223 0.186711 0.06194
-0.0955989 0.186697 0.145967
-0.295753 0.186607 0.0375754
-0.29036 0.186562 0.030804
-0.0467977 0.186473 0.144282
0.0295752 0.186383 0.174173
-0.108518 0.186294 0.0968357
-0.0472333 0.186205 0.119194
-0.101089 0.186116 0.0839882
-0.157 0.186071 0.0465971
-0.0230002 0.186027 0.104165
-0.122374 0.185973 0.0453009
-0.0907675 0.185885 0.0528412
-0.0883279 0.185796 0.0458036
-0.0813806 0.185708 0.0410254
-0.0719938 0.185664 0.0363078
-0.113876 0.185577 0.00712547
-0.0151885 0.215727 1.4216
-0.0222901 0.214961 1.41925
0.0268536 0.214549 1.43921
0.0700776 0.214139 1.45622
-0.168654 0.213828 1.33062
-0.0371329 0.21352 1.39015
-0.13049 0.213214 1.33723
0.0274661 0.212912 1.40994
0.0459179 0.212613 1.41288
-0.135375 0.212318 1.3159
-0.0449992 0.212113 1.35325
-0.0605822 0.21191 1.33762
-0.158552 0.211683 1.28122
-0.0477677 0.211403 1.33014
-0.235561 0.211206 1.22835
-0.146622 0.211012 1.26493
-0.14557 0.210877 1.25654
-0.186513 0.210611 1.22943
-0.0925314 0.210423 1.26848
-0.0796828 0.210295 1.26592
-0.172255 0.21011 1.21166
-0.0151074 0.209927 1.28224
-0.188827 0.209747 1.18738
-0.158384 0.209626 1.19355
-0.261992 0.209449 1.13371
0.0274167 0.209274 1.27035
-0.107433 0.209159 1.19382
-0.076177 0.208989 1.20134
-0.316149 0.208821 1.07323
-0.0979711 0.208706 1.17325
-0.204409 0.208549 1.11174
-0.22354 0.208387 1.09398
-0.236969 0.208273 1.07823
-0.138839 0.208159 1.11826
-0.106681 0.208015 1.12587
-0.157277 0.207861 1.09231
-0.109657 0.207747 1.10712
-0.23902 0.207616 1.03376
-0.226974 0.207503 1.0308
-0.368044 0.20739 0.9513
-0.128222 0.207269 1.0624
-0.224968 0.207127 1.00561
-0.234463 0.207015 0.991919
-0.30542 0.206902 0.94751
-0.325316 0.206796 0.928521
-0.135342 0.206684 1.01459
-0.11605 0.206572 1.01534
-0.242909 0.206459 0.943027
-0.212642 0.206347 0.949268
-0.195991 0.206236 0.948713
-0.179411 0.206124 0.948135
-0.131409 0.206043 0.96269
-0.0353883 0.205932 1.00184
-0.20805 0.205821 0.90667
-0.267743 0.205751 0.867207
-0.164526 0.20564 0.909984
-0.229712 0.205529 0.86857
-0.0739605 0.205469 0.936654
-0.122662 0.205359 0.903494
-0.273134 0.205249 0.819461
-0.148935 0.205196 0.87166
-0.180056 0.205086 0.847317
-0.208778 0.20498 0.824103
-0.103793 0.204877 0.8677
-0.164459 0.204823 0.827518
-0.141801 0.204723 0.829914
-0.0878609 0.204625 0.847906
-0.161458 0.204571 0.801275
-0.0542714 0.204477 0.845853
-0.104752 0.204385 0.811552
-0.18315 0.204277 0.763632
-0.123508 0.204242 0.783256
-0.373535 0.204134 0.649535
-0.280433 0.204048 0.686945
-0.144641 0.203994 0.745048
-0.0776896 0.203911 0.769341
-0.164088 0.203831 0.716913
-0.210043 0.203724 0.68526
-0.358514 0.203699 0.60065
-0.207238 0.203593 0.667625
-0.201962 0.203518 0.66095
-0.210097 0.203446 0.647522
-0.327932 0.203393 0.578851
-0.252128 0.203323 0.60735
0.0187368 0.203218 0.734149
0.05498 0.203151 0.742824
-0.00312411 0.203099 0.704038
-0.249469 0.203035 0.571376
-0.127722 0.202973 0.622713
-0.187408 0.202869 0.584263
-0.270672 0.202862 0.531935
-0.106386 0.202758 0.605482
-0.108183 0.202702 0.594959
-0.293561 0.202598 0.493685
-0.306776 0.202596 0.47629
-0.131492 0.202493 0.555357
-0.00650069 0.202442 0.60814
-0.159319 0.202339 0.523167
-0.0942331 0.202291 0.545953
-0.0720336 0.202239 0.547376
-0.0876459 0.202193 0.529769
-0.0919583 0.202091 0.519069
-0.195655 0.202048 0.457376
-0.339815 0.201946 0.376762
-0.0339032 0.201956 0.518703
-0.153881 0.201854 0.450189
-0.145441 0.201816 0.444477
-0.131061 0.201715 0.443151
-0.120961 0.20173 0.437096
-0.247201 0.201628 0.365468
-0.279835 0.201578 0.339519
-0.12597 0.201494 0.407567
-0.0887345 0.201444 0.41656
-0.260043 0.201363 0.321979
-0.138326 0.201313 0.373221
-0.0201346 0.201284 0.422214
-0.300526 0.201184 0.273544
-0.217298 0.201158 0.305013
-0.140022 0.201059 0.335184
-0.184756 0.201009 0.30322
-0.214179 0.200985 0.278323
-0.122157 0.200886 0.315882
-0.14238 0.200864 0.295543
-0.0725934 0.200766 0.321991
-0.14918 0.200717 0.27412
0.0405428 0.200697 0.358713
-0.172764 0.200599 0.243629
-0.0956119 0.20055 0.272638
-0.0648363 0.200484 0.27886
-0.0425633 0.200386 0.281579
-0.20103 0.200338 0.192792
-0.104333 0.200323 0.230792
0.00475057 0.200226 0.276929
-0.149949 0.200177 0.190035
-0.0217042 0.200116 0.244915
-0.0532333 0.20002 0.220759
-0.103471 0.199923 0.187255
0.0362361 0.199961 0.245534
-0.0674607 0.199865 0.185306
0.00955633 0.199769 0.215441
-0.0635544 0.199674 0.170518
-0.182184 0.199626 0.101693
-0.0130299 0.19957 0.17695
-0.253699 0.199523 0.0471105
0.119094 0.199428 0.225157
0.0498675 0.199333 0.1822
-0.0523574 0.199238 0.12275
-0.13055 0.199144 0.0753225
-0.136091 0.199139 0.0620387
-0.0425727 0.199092 0.0993182
-0.189821 0.198998 0.0173722
-0.0536857 0.198904 0.0771238
-0.322651 0.19881 -0.0656689
0.011295 0.198717 0.0929996
-0.110152 0.198623 0.0239773
-0.175542 0.198577 -0.0181663
-0.141751 0.198484 -0.00955898
-0.252365 0.198391 -0.073148
-0.014901 0.229627 1.43832
0.00654497 0.228814 1.45013
-0.127996 0.228375 1.37819
0.140145 0.227773 1.5102
-0.053887 0.227342 1.4085
0.0438105 0.227015 1.45106
-0.0153701 0.226692 1.41517
-0.0919923 0.226372 1.37053
-0.0403039 0.226151 1.3885
-0.0595703 0.2259 1.37151
-0.110412 0.225682 1.33821
0.0658485 0.225376 1.41991
-0.170061 0.225074 1.29548
-0.0751545 0.224864 1.33502
-0.176436 0.224717 1.27545
-0.178826 0.22451 1.26633
-0.138109 0.224224 1.28006
-0.251986 0.224022 1.21515
-0.186103 0.223883 1.23911
-0.25956 0.223685 1.19439
-0.0986098 0.223417 1.26804
-0.201699 0.223294 1.2073
-0.102954 0.223163 1.24762
-0.0170662 0.222907 1.2836
-0.23783 0.222785 1.16406
-0.334297 0.222599 1.10774
-0.157979 0.222417 1.18777
-0.180615 0.222295 1.16733
-0.249259 0.222116 1.12486
-0.119894 0.221994 1.18044
-0.135179 0.221826 1.1645
-0.166172 0.221654 1.14079
-0.202184 0.221533 1.11371
-0.0378495 0.221378 1.18739
-0.0432272 0.221257 1.17566
-0.0184914 0.221112 1.1794
-0.0876513 0.220953 1.13647
-0.127983 0.220833 1.10728
-0.0820838 0.220713 1.12122
-0.198257 0.220583 1.05431
-0.183825 0.220463 1.05254
-0.175462 0.220312 1.04828
-0.101139 0.220193 1.07648
-0.0479433 0.220078 1.09403
-0.224459 0.219959 0.996816
-0.0912611 0.21984 1.05448
0.0371888 0.219736 1.1095
-0.0731192 0.219618 1.04542
-0.202426 0.219524 0.971397
-0.194637 0.219393 0.966617
-0.214549 0.219275 0.947758
-0.158133 0.219157 0.967075
-0.17494 0.21908 0.949053
-0.128003 0.218962 0.963643
-0.167663 0.218845 0.934946
-0.30285 0.218779 0.857561
-0.180567 0.218662 0.909847
-0.08581 0.218545 0.948382
-0.196268 0.218486 0.883246
-0.315307 0.21837 0.81489
-0.201665 0.218257 0.862832
-0.119048 0.218146 0.89522
-0.0261884 0.218088 0.931767
-0.261896 0.217981 0.804956
-0.115213 0.217876 0.869297
-0.231149 0.217761 0.802546
-0.116458 0.217717 0.84977
-0.179235 0.217619 0.809299
-0.159654 0.217504 0.810325
-0.232984 0.217465 0.763453
-0.161416 0.217351 0.790487
-0.152278 0.217258 0.785895
-0.218358 0.217226 0.74256
0.022605 0.217111 0.854309
-0.225296 0.217025 0.721112
-0.0444377 0.216941 0.802249
-0.306519 0.216827 0.662496
-0.23621 0.216803 0.687222
-0.207923 0.216725 0.691987
-0.0887271 0.216612 0.742889
0.0936217 0.216593 0.823545
-0.0157847 0.216481 0.760157
-0.324404 0.216409 0.596385
-0.265087 0.216352 0.61627
-0.187872 0.216283 0.645372
-0.178697 0.216216 0.640408
-0.0848112 0.216105 0.678695
-0.0843274 0.216041 0.669342
-0.240514 0.215985 0.581499
-0.139266 0.215924 0.622486
-0.27419 0.215866 0.545341
-0.128514 0.215755 0.609549
-0.186508 0.215755 0.569717
-0.267765 0.215645 0.520468
-0.259647 0.215592 0.514758
-0.0465364 0.215482 0.612705
-0.149724 0.215432 0.5513
-0.167929 0.215377 0.532485
-0.289002 0.21533 0.462095
-0.15206 0.215275 0.520861
-0.0718209 0.215176 0.5522
-0.0352856 0.215187 0.559411
-0.145663 0.215079 0.495644
-0.264135 0.215039 0.426426
-0.0776877 0.214931 0.511082
-0.2434 0.214893 0.418201
-0.0460882 0.214839 0.507179
-0.101938 0.214804 0.469187
-0.0626668 0.214697 0.480274
-0.191416 0.214664 0.405792
-0.170182 0.214611 0.406745
-0.166292 0.214527 0.399665
-0.0272512 0.214553 0.457873
-0.155235 0.214446 0.38535
-0.0241209 0.214393 0.441257
-0.119695 0.214314 0.384368
-0.0901882 0.214261 0.389479
-0.234066 0.214238 0.307273
0.0323451 0.214185 0.430842
-0.274552 0.214111 0.268217
-0.0582265 0.214059 0.36675
-0.281701 0.213987 0.245798
-0.22107 0.213935 0.266491
-0.0978936 0.213918 0.317699
-0.0902929 0.213866 0.311881
-0.0441844 0.213798 0.32565
-0.0819127 0.213746 0.297175
-0.0791978 0.213681 0.289212
-0.0840819 0.21363 0.277166
-0.237049 0.213618 0.190195
-0.176617 0.213515 0.211945
-0.123518 0.213464 0.2289
-0.133403 0.213403 0.214571
-0.0890658 0.213352 0.227152
-0.143839 0.213293 0.190346
-0.046604 0.213191 0.230518
0.0186305 0.213236 0.251411
-0.182411 0.213135 0.14245
-0.0496301 0.213084 0.199269
-0.120816 0.213029 0.154194
0.0361456 0.212928 0.224247
-0.127193 0.212877 0.133017
-0.0549505 0.212825 0.159627
-0.0527602 0.212775 0.151166
0.0251942 0.212674 0.181733
-0.0749949 0.212674 0.120958
-0.151563 0.212574 0.0742677
-0.195437 0.212474 0.0439316
0.0938524 0.212374 0.180183
0.0367591 0.212376 0.140924
-0.111782 0.212326 0.0571236
-0.0230682 0.212227 0.093097
-0.137436 0.212128 0.0275359
-0.108426 0.21203 0.0336691
-0.12503 0.211931 0.0170012
-0.218616 0.211832 -0.0381519
0.060563 0.211734 0.0930832
-0.197273 0.211685 -0.0453292
-0.0324541 0.211587 0.0287367
-0.212566 0.211489 -0.0696576
-0.0968523 0.24329 1.41817
0.0645676 0.242428 1.49989
-0.0141074 0.241964 1.45582
-0.0547532 0.241503 1.43078
0.0587104 0.241153 1.4812
-0.0344439 0.240806 1.4283
-0.037338 0.240357 1.42207
0.0427203 0.240018 1.45573
-0.00430349 0.239683 1.42582
-0.0808538 0.239452 1.37963
-0.256428 0.239124 1.28539
-0.259857 0.238896 1.27575
-0.0611974 0.238642 1.36757
-0.0432398 0.238419 1.3686
-0.19748 0.238109 1.28488
-0.0877165 0.237891 1.33178
0.0263769 0.23774 1.37984
-0.232367 0.237526 1.24247
-0.00828774 0.237234 1.34773
-0.0608602 0.237025 1.3134
-0.0441229 0.236884 1.3127
-0.0638483 0.23668 1.29477
-0.187523 0.236478 1.22484
-0.337608 0.236343 1.14068
-0.0319298 0.236146 1.28539
-0.112057 0.235951 1.23718
-0.178611 0.235758 1.19574
-0.245518 0.235629 1.15314
-0.235181 0.235445 1.15004
-0.149728 0.23526 1.18454
-0.12685 0.235132 1.18686
0.0161794 0.234962 1.24993
-0.0806763 0.234784 1.1932
-0.136982 0.234656 1.15596
-0.119793 0.234528 1.15548
-0.112965 0.234374 1.15026
-0.0456821 0.234247 1.17485
-0.102595 0.234078 1.13802
-0.184591 0.233939 1.08819
-0.103691 0.233812 1.11961
-0.295982 0.233684 1.01448
-0.382966 0.233557 0.961973
-0.349575 0.233402 0.970139
-0.203745 0.233276 1.03407
-0.256657 0.23315 0.998633
-0.055843 0.233039 1.08983
-0.137466 0.232913 1.04005
-0.223068 0.232813 0.987881
-0.211019 0.232688 0.984958
-0.154766 0.232548 1.00439
-0.119882 0.232423 1.01291
-0.187169 0.23234 0.969645
-0.0609256 0.232216 1.02385
-0.0897348 0.232091 1.00055
-0.120478 0.23202 0.975383
-0.174127 0.231896 0.939669
0.0207491 0.231772 1.02823
-0.204795 0.23171 0.905527
-0.0512205 0.231589 0.973409
-0.202269 0.231465 0.889029
-0.0983604 0.231347 0.932043
-0.0917086 0.231294 0.925319
-0.0653811 0.231171 0.929648
-0.198046 0.23106 0.854297
-0.152758 0.231012 0.866807
-0.331792 0.23089 0.768477
-0.240654 0.230785 0.804947
-0.0368855 0.230743 0.896612
-0.139672 0.230622 0.836425
-0.248442 0.230523 0.772858
-0.178403 0.230427 0.798652
-0.0701384 0.230366 0.84293
-0.161649 0.230273 0.787909
-0.163589 0.230183 0.777629
-0.087839 0.230123 0.805664
-0.14977 0.230036 0.765348
-0.157189 0.229952 0.752243
-0.215396 0.229832 0.714402
-0.121147 0.229811 0.751002
-0.234199 0.229733 0.684994
-0.173993 0.229614 0.706375
-0.330845 0.229539 0.618426
-0.121708 0.22948 0.713194
-0.115745 0.229408 0.70661
-0.201743 0.229339 0.654001
-0.372006 0.22928 0.559081
-0.0820769 0.229214 0.694393
-0.17152 0.229151 0.639975
-0.0165084 0.229033 0.708801
-0.276704 0.228973 0.568965
-0.26572 0.228914 0.56469
-0.202989 0.228857 0.586275
-0.131908 0.228798 0.612056
-0.0826523 0.228685 0.627964
-0.227939 0.228633 0.545455
-0.215495 0.228642 0.540664
-0.169581 0.228526 0.554979
-0.167174 0.228479 0.546231
-0.266816 0.228421 0.486672
-0.0826321 0.228377 0.568772
-0.223842 0.22832 0.488436
-0.150434 0.228221 0.516216
-0.0857243 0.228182 0.538495
-0.154514 0.228124 0.494381
-0.0960319 0.228088 0.513507
-0.0870125 0.228031 0.508303
-0.165197 0.22794 0.460169
-0.22461 0.227908 0.420267
-0.0889317 0.227851 0.478403
-0.132337 0.227822 0.446467
-0.283069 0.227765 0.361403
0.0139261 0.227682 0.500744
-0.0963308 0.227657 0.435306
-0.188698 0.227601 0.379434
-0.211379 0.227522 0.358863
-0.104875 0.227557 0.400616
-0.177148 0.227445 0.355916
-0.167403 0.227426 0.35037
-0.163854 0.227371 0.34247
0.0926129 0.227298 0.46137
-0.0590859 0.227339 0.373915
-0.105798 0.227228 0.342011
-0.2149 0.227215 0.276941
-0.113612 0.22716 0.317923
0.120511 0.227149 0.424433
0.0867492 0.227084 0.398092
-0.108422 0.227131 0.288774
-0.16337 0.227021 0.252766
-0.113384 0.227015 0.267119
-0.127203 0.22696 0.250559
-0.0636305 0.226955 0.271678
-0.199092 0.226898 0.194376
-0.0828826 0.226895 0.241761
-0.0953183 0.226948 0.223678
-0.0749761 0.22684 0.225327
-0.123706 0.22684 0.190196
-0.0182443 0.226841 0.23214
-0.105381 0.226843 0.177765
-0.185247 0.226846 0.127007
-0.00358897 0.226903 0.205869
0.00147563 0.22696 0.196418
0.00981346 0.227076 0.187353
0.224303 0.257387 1.5939
0.065718 0.256363 1.51708
0.0156356 0.255873 1.48726
-0.00581218 0.255199 1.47432
-0.0946187 0.254716 1.42513
-0.194447 0.254351 1.36884
0.039233 0.253989 1.47929
-0.108688 0.253631 1.39892
-0.22444 0.253277 1.3346
-0.218452 0.253032 1.32965
-0.126386 0.252755 1.36821
-0.0662274 0.252515 1.39033
-0.174857 0.252177 1.32946
-0.072623 0.251846 1.37396
-0.175272 0.251708 1.31329
0.00604822 0.251452 1.3963
-0.124352 0.251224 1.32308
-0.0567418 0.250911 1.35011
0.0129846 0.250757 1.37591
-0.178152 0.250537 1.27227
-0.240407 0.250319 1.23305
-0.160512 0.250103 1.2649
-0.225863 0.249958 1.2231
-0.0893534 0.249747 1.28322
-0.126481 0.249538 1.25651
-0.266135 0.249332 1.17851
-0.2031 0.249196 1.20084
-0.180223 0.248932 1.20499
-0.118982 0.248797 1.22644
-0.229699 0.248661 1.16193
-0.0878047 0.248476 1.22448
-0.138462 0.248285 1.19085
-0.195994 0.24815 1.15296
-0.030122 0.24798 1.22731
-0.331603 0.247798 1.06819
-0.128734 0.247664 1.16053
-0.217234 0.24751 1.10749
-0.0610254 0.247376 1.17652
-0.244191 0.247203 1.07648
-0.235845 0.247069 1.0716
-0.144044 0.246933 1.1085
-0.120994 0.246799 1.11099
0.00593872 0.246674 1.16531
-0.178811 0.246541 1.06392
-0.171503 0.246383 1.05896
-0.237725 0.246251 1.01685
-0.306357 0.246143 0.973151
-0.10858 0.246011 1.06306
-0.226958 0.245879 0.994896
-0.119768 0.245784 1.03895
-0.265593 0.245641 0.957247
-0.08267 0.24551 1.03976
-0.0147356 0.245379 1.06479
-0.222761 0.245302 0.950984
-0.0744664 0.245171 1.01621
-0.329754 0.245104 0.878616
-0.360047 0.244974 0.85456
-0.0389181 0.244845 1.0062
-0.217205 0.24478 0.907104
-0.159078 0.244655 0.927208
-0.315801 0.244532 0.839844
-0.130957 0.244414 0.923222
-0.103662 0.244349 0.926944
-0.170178 0.244233 0.884606
-0.0536549 0.244121 0.933745
-0.257776 0.244057 0.821775
-0.317547 0.243948 0.78273
-0.168605 0.243842 0.847998
-0.291941 0.243739 0.777084
-0.18374 0.243675 0.821296
-0.241109 0.243576 0.783326
-0.228253 0.24348 0.780425
-0.172854 0.243416 0.798251
-0.284222 0.243323 0.733198
-0.146221 0.243233 0.792786
-0.161722 0.243146 0.775578
-0.0805792 0.24302 0.807373
-0.315738 0.243 0.679218
-0.179978 0.242919 0.737555
-0.119236 0.242793 0.759166
-0.0389203 0.242779 0.78866
-0.0124505 0.242654 0.793147
-0.11868 0.242579 0.730408
-0.268219 0.242508 0.645971
0.00946106 0.242446 0.774993
-0.0454231 0.242378 0.737842
-0.0354008 0.242312 0.7331
-0.120356 0.24225 0.680817
-0.0873536 0.242188 0.687524
0.085157 0.242126 0.763981
-0.0622184 0.242067 0.680459
-0.145353 0.241949 0.630105
-0.212391 0.241956 0.585572
-0.114965 0.241834 0.625595
0.0178807 0.241783 0.682056
-0.272341 0.241734 0.526941
-0.130096 0.241673 0.588291
-0.0469488 0.241628 0.61982
-0.206878 0.241567 0.53009
-0.211121 0.241524 0.517885
0.0337675 0.241423 0.631303
-0.0539674 0.241446 0.576173
-0.210268 0.241385 0.488267
-0.167796 0.241289 0.500401
-0.0369331 0.241256 0.555591
-0.162902 0.241196 0.482862
-0.031945 0.241166 0.538061
-0.0806259 0.241137 0.503405
-0.039805 0.241077 0.514078
-0.131329 0.241051 0.457964
-0.164149 0.240968 0.43227
-0.125964 0.241005 0.439834
-0.0392012 0.240946 0.473486
-0.19918 0.240866 0.384146
-0.000378554 0.240848 0.473057
-0.118648 0.240832 0.403399
-0.102276 0.240876 0.399924
0.0954439 0.240818 0.489062
0.013847 0.240746 0.438788
0.00417031 0.240735 0.423336
-0.20777 0.240726 0.306724
0.0643039 0.240718 0.432091
-0.279737 0.240769 0.248266
-0.127812 0.240763 0.313508
0.0122614 0.240759 0.3728
-0.0201316 0.240814 0.344727
0.0545203 0.240868 0.370175
-0.159089 0.240925 0.251434
0.0549475 0.241098 0.344252
0.15565 0.271542 1.57487
0.150687 0.270468 1.57469
0.0688306 0.26951 1.53464
-0.000146126 0.269119 1.49374
-0.0533417 0.268609 1.46232
-0.119682 0.268223 1.42274
0.0526544 0.267723 1.50403
-0.0838698 0.267345 1.42931
0.0822088 0.266973 1.50587
-0.106071 0.266715 1.40374
-0.0298356 0.26635 1.43533
-0.076144 0.265991 1.4056
-0.0782361 0.265741 1.39655
-0.126392 0.265565 1.36348
-0.124716 0.265219 1.35764
-0.151149 0.264881 1.33768
-0.189677 0.264736 1.30907
-0.0741652 0.264478 1.35904
0.0732331 0.264244 1.42464
-0.273339 0.264011 1.24325
-0.0262446 0.263782 1.35868
-0.213344 0.263626 1.25601
-0.188196 0.263322 1.26153
0.0160912 0.263179 1.35442
-0.111202 0.262956 1.28263
-0.147242 0.262741 1.25638
-0.189175 0.262529 1.22716
-0.127508 0.262386 1.24879
-0.252673 0.262184 1.17784
-0.211307 0.26198 1.19021
-0.166267 0.261838 1.20356
-0.0606805 0.261652 1.24781
-0.189532 0.261457 1.175
-0.252002 0.261315 1.13462
-0.122912 0.261146 1.19043
-0.105252 0.261005 1.19014
-0.158267 0.260819 1.15516
-0.254442 0.260678 1.09798
-0.0319203 0.260526 1.2003
0.0590329 0.260386 1.2367
-0.114186 0.260209 1.14154
-0.322114 0.260069 1.02852
-0.082634 0.259936 1.1391
-0.280418 0.259796 1.03117
0.0253499 0.259675 1.17474
-0.288074 0.259536 1.009
-0.197986 0.259376 1.04534
-0.247013 0.259237 1.01182
-0.0540157 0.259135 1.09877
-0.114051 0.258996 1.05976
-0.267401 0.258906 0.973377
-0.0355345 0.258768 1.08033
-0.259144 0.258625 0.959641
-0.208131 0.258487 0.976186
-0.226812 0.258416 0.956887
-0.237689 0.258279 0.942503
-0.173552 0.258143 0.965624
-0.00154545 0.258078 1.04159
-0.0854975 0.257948 0.990587
-0.00042242 0.257812 1.02421
-0.271236 0.257686 0.879739
-0.159595 0.257631 0.925402
-0.0815889 0.257511 0.955259
-0.221764 0.257376 0.876284
-0.0802878 0.257328 0.936782
-0.206638 0.257215 0.864381
-0.101203 0.257148 0.907172
-0.0614879 0.257038 0.917766
-0.18528 0.256932 0.846564
-0.30546 0.25683 0.777124
-0.479633 0.256763 0.680131
-0.106415 0.256664 0.857352
-0.0737376 0.256568 0.864259
-0.080351 0.256501 0.85106
-0.0819353 0.256409 0.840797
-0.193837 0.256319 0.775331
-0.155415 0.256233 0.784983
-0.0817513 0.256101 0.813012
-0.165755 0.256084 0.760341
-0.22652 0.256005 0.720316
-0.146603 0.255928 0.750589
-0.118574 0.255797 0.75582
-0.0967995 0.255789 0.755907
-0.0757199 0.255719 0.756677
-0.268543 0.255588 0.651498
-0.109932 0.255586 0.719916
-0.13806 0.255521 0.696015
-0.202309 0.255392 0.655122
-0.0216802 0.255331 0.735544
-0.139177 0.255337 0.66578
0.0536356 0.255208 0.753446
-0.258978 0.255153 0.587165
-0.25095 0.2551 0.581163
-0.0438095 0.255036 0.674923
-0.265045 0.254986 0.55425
-0.224405 0.254939 0.564475
-0.075137 0.254895 0.628973
-0.0695724 0.254831 0.621956
-0.0929496 0.254789 0.600093
-0.196949 0.25475 0.537881
-0.0171395 0.254713 0.617534
-0.104511 0.25465 0.56406
-0.16844 0.254616 0.521807
-0.0712756 0.254584 0.560065
0.0222877 0.254554 0.596485
-0.0829101 0.254527 0.533489
-0.0592956 0.254464 0.535519
-0.121373 0.254439 0.494049
-0.149406 0.254416 0.469569
-0.0715254 0.254395 0.498011
0.0667354 0.254376 0.556612
-0.183671 0.254358 0.420848
-0.0943875 0.254405 0.453803
-0.0923045 0.254391 0.444224
-0.0806022 0.254379 0.439426
-0.131919 0.25443 0.401995
-0.142706 0.25442 0.3859
0.0517583 0.254528 0.470329
-0.0924261 0.254523 0.387463
-0.151434 0.25458 0.346066
-0.103426 0.254816 0.354934
-0.0136285 0.255119 0.383472
-0.0847013 0.28417 1.47791
-0.00982139 0.283629 1.51045
-0.0682372 0.283011 1.47731
-0.0506123 0.282347 1.48283
-0.0668676 0.281816 1.4698
0.186341 0.281416 1.58992
-0.140188 0.281019 1.42016
0.141829 0.280627 1.55465
0.0107616 0.280357 1.4811
-0.284825 0.28005 1.32577
-0.0665499 0.279672 1.4283
-0.0916647 0.279409 1.4077
-0.134449 0.279042 1.37962
0.00169383 0.278785 1.43962
-0.0160339 0.278606 1.42171
-0.0643158 0.278254 1.39076
-0.0267739 0.278005 1.40142
-0.0868218 0.277759 1.36327
-0.0804149 0.27759 1.35736
-0.220537 0.27726 1.2803
-0.182258 0.277024 1.29125
-0.0277994 0.276865 1.35929
-0.372965 0.276633 1.17849
-0.11284 0.276404 1.30031
0.0224789 0.276178 1.35972
-0.0919749 0.276028 1.29324
-0.169144 0.27581 1.24634
-0.17703 0.275592 1.23408
-0.220867 0.275443 1.20295
-0.22736 0.27524 1.19121
-0.140718 0.275032 1.22614
-0.15481 0.274883 1.20991
-0.156884 0.274698 1.2002
-0.223303 0.274499 1.15852
-0.0867605 0.274351 1.21764
-0.228193 0.274184 1.13805
-0.236225 0.274037 1.1249
-0.0504811 0.273847 1.20923
-0.242225 0.273699 1.10426
-0.133777 0.273552 1.14938
-0.199562 0.273405 1.1074
-0.295927 0.273226 1.05058
-0.192608 0.273097 1.09293
-0.147551 0.272951 1.10639
-0.167386 0.272805 1.08742
-0.0603091 0.272689 1.13149
-0.312409 0.272544 0.996398
-0.162171 0.272382 1.06272
-0.21235 0.272286 1.02792
-0.1843 0.272141 1.03293
-0.0776135 0.271996 1.07726
-0.0272609 0.271913 1.09256
-0.11953 0.271769 1.03743
-0.0811594 0.271697 1.04661
-0.135939 0.271481 1.01128
-0.147047 0.271412 0.995677
-0.26157 0.271275 0.929366
-0.0712194 0.271204 1.01455
-0.0154362 0.27107 1.03336
0.00520358 0.27094 1.03455
-0.210986 0.270814 0.917291
-0.138465 0.270743 0.943582
-0.0283028 0.27062 0.989461
-0.0326497 0.270501 0.978044
-0.301542 0.270456 0.833263
-0.250247 0.270343 0.849582
-0.190826 0.270202 0.8704
-0.151661 0.270093 0.880617
-0.15502 0.270058 0.868476
-0.244347 0.269956 0.81436
-0.0266652 0.269816 0.914333
-0.159362 0.269788 0.837437
-0.228273 0.269693 0.793448
-0.159562 0.269601 0.818228
0.0020543 0.269462 0.89019
-0.0286221 0.269444 0.864175
-0.230237 0.269359 0.753709
-0.191671 0.269289 0.763099
-0.230774 0.269208 0.733849
-0.0671622 0.269129 0.805914
-0.00899792 0.269054 0.825213
-0.173735 0.268986 0.732967
-0.16627 0.268914 0.726876
-0.129016 0.268845 0.735638
-0.115144 0.268777 0.732708
-0.164241 0.268711 0.698255
-0.144264 0.268648 0.698297
-0.110917 0.268589 0.704982
-0.313404 0.268521 0.593887
-0.263681 0.268464 0.608722
-0.0783031 0.268411 0.691343
-0.212095 0.26836 0.614339
-0.035207 0.268312 0.692636
-0.139847 0.268266 0.630129
-0.133157 0.268199 0.623639
0.0270988 0.268156 0.693544
-0.167348 0.268116 0.586059
-0.0683179 0.268079 0.625275
-0.0853451 0.26811 0.605346
-0.182727 0.268043 0.546831
-0.0248036 0.268011 0.615422
-0.151559 0.26798 0.541639
-0.0857569 0.267952 0.5641
-0.164892 0.267926 0.514059
-0.0344726 0.267968 0.567679
-0.164689 0.267946 0.492032
-0.155462 0.267926 0.486076
-0.20104 0.268022 0.450791
0.0555708 0.267957 0.569279
0.0569904 0.267994 0.558464
-0.167649 0.268048 0.434348
-0.0126349 0.268158 0.499094
0.0223316 0.268216 0.504708
0.0925087 0.268333 0.526907
-0.130042 0.268834 0.396253
0.0715135 0.298375 1.57133
-0.0792808 0.297672 1.49253
-0.038672 0.296755 1.512
-0.0242658 0.296193 1.51427
0.0224967 0.295768 1.53115
-0.0197568 0.295347 1.50351
-0.0799145 0.294802 1.46842
-0.170866 0.294391 1.41638
-0.155299 0.294107 1.41611
-0.243679 0.293705 1.36531
-0.0253306 0.293309 1.46783
-0.172554 0.293033 1.38614
0.0660747 0.292727 1.49778
-0.0405444 0.292458 1.43636
-0.223634 0.292084 1.33801
-0.22616 0.291821 1.32861
0.0641929 0.29164 1.46467
-0.192963 0.291381 1.32794
-0.298788 0.29103 1.26804
-0.258243 0.290858 1.27913
-0.0337281 0.290609 1.38317
-0.197839 0.290364 1.29289
0.000756438 0.290121 1.38393
-0.149663 0.289959 1.29948
-0.0850005 0.289644 1.3245
-0.112001 0.289488 1.30172
-0.105186 0.289256 1.29681
-0.109194 0.289037 1.28635
-0.205686 0.288881 1.22886
-0.111816 0.288659 1.26741
-0.103443 0.288457 1.26296
-0.0684519 0.288302 1.27124
-0.294934 0.28809 1.14954
-0.0213273 0.287934 1.27715
-0.0398027 0.287752 1.25909
-0.311627 0.287549 1.11463
-0.0373511 0.287395 1.24261
-0.171105 0.287232 1.16671
-0.383287 0.287078 1.05148
-0.0475987 0.286886 1.21069
-0.291762 0.286742 1.07936
-0.1243 0.286589 1.15398
-0.0669178 0.286436 1.17357
-0.0314254 0.286306 1.18192
-0.0112692 0.286132 1.1832
-0.161615 0.285979 1.09895
-0.164211 0.285869 1.08802
-0.0327834 0.285718 1.14467
-0.128522 0.285566 1.08775
-0.0432694 0.28547 1.12058
-0.150529 0.285314 1.05798
-0.130367 0.285163 1.05903
-0.10659 0.285087 1.06089
-0.241816 0.284936 0.984269
-0.193984 0.284788 0.999153
-0.0605146 0.284718 1.05579
-0.0789034 0.284568 1.0376
-0.0633473 0.284427 1.03628
-0.0379444 0.28429 1.03983
-0.0544521 0.284231 1.02136
-0.223641 0.284102 0.927535
-0.232127 0.284027 0.9133
-0.124868 0.283901 0.957667
-0.0576614 0.283779 0.981966
-0.218873 0.28366 0.892014
-0.276601 0.283586 0.853179
-0.238666 0.283471 0.862765
-0.00381283 0.28336 0.970766
-0.14469 0.283252 0.89086
-0.226239 0.283221 0.839529
-0.0369858 0.28312 0.924603
-0.0960485 0.282974 0.886178
-0.132981 0.28295 0.857071
-0.253422 0.282856 0.787217
-0.322876 0.282766 0.742814
-0.205307 0.282693 0.791672
-0.142183 0.282606 0.81352
-0.0706125 0.282523 0.839548
-0.174091 0.282443 0.77801
-0.138446 0.282371 0.785922
-0.0407441 0.282294 0.824936
-0.0765697 0.282221 0.797143
-0.0859075 0.282151 0.782553
-0.104318 0.282155 0.762326
-0.189223 0.282084 0.709979
-0.2683 0.281948 0.661502
-0.165284 0.281888 0.702969
0.00857927 0.281901 0.778756
-0.0405898 0.28183 0.744291
-0.168655 0.281775 0.670139
0.0834092 0.281723 0.786013
0.00981117 0.281674 0.739017
-0.149384 0.281628 0.649184
-0.151086 0.281584 0.63806
-0.00339873 0.281543 0.701593
0.0011578 0.281575 0.692456
-0.0627049 0.281505 0.650662
-0.152135 0.281505 0.59501
0.161923 0.281474 0.741588
-0.139497 0.281515 0.579323
-0.0927893 0.281445 0.592818
-0.110641 0.281463 0.572684
-0.239195 0.28151 0.496755
0.0447947 0.281489 0.62814
-0.0654574 0.281539 0.561301
-0.112732 0.281644 0.525087
-0.043551 0.281755 0.547
0.0155477 0.281812 0.564704
-0.0888871 0.28193 0.499671
0.0808034 0.282184 0.569552
0.00947374 0.312497 1.55731
0.0294546 0.311396 1.56788
-0.140601 0.310804 1.47786
0.0224776 0.310215 1.55442
-0.181119 0.309547 1.44856
-0.140177 0.309106 1.46248
0.0374404 0.308669 1.54473
0.011803 0.308237 1.52533
-0.0446012 0.307893 1.48957
0.0434475 0.307472 1.52695
0.0948096 0.307057 1.54594
0.0571686 0.306769 1.519
-0.0162422 0.306365 1.47554
0.0150892 0.306084 1.48307
-0.428837 0.305887 1.25201
-0.308038 0.3055 1.30554
-0.0802312 0.305227 1.41126
-0.0180162 0.304956 1.43419
0.0709615 0.304671 1.47069
-0.0676831 0.304408 1.39314
-0.106168 0.304148 1.36565
-0.0599029 0.303891 1.38052
-0.20418 0.303631 1.30017
0.0196598 0.303383 1.40377
-0.118475 0.303219 1.32538
-0.0545505 0.302976 1.34898
-0.0828691 0.302737 1.32644
-0.0937784 0.302574 1.3117
-0.101475 0.302338 1.29947
-0.00787234 0.30212 1.33768
-0.0351906 0.301957 1.31477
-0.21675 0.301731 1.21553
-0.113894 0.301532 1.25818
-0.0299064 0.30137 1.29096
-0.207478 0.301155 1.19363
-0.270068 0.300975 1.15336
-0.32561 0.300814 1.1164
-0.214488 0.300648 1.16285
-0.213222 0.300448 1.1548
-0.0593105 0.30029 1.22258
-0.0253968 0.30013 1.23038
0.0645725 0.299985 1.26604
-0.200853 0.299825 1.12419
-0.19369 0.299639 1.119
-0.00207937 0.299515 1.20524
-0.130158 0.299356 1.13209
-0.180799 0.299197 1.09768
-0.118282 0.299022 1.12006
-0.0250125 0.29892 1.15689
-0.240577 0.298762 1.04004
-0.196365 0.298674 1.05218
-0.0305738 0.298517 1.12601
-0.0777209 0.29836 1.09339
-0.11922 0.298204 1.06359
-0.104974 0.29813 1.06059
-0.199475 0.297982 1.00421
-0.192349 0.297903 0.997731
-0.317039 0.297759 0.92622
-0.176451 0.297618 0.987307
-0.0842713 0.297482 1.02415
-0.228762 0.297404 0.941886
-0.0307089 0.297271 1.03163
-0.352935 0.297142 0.861196
-0.163579 0.297094 0.945477
-0.122988 0.296973 0.956367
-0.38423 0.296855 0.816299
0.00102778 0.296778 0.998938
-0.0508748 0.296664 0.963503
-0.055739 0.296554 0.951545
-0.25634 0.296448 0.841677
-0.426057 0.296421 0.746169
-0.157016 0.296322 0.871037
-0.140621 0.296169 0.870313
-0.216446 0.29615 0.821668
-0.196622 0.296058 0.821848
0.00905732 0.295969 0.914914
-0.275526 0.295894 0.762676
-0.209578 0.295809 0.785838
-0.140745 0.295728 0.810401
-0.277066 0.295649 0.732346
-0.0921136 0.29565 0.813837
-0.166694 0.295575 0.766618
-0.084381 0.295503 0.7978
-0.138152 0.295435 0.7609
-0.225746 0.29537 0.707049
-0.0381279 0.295309 0.790763
-0.0564119 0.29525 0.771487
-0.132755 0.295268 0.722088
-0.0574423 0.295194 0.749835
-0.145689 0.295141 0.695503
-0.256472 0.295092 0.629864
-0.107777 0.295147 0.69245
-0.154111 0.295074 0.65938
0.101516 0.295032 0.776837
-0.175124 0.294993 0.628125
-0.115022 0.295068 0.646123
-0.00821101 0.294996 0.689631
-0.045682 0.295007 0.659768
-0.124679 0.295052 0.608648
-0.076772 0.295027 0.622011
0.0465206 0.295076 0.671973
0.0854344 0.29518 0.678937
-0.0589049 0.295291 0.594168
0.00534911 0.295348 0.614473
-0.124109 0.295467 0.536999
0.0702985 0.295797 0.618294
0.0651485 0.296692 0.59134
0.083663 0.325668 1.6104
-0.118819 0.324901 1.50567
-0.0376141 0.324051 1.54372
-3.93893e-05 0.323442 1.55746
-0.0425234 0.322981 1.52962
-0.0977017 0.322525 1.49542
0.0669859 0.322074 1.57114
-0.120727 0.321627 1.47063
-0.0317628 0.321187 1.50843
-0.0685861 0.320883 1.48188
0.0030854 0.32054 1.51003
0.0399136 0.320118 1.52165
-0.0473216 0.319824 1.46986
-0.0718804 0.319414 1.4507
-0.0683332 0.319213 1.44333
-0.124426 0.318928 1.40707
-0.102614 0.318538 1.41096
-0.110088 0.318261 1.39897
-0.0466722 0.318072 1.42146
