ply
format ascii 1.0
comment Created by Open3D
element vertex 1720
property double x
property double y
property double z
end_header
-1.10412 0.0360619 1.41845
-1.09596 0.0360783 1.41087
-1.08039 0.0361247 1.40446
-1.06949 0.0361522 1.39729
-1.05699 0.0361861 1.39036
-1.04623 0.036213 1.38314
-1.03392 0.0362461 1.37615
-1.0217 0.0362787 1.36912
-1.01117 0.0363046 1.36183
-0.999152 0.0363364 1.35474
-0.991343 0.0363512 1.34701
-0.976935 0.0363926 1.34026
-0.966676 0.0364173 1.33287
-0.957531 0.0364374 1.3253
-0.943517 0.0364771 1.31844
-0.935906 0.036491 1.31063
-0.924543 0.03652 1.30335
-0.913275 0.0365486 1.29604
-0.903452 0.0365714 1.28852
-0.892389 0.0365991 1.28116
-0.882693 0.0366213 1.27359
-0.874052 0.0366392 1.26587
-0.86326 0.0366658 1.25843
-0.853761 0.0366872 1.25081
-0.845301 0.0367043 1.24303
-0.834783 0.0367297 1.23552
-0.82548 0.0367502 1.22784
-0.815173 0.0367747 1.22028
-0.806961 0.0367908 1.21243
-0.797855 0.0368105 1.2047
-0.787827 0.0368338 1.19707
-0.779801 0.0368491 1.18917
-0.769945 0.0368717 1.1815
-0.761145 0.0368901 1.17368
-0.753306 0.0369046 1.16574
-0.743736 0.036926 1.158
-0.73513 0.0369436 1.15014
-0.727481 0.0369573 1.14214
-0.718199 0.0369775 1.13434
-0.709789 0.0369942 1.12643
-0.702331 0.0370071 1.11839
-0.693341 0.0370261 1.11053
-0.686001 0.0370385 1.10246
-0.67786 0.0370541 1.09449
-0.670643 0.037066 1.08639
-0.66202 0.0370835 1.07846
-0.654923 0.0370949 1.07034
-0.647051 0.0371094 1.0623
-0.640079 0.0371203 1.05416
-0.631827 0.0371362 1.04615
-0.624977 0.0371466 1.03798
-0.617376 0.0371599 1.02989
-0.610652 0.0371698 1.02169
-0.602775 0.0371842 1.01362
-0.596175 0.0371936 1.0054
-0.589982 0.0372013 0.997133
-0.582371 0.0372146 0.989012
-0.575947 0.0372232 0.980761
-0.568527 0.0372358 0.972609
-0.562229 0.0372439 0.964336
-0.556231 0.0372508 0.956029
-0.549079 0.0372623 0.947834
-0.54296 0.0372697 0.939531
-0.536001 0.0372804 0.931307
-0.53001 0.0372873 0.922984
-0.524207 0.0372934 0.91464
-0.51752 0.037303 0.906377
-0.51171 0.0373091 0.898026
-0.505952 0.037315 0.889668
-0.499538 0.0373235 0.881367
-0.493931 0.0373289 0.872989
-0.488356 0.0373341 0.864605
-0.482217 0.0373415 0.856269
-0.476772 0.0373461 0.847868
-0.471379 0.0373506 0.83946
-0.465517 0.0373569 0.831091
-0.460256 0.0373608 0.822667
-0.455048 0.0373646 0.814237
-0.449893 0.0373681 0.805801
-0.444388 0.037373 0.797392
-0.439365 0.037376 0.788941
-0.434396 0.0373787 0.780484
-0.429386 0.0373817 0.772029
-0.424335 0.0373848 0.763576
-0.419459 0.0373872 0.755108
-0.414731 0.037389 0.746627
-0.410056 0.0373906 0.738141
-0.405274 0.0373927 0.729662
-0.400734 0.0373938 0.721165
-0.396247 0.0373946 0.712662
-0.391815 0.0373953 0.704156
-0.387221 0.0373966 0.695661
-0.382886 0.0373969 0.687146
-0.378671 0.0373967 0.678624
-0.374509 0.0373964 0.670097
-0.370403 0.0373958 0.661567
-0.36635 0.037395 0.653033
-0.362352 0.0373939 0.644497
-0.358247 0.0373933 0.635967
-0.354386 0.0373918 0.627423
-0.350579 0.03739 0.618875
-0.346827 0.0373881 0.610325
-0.34313 0.0373859 0.601772
-0.339487 0.0373835 0.593217
-0.3359 0.0373809 0.58466
-0.332751 0.0373766 0.576078
-0.328835 0.0373753 0.567543
-0.32544 0.037372 0.558978
-0.3221 0.0373684 0.550412
-0.318815 0.0373647 0.541844
-0.315585 0.0373607 0.533275
-0.312411 0.0373566 0.524705
-0.309291 0.0373522 0.516134
-0.306228 0.0373476 0.507562
-0.303219 0.0373428 0.49899
-0.300266 0.0373378 0.490417
-0.296776 0.0373349 0.481872
-0.294659 0.0373266 0.473263
-0.291899 0.0373209 0.464688
-0.289194 0.037315 0.456113
-0.286546 0.0373088 0.447538
-0.283952 0.0373025 0.438963
-0.281414 0.0372959 0.430389
-0.278932 0.0372891 0.421816
-0.276505 0.0372821 0.413243
-0.274134 0.0372749 0.404672
-0.271818 0.0372675 0.396101
-0.269558 0.0372599 0.387532
-0.267354 0.0372521 0.378964
-0.264485 0.0372469 0.370425
-0.262392 0.0372387 0.36186
-0.260353 0.0372302 0.353296
-0.258371 0.0372216 0.344734
-0.256444 0.0372128 0.336175
-0.254572 0.0372037 0.327617
-0.252756 0.0371945 0.319062
-0.250996 0.0371851 0.31051
-0.249291 0.0371754 0.30196
-0.247642 0.0371656 0.293413
-0.246048 0.0371555 0.284869
-0.244509 0.0371452 0.276328
-0.243026 0.0371348 0.26779
-0.241599 0.0371241 0.259256
-0.240227 0.0371133 0.250725
-0.23891 0.0371022 0.242198
-0.237648 0.0370909 0.233674
-0.236442 0.0370795 0.225154
-0.235291 0.0370678 0.216639
-0.23335 0.0370591 0.208145
-0.23231 0.0370471 0.199638
-0.231324 0.0370348 0.191134
-0.230394 0.0370224 0.182636
-0.229518 0.0370097 0.174142
-0.226994 0.0370033 0.165682
-0.226202 0.0369903 0.157197
-0.225465 0.0369772 0.148717
-0.224782 0.0369638 0.140242
-0.224155 0.0369503 0.131772
-0.223583 0.0369366 0.123309
-0.223065 0.0369226 0.11485
-0.222602 0.0369085 0.106398
-0.222194 0.0368942 0.0979516
-0.22184 0.0368797 0.0895112
-0.221541 0.0368649 0.0810769
-0.221296 0.03685 0.072649
-0.221106 0.0368349 0.0642276
-0.220969 0.0368197 0.0558127
-0.220888 0.0368042 0.0474046
-0.218771 0.0367964 0.0390116
-0.218772 0.0367806 0.0306156
-0.218826 0.0367647 0.0222267
-0.218935 0.0367485 0.0138449
-0.219097 0.0367322 0.00547049
-0.961391 0.0496798 1.77116
-0.966912 0.0496262 1.76076
-0.967388 0.0496003 1.75137
-0.972686 0.0495479 1.74106
-0.978143 0.0494948 1.73073
-0.983777 0.0494407 1.72039
-0.984557 0.0494133 1.71099
-0.990503 0.0493576 1.70063
-0.996689 0.0493006 1.69025
-0.999328 0.0492631 1.68054
-1.0061 0.0492031 1.67009
-1.00749 0.0491724 1.66065
-1.01473 0.0491099 1.65014
-1.01842 0.0490668 1.64031
-1.0202 0.0490342 1.63084
-1.02815 0.048968 1.62027
-1.0323 0.0489225 1.61041
-1.03865 0.0488651 1.60017
-1.04275 0.04882 1.59035
-1.04673 0.0487756 1.58057
-1.0505 0.0487324 1.57085
-1.0561 0.0486793 1.56082
-1.05927 0.0486394 1.55123
-1.0572 0.048628 1.54256
-1.0621 0.0485788 1.53269
-1.06665 0.0485316 1.52291
-1.07299 0.0484746 1.51284
-1.07689 0.048431 1.5032
-1.08271 0.0483769 1.49326
-1.08606 0.0483364 1.48375
-1.09148 0.0482846 1.47391
-1.09435 0.0482467 1.46451
-1.09946 0.0481967 1.45476
-1.10447 0.0481473 1.44504
-1.1068 0.0481125 1.43577
-1.11579 0.0480416 1.42545
-1.11489 0.0480243 1.41673
-1.10498 0.0480557 1.40945
-1.09087 0.0481097 1.40281
-1.07826 0.0481556 1.39592
-1.06717 0.0481932 1.38878
-1.05474 0.048238 1.38183
-1.0424 0.0482823 1.37484
-1.03155 0.0483186 1.36762
-1.0194 0.0483618 1.36058
-1.00868 0.0483973 1.35331
-0.996722 0.0484393 1.34621
-0.986122 0.0484741 1.33889
-0.974362 0.048515 1.33173
-0.962695 0.0485555 1.32455
-0.952324 0.0485889 1.31716
-0.940855 0.0486282 1.30991
-0.930607 0.0486608 1.30248
-0.921697 0.0486863 1.29484
-0.910491 0.0487241 1.28752
-0.900434 0.0487557 1.28003
-0.889431 0.0487923 1.27265
-0.878525 0.0488284 1.26525
-0.868695 0.0488587 1.25768
-0.860158 0.048882 1.24993
-0.849522 0.0489165 1.24246
-0.839882 0.0489457 1.23484
-0.829455 0.0489791 1.22731
-0.819128 0.0490119 1.21976
-0.811713 0.0490291 1.21181
-0.801562 0.0490609 1.20421
-0.791513 0.0490921 1.19659
-0.784192 0.0491088 1.1886
-0.774321 0.049139 1.18094
-0.764553 0.0491687 1.17325
-0.755518 0.0491944 1.16546
-0.747737 0.0492134 1.1575
-0.738253 0.0492415 1.14975
-0.728876 0.049269 1.14197
-0.721814 0.0492841 1.1339
-0.712618 0.0493106 1.12609
-0.705142 0.0493279 1.11805
-0.696559 0.0493511 1.11015
-0.689204 0.0493677 1.10209
-0.68037 0.0493922 1.09419
-0.671645 0.0494161 1.08628
-0.664814 0.0494299 1.07814
-0.656274 0.0494527 1.07018
-0.649233 0.0494676 1.06205
-0.640876 0.0494895 1.05407
-0.634185 0.0495025 1.04589
-0.626015 0.0495233 1.03786
-0.61922 0.0495368 1.02968
-0.611237 0.0495566 1.02163
-0.604685 0.0495689 1.01341
-0.59689 0.0495876 1.00532
-0.590344 0.0495998 0.997094
-0.582738 0.0496176 0.988973
-0.576317 0.0496291 0.980722
-0.569956 0.0496402 0.972461
-0.562616 0.0496565 0.964296
-0.556373 0.049667 0.956014
-0.549224 0.0496823 0.947819
-0.543107 0.0496922 0.939516
-0.537042 0.0497017 0.931205
-0.530162 0.0497155 0.922969
-0.524224 0.0497244 0.914638
-0.518236 0.0497335 0.906308
-0.51173 0.0497454 0.898024
-0.505972 0.0497533 0.889666
-0.499946 0.0497626 0.881329
-0.493832 0.0497723 0.872998
-0.488257 0.0497793 0.864614
-0.482515 0.049787 0.856242
-0.476675 0.0497953 0.847877
-0.471283 0.0498013 0.839469
-0.465725 0.0498081 0.831073
-0.459943 0.0498161 0.822694
-0.454735 0.049821 0.814264
-0.449581 0.0498257 0.805827
-0.444076 0.0498322 0.797418
-0.439054 0.0498362 0.788966
-0.433747 0.0498417 0.780537
-0.428831 0.0498451 0.772074
-0.423687 0.0498497 0.763627
-0.418905 0.0498524 0.755151
-0.414177 0.0498549 0.74667
-0.409502 0.0498571 0.738183
-0.404881 0.0498589 0.729692
-0.399719 0.0498636 0.721241
-0.395232 0.0498648 0.712738
-0.390799 0.0498657 0.70423
-0.386421 0.0498663 0.695719
-0.382096 0.0498666 0.687203
-0.37787 0.0498665 0.67868
-0.373124 0.049869 0.670194
-0.369016 0.0498682 0.661662
-0.364963 0.0498671 0.653127
-0.360964 0.0498658 0.644589
-0.357199 0.0498632 0.636037
-0.353336 0.0498612 0.627491
-0.349529 0.0498588 0.618942
-0.345776 0.0498562 0.610391
-0.341369 0.049857 0.601882
-0.337726 0.0498538 0.593325
-0.334137 0.0498503 0.584767
-0.330604 0.0498466 0.576206
-0.327536 0.0498405 0.567619
-0.32414 0.049836 0.559053
-0.320799 0.0498313 0.550486
-0.317513 0.0498263 0.541917
-0.314283 0.049821 0.533347
-0.310273 0.0498197 0.524821
-0.307153 0.0498139 0.516248
-0.304088 0.0498078 0.507674
-0.301078 0.0498014 0.4991
-0.298124 0.0497947 0.490525
-0.295225 0.0497878 0.481949
-0.292382 0.0497805 0.473374
-0.290347 0.0497692 0.464762
-0.287642 0.0497612 0.456186
-0.284992 0.049753 0.447609
-0.282398 0.0497446 0.439034
-0.278901 0.0497407 0.430501
-0.276417 0.0497317 0.421925
-0.27399 0.0497224 0.41335
-0.271618 0.0497128 0.404777
-0.269301 0.0497029 0.396204
-0.26704 0.0496928 0.387632
-0.264835 0.0496824 0.379062
-0.262685 0.0496717 0.370494
-0.260591 0.0496607 0.361927
-0.258552 0.0496495 0.353361
-0.256569 0.049638 0.344798
-0.254642 0.0496262 0.336237
-0.25277 0.0496142 0.327678
-0.250953 0.0496018 0.319122
-0.249192 0.0495892 0.310567
-0.246407 0.0495819 0.30205
-0.244757 0.0495687 0.2935
-0.243163 0.0495553 0.284953
-0.241624 0.0495416 0.27641
-0.240141 0.0495277 0.267869
-0.238713 0.0495135 0.259332
-0.23734 0.049499 0.250799
-0.236023 0.0494842 0.242269
-0.234761 0.0494692 0.233743
-0.233555 0.0494539 0.225221
-0.232404 0.0494383 0.216703
-0.231308 0.0494225 0.208189
-0.230267 0.0494064 0.199679
-0.229282 0.0493901 0.191174
-0.228352 0.0493735 0.182674
-0.227477 0.0493566 0.174178
-0.225462 0.0493455 0.165708
-0.22416 0.0493308 0.157229
-0.223423 0.0493132 0.148748
-0.222741 0.0492954 0.140271
-0.222114 0.0492773 0.1318
-0.221541 0.049259 0.123334
-0.221024 0.0492404 0.114874
-0.220561 0.0492216 0.10642
-0.220153 0.0492025 0.097972
-0.2198 0.0491831 0.0895298
-0.219501 0.0491635 0.0810939
-0.219256 0.0491436 0.0726642
-0.219066 0.0491235 0.064241
-0.218931 0.0491031 0.0558244
-0.218849 0.0490825 0.0474145
-0.218822 0.0490616 0.0390114
-0.216733 0.049051 0.030622
-0.216788 0.0490298 0.0222313
-0.216897 0.0490082 0.0138478
-0.21706 0.0489865 0.00547163
-0.956994 0.06213 1.77202
-0.961909 0.0620671 1.76174
-0.966927 0.0620035 1.75146
-0.972078 0.0619391 1.74117
-0.977379 0.0618737 1.73088
-0.982851 0.0618072 1.72057
-0.983547 0.0617735 1.71119
-0.989322 0.0617051 1.70086
-0.995332 0.0616351 1.6905
-0.996331 0.0615994 1.6811
-1.00276 0.0615266 1.67071
-1.00951 0.0614517 1.66027
-1.0128 0.0614006 1.6505
-1.01438 0.0613612 1.64105
-1.022 0.0612805 1.63052
-1.02599 0.0612247 1.62066
-1.03012 0.0611681 1.6108
-1.0321 0.061126 1.60134
-1.03626 0.0610692 1.59151
-1.04245 0.0609986 1.58133
-1.04628 0.0609442 1.57159
-1.05192 0.0608775 1.56155
-1.0551 0.0608276 1.55195
-1.06207 0.060752 1.54172
-1.06656 0.0606932 1.53193
-1.07067 0.0606371 1.52223
-1.07441 0.0605836 1.5126
-1.08009 0.060517 1.50267
-1.08323 0.0604677 1.49318
-1.08848 0.0604041 1.48335
-1.09112 0.0603582 1.47397
-1.09606 0.0602968 1.46423
-1.1009 0.0602361 1.45452
-1.10566 0.0601761 1.44485
-1.10763 0.060135 1.43564
-1.11222 0.0600762 1.42602
-1.11775 0.0600111 1.41628
-1.11205 0.0600218 1.40832
-1.10219 0.0600607 1.40103
-1.08667 0.0601377 1.3946
-1.07537 0.0601862 1.3875
-1.06291 0.0602425 1.38056
-1.05173 0.0602901 1.37341
-1.03946 0.060345 1.36642
-1.0284 0.0603916 1.35922
-1.01632 0.0604452 1.35216
-1.00278 0.0605084 1.3453
-0.993484 0.0605431 1.3378
-0.981683 0.0605946 1.33065
-0.970965 0.0606388 1.32334
-0.959358 0.0606889 1.31613
-0.946327 0.0607485 1.30912
-0.937347 0.0607809 1.30151
-0.926031 0.0608289 1.29422
-0.91565 0.0608706 1.28679
-0.904533 0.0609172 1.27945
-0.893513 0.0609631 1.27208
-0.883352 0.0610032 1.26458
-0.872534 0.0610476 1.25716
-0.861815 0.0610914 1.24971
-0.854008 0.0611157 1.24185
-0.84346 0.0611582 1.23435
-0.833011 0.0612001 1.22683
-0.823254 0.0612373 1.21921
-0.81502 0.0612643 1.21137
-0.804846 0.0613042 1.20378
-0.795272 0.0613401 1.1961
-0.785308 0.0613785 1.18846
-0.777324 0.0614038 1.18056
-0.767934 0.0614383 1.17282
-0.75825 0.0614748 1.16512
-0.74867 0.0615106 1.15739
-0.741244 0.061532 1.14938
-0.731843 0.0615665 1.14161
-0.724232 0.0615891 1.13361
-0.715007 0.0616224 1.1258
-0.706095 0.0616536 1.11794
-0.698673 0.0616748 1.10989
-0.689738 0.0617061 1.10202
-0.68101 0.061736 1.09412
-0.67378 0.0617559 1.08603
-0.665136 0.0617852 1.0781
-0.658026 0.0618043 1.06998
-0.649564 0.0618323 1.06202
-0.642575 0.0618506 1.05388
-0.634297 0.0618774 1.04587
-0.62743 0.0618948 1.03771
-0.619336 0.0619203 1.02967
-0.612593 0.0619368 1.02148
-0.604687 0.0619611 1.01341
-0.598068 0.0619768 1.0052
-0.59035 0.0619997 0.997094
-0.583855 0.0620146 0.988856
-0.576325 0.0620363 0.980721
-0.569847 0.062051 0.972472
-0.562509 0.0620714 0.964307
-0.556266 0.0620845 0.956025
-0.550073 0.0620973 0.947734
-0.542779 0.0621174 0.939549
-0.536714 0.0621293 0.931237
-0.529836 0.0621466 0.923001
-0.5239 0.0621577 0.914669
-0.518014 0.0621684 0.906329
-0.511067 0.0621861 0.898087
-0.505311 0.0621959 0.889728
-0.499606 0.0622055 0.881361
-0.493273 0.0622191 0.873049
-0.487698 0.0622277 0.864665
-0.482176 0.062236 0.856273
-0.475657 0.0622508 0.847967
-0.470265 0.0622583 0.839558
-0.464926 0.0622653 0.831143
-0.459144 0.0622753 0.822763
-0.453937 0.0622815 0.814332
-0.448201 0.0622912 0.805943
-0.443099 0.0622967 0.797499
-0.437674 0.0623043 0.78908
-0.432705 0.0623089 0.780622
-0.427789 0.0623132 0.772158
-0.422927 0.0623171 0.763688
-0.417159 0.0623269 0.755289
-0.41243 0.06233 0.746806
-0.407754 0.0623327 0.738318
-0.403132 0.062335 0.729825
-0.398431 0.0623379 0.721338
-0.393944 0.0623394 0.712833
-0.38951 0.0623405 0.704325
-0.384303 0.0623466 0.695872
-0.379978 0.062347 0.687354
-0.375751 0.0623468 0.67883
-0.371588 0.0623462 0.6703
-0.36748 0.0623452 0.661768
-0.363426 0.0623438 0.653232
-0.359427 0.0623421 0.644692
-0.354708 0.0623451 0.636201
-0.350845 0.0623425 0.627653
-0.347037 0.0623396 0.619102
-0.343283 0.0623363 0.610549
-0.339584 0.0623327 0.601993
-0.33594 0.0623287 0.593435
-0.332351 0.0623244 0.584875
-0.328817 0.0623197 0.576312
-0.324941 0.0623173 0.567771
-0.321276 0.0623135 0.559219
-0.317934 0.0623076 0.550649
-0.314647 0.0623013 0.542077
-0.311416 0.0622947 0.533505
-0.30824 0.0622877 0.524931
-0.305119 0.0622804 0.516356
-0.302054 0.0622728 0.507781
-0.299043 0.0622648 0.499205
-0.296089 0.0622565 0.490628
-0.291991 0.0622555 0.48211
-0.289872 0.0622418 0.473496
-0.287111 0.0622322 0.464917
-0.284406 0.0622223 0.456338
-0.281756 0.062212 0.447758
-0.279161 0.0622014 0.43918
-0.276622 0.0621905 0.430602
-0.274139 0.0621792 0.422024
-0.271711 0.0621675 0.413447
-0.269339 0.0621555 0.404871
-0.267022 0.0621432 0.396297
-0.264761 0.0621305 0.387723
-0.261237 0.0621259 0.379202
-0.259088 0.0621126 0.37063
-0.256994 0.0620988 0.36206
-0.254955 0.0620848 0.353492
-0.252972 0.0620704 0.344925
-0.251045 0.0620557 0.336361
-0.249173 0.0620406 0.327799
-0.247357 0.0620252 0.319239
-0.245597 0.0620094 0.310682
-0.243892 0.0619933 0.302127
-0.242243 0.0619769 0.293576
-0.240649 0.0619601 0.285027
-0.239111 0.061943 0.276481
-0.237628 0.0619255 0.267938
-0.236201 0.0619078 0.259399
-0.234829 0.0618896 0.250864
-0.233512 0.0618712 0.242331
-0.232251 0.0618524 0.233803
-0.231046 0.0618333 0.225279
-0.228468 0.0618228 0.21679
-0.227374 0.061803 0.208273
-0.226334 0.0617829 0.19976
-0.225351 0.0617624 0.191251
-0.224422 0.0617416 0.182747
-0.223548 0.0617205 0.174248
-0.22273 0.0616991 0.165754
-0.220233 0.0616882 0.157292
-0.219498 0.0616663 0.148807
-0.218818 0.061644 0.140327
-0.218193 0.0616214 0.131853
-0.217623 0.0615985 0.123384
-0.217107 0.0615752 0.11492
-0.216647 0.0615516 0.106463
-0.216241 0.0615277 0.0980112
-0.21589 0.0615035 0.0895656
-0.215593 0.0614789 0.0811263
-0.215351 0.0614541 0.0726932
-0.215163 0.0614289 0.0642666
-0.21503 0.0614034 0.0558466
-0.214951 0.0613775 0.0474334
-0.214926 0.0613514 0.039027
-0.212838 0.0613382 0.0306342
-0.212896 0.0613116 0.0222402
-0.213007 0.0612846 0.0138533
-0.213173 0.0612574 0.00547381
-0.9528 0.0746256 1.78217
-0.957168 0.0745546 1.77198
-0.961799 0.0744814 1.76176
-0.966531 0.0744075 1.75154
-0.971378 0.0743327 1.74131
-0.971734 0.0742949 1.73196
-0.976788 0.0742185 1.72173
-0.982003 0.0741409 1.71148
-0.987407 0.0740618 1.70122
-0.99303 0.073981 1.69093
-0.99383 0.0739398 1.68157
-0.999857 0.0738558 1.67125
-1.00781 0.0737561 1.66059
-1.00913 0.0737108 1.65117
-1.01626 0.073618 1.64071
-1.01789 0.0735703 1.63126
-1.02172 0.0735046 1.62144
-1.0236 0.073455 1.61197
-1.03172 0.0733544 1.60141
-1.03802 0.0732687 1.59119
-1.04197 0.0732023 1.58141
-1.04562 0.0731385 1.5717
-1.04564 0.0731043 1.56264
-1.05094 0.0730271 1.55267
-1.05579 0.0729536 1.5428
-1.06019 0.0728838 1.53302
-1.06415 0.0728177 1.52334
-1.06995 0.0727367 1.51336
-1.07551 0.0726577 1.50344
-1.07849 0.0725998 1.49397
-1.08362 0.0725244 1.48416
-1.08862 0.0724502 1.47439
-1.0909 0.0723981 1.46508
-1.09563 0.0723262 1.45538
-1.10028 0.072255 1.44572
-1.10207 0.0722071 1.43654
-1.10656 0.0721373 1.42693
-1.111 0.072068 1.41735
-1.11729 0.0719837 1.4075
-1.10743 0.0720305 1.4002
-1.09865 0.0720683 1.39273
-1.08322 0.0721599 1.38628
-1.07172 0.0722197 1.3792
-1.05932 0.0722867 1.37225
-1.04522 0.0723674 1.36554
-1.03304 0.0724325 1.35851
-1.02095 0.0724968 1.35146
-1.0098 0.0725534 1.34425
-0.9979 0.0726161 1.33714
-0.986872 0.0726717 1.32989
-0.975159 0.0727327 1.32272
-0.963538 0.072793 1.31552
-0.952723 0.0728467 1.3082
-0.941296 0.0729052 1.30094
-0.930592 0.072958 1.29357
-0.919362 0.0730148 1.28627
-0.908227 0.0730709 1.27893
-0.897736 0.0731218 1.27149
-0.8868 0.0731761 1.2641
-0.875962 0.0732297 1.25668
-0.86786 0.0732612 1.24888
-0.857191 0.0733133 1.24142
-0.84662 0.0733645 1.23393
-0.83652 0.073412 1.22636
-0.826154 0.0734615 1.21882
-0.816162 0.073508 1.21122
-0.807982 0.07354 1.20337
-0.797889 0.0735872 1.19576
-0.787899 0.0736335 1.18813
-0.778191 0.0736776 1.18044
-0.77026 0.0737074 1.17253
-0.760548 0.0737514 1.16483
-0.751019 0.0737939 1.15709
-0.741519 0.0738362 1.14934
-0.733842 0.0738638 1.14136
-0.724517 0.0739046 1.13357
-0.715299 0.0739445 1.12576
-0.707808 0.0739706 1.11773
-0.698768 0.074009 1.10988
-0.691247 0.0740353 1.10184
-0.682533 0.0740711 1.09394
-0.673767 0.0741072 1.08603
-0.666587 0.0741307 1.07793
-0.658017 0.0741652 1.06998
-0.650596 0.0741906 1.0619
-0.642449 0.0742217 1.05389
-0.634174 0.0742538 1.04589
-0.627309 0.0742747 1.03772
-0.618986 0.0743071 1.02971
-0.612245 0.074327 1.02152
-0.604342 0.074356 1.01345
-0.597724 0.0743749 1.00523
-0.590009 0.0744024 0.99713
-0.583169 0.0744229 0.988928
-0.576263 0.074444 0.980728
-0.569275 0.0744657 0.972531
-0.562957 0.0744821 0.964261
-0.555235 0.0745096 0.956129
-0.549043 0.0745249 0.947837
-0.541974 0.0745472 0.939629
-0.53591 0.0745615 0.931316
-0.529897 0.0745754 0.922995
-0.522517 0.0746001 0.914803
-0.516632 0.0746129 0.906461
-0.510026 0.0746315 0.898185
-0.50427 0.0746433 0.889825
-0.498565 0.0746547 0.881458
-0.491532 0.0746766 0.873209
-0.485957 0.0746869 0.864823
-0.480434 0.0746969 0.856429
-0.474376 0.0747111 0.848081
-0.468984 0.07472 0.839671
-0.462823 0.0747349 0.831326
-0.45704 0.0747469 0.822945
-0.451831 0.0747543 0.814512
-0.446676 0.0747613 0.806072
-0.441573 0.0747679 0.797627
-0.436148 0.0747771 0.789206
-0.430234 0.07479 0.780823
-0.425317 0.0747951 0.772357
-0.420453 0.0747998 0.763885
-0.415388 0.0748061 0.755428
-0.410658 0.0748098 0.746944
-0.405982 0.074813 0.738454
-0.400291 0.0748242 0.730041
-0.395588 0.0748276 0.721551
-0.3911 0.0748294 0.713044
-0.386665 0.0748307 0.704533
-0.382285 0.0748316 0.696018
-0.377958 0.0748321 0.687499
-0.373701 0.0748321 0.678974
-0.368375 0.0748404 0.670524
-0.364265 0.0748392 0.661989
-0.36021 0.0748376 0.65345
-0.35621 0.0748355 0.644907
-0.352442 0.0748317 0.63635
-0.348578 0.0748286 0.6278
-0.344769 0.0748251 0.619248
-0.340754 0.0748232 0.610709
-0.335999 0.074827 0.602217
-0.332354 0.0748222 0.593655
-0.328764 0.0748171 0.585092
-0.325612 0.0748085 0.576503
-0.32216 0.0748022 0.567934
-0.318762 0.0747956 0.559364
-0.31542 0.0747885 0.550792
-0.312133 0.074781 0.542218
-0.307464 0.0747841 0.533722
-0.304288 0.0747758 0.525145
-0.301166 0.074767 0.516567
-0.2981 0.0747578 0.507988
-0.29509 0.0747482 0.499408
-0.292135 0.0747382 0.490828
-0.289934 0.0747224 0.482212
-0.287117 0.0747113 0.473631
-0.284356 0.0746998 0.465049
-0.28165 0.0746879 0.456467
-0.278191 0.0746818 0.447923
-0.274851 0.0746748 0.439374
-0.272312 0.0746616 0.430792
-0.269829 0.0746481 0.422211
-0.267401 0.0746341 0.41363
-0.265029 0.0746197 0.405051
-0.262713 0.0746049 0.396472
-0.260453 0.0745896 0.387895
-0.258248 0.074574 0.379319
-0.256099 0.0745579 0.370744
-0.254006 0.0745415 0.362171
-0.251968 0.0745246 0.3536
-0.249986 0.0745073 0.345031
-0.248059 0.0744896 0.336464
-0.244996 0.0744806 0.327939
-0.242707 0.0744657 0.319391
-0.240949 0.0744468 0.31083
-0.239245 0.0744274 0.302271
-0.237598 0.0744077 0.293715
-0.236006 0.0743875 0.285162
-0.23447 0.0743669 0.276612
-0.232989 0.074346 0.268066
-0.231564 0.0743246 0.259522
-0.230194 0.0743028 0.250983
-0.22888 0.0742806 0.242446
-0.227621 0.074258 0.233914
-0.226418 0.0742351 0.225386
-0.22527 0.0742117 0.216861
-0.224178 0.0741879 0.208341
-0.22314 0.0741637 0.199825
-0.222159 0.0741391 0.191314
-0.221232 0.0741141 0.182807
-0.220361 0.0740888 0.174305
-0.219544 0.074063 0.165808
-0.217048 0.07405 0.157344
-0.216315 0.0740236 0.148856
-0.215638 0.0739968 0.140373
-0.215015 0.0739697 0.131896
-0.214447 0.0739421 0.123424
-0.213934 0.0739142 0.114958
-0.213476 0.0738859 0.106497
-0.213073 0.0738572 0.0980429
-0.212724 0.0738281 0.0895946
-0.212431 0.0737986 0.0811525
-0.212191 0.0737687 0.0727167
-0.212006 0.0737384 0.0642874
-0.211876 0.0737078 0.0558646
-0.2118 0.0736768 0.0474487
-0.211778 0.0736454 0.0390395
-0.209691 0.0736295 0.0306441
-0.209752 0.0735975 0.0222473
-0.209866 0.0735652 0.0138578
-0.210035 0.0735324 0.00547556
-0.950932 0.0870812 1.78254
-0.953209 0.0870184 1.77276
-0.957666 0.0869347 1.76257
-0.96221 0.0868503 1.75237
-0.96685 0.086765 1.74218
-0.971703 0.0866777 1.73197
-0.976484 0.0865912 1.72178
-0.981515 0.0865024 1.71157
-0.986722 0.086412 1.70135
-0.992135 0.0863197 1.6911
-0.992824 0.0862727 1.68176
-0.998624 0.0861769 1.67148
-1.00474 0.0860781 1.66115
-1.00584 0.0860274 1.65178
-1.01256 0.0859231 1.64138
-1.0159 0.085851 1.63163
-1.02143 0.0857581 1.62149
-1.02755 0.0856597 1.61126
-1.02953 0.085601 1.6018
-1.03369 0.0855214 1.59196
-1.03984 0.085423 1.58179
-1.04352 0.0853482 1.57207
-1.04885 0.0852577 1.56208
-1.05365 0.0851724 1.5522
-1.05793 0.0850922 1.54243
-1.0617 0.0850168 1.53276
-1.06499 0.084946 1.52319
-1.07026 0.0848565 1.5133
-1.07534 0.084769 1.50347
-1.07768 0.0847074 1.4941
-1.0824 0.0846234 1.48436
-1.08702 0.0845404 1.47465
-1.09156 0.0844583 1.46497
-1.09603 0.0843768 1.45532
-1.10045 0.0842959 1.44569
-1.10483 0.0842154 1.43609
-1.10918 0.0841354 1.42651
-1.11349 0.0840558 1.41695
-1.11833 0.0839712 1.40733
-1.11604 0.0839541 1.39885
-1.10334 0.0840354 1.392
-1.0887 0.0841349 1.38543
-1.07899 0.0841878 1.37808
-1.06379 0.0842923 1.37156
-1.05221 0.0843628 1.36447
-1.03998 0.0844392 1.35746
-1.0285 0.0845085 1.35033
-1.01385 0.0846076 1.34365
-1.00509 0.0846511 1.33608
-0.990689 0.0847477 1.32933
-0.978961 0.0848191 1.32216
-0.967828 0.0848848 1.3149
-0.956291 0.0849543 1.30768
-0.945264 0.0850189 1.30037
-0.93392 0.0850864 1.2931
-0.92267 0.0851529 1.2858
-0.911849 0.0852154 1.27842
-0.900796 0.08528 1.27106
-0.889838 0.0853437 1.26368
-0.879224 0.0854041 1.25623
-0.868466 0.0854657 1.2488
-0.857956 0.085525 1.24131
-0.849515 0.0855649 1.23354
-0.839024 0.0856239 1.22603
-0.828686 0.0856815 1.21849
-0.818398 0.0857385 1.21093
-0.808211 0.0857945 1.20334
-0.798125 0.0858495 1.19573
-0.790018 0.085886 1.18785
-0.780145 0.085939 1.18019
-0.770332 0.0859913 1.17252
-0.760624 0.0860426 1.16482
-0.752632 0.0860779 1.15689
-0.743242 0.0861262 1.14913
-0.733815 0.0861747 1.14136
-0.724356 0.0862236 1.13359
-0.716798 0.0862547 1.12558
-0.707654 0.0863005 1.11775
-0.698617 0.0863453 1.1099
-0.691004 0.0863768 1.10187
-0.682148 0.0864198 1.09398
-0.674542 0.0864512 1.08594
-0.666221 0.0864892 1.07797
-0.657302 0.0865327 1.07007
-0.650244 0.086559 1.06194
-0.641861 0.0865974 1.05396
-0.634924 0.0866225 1.0458
-0.62626 0.0866635 1.03784
-0.619445 0.0866874 1.02966
-0.611432 0.0867223 1.02161
-0.60416 0.0867504 1.01347
-0.596333 0.0867835 1.00538
-0.589765 0.086805 0.997155
-0.582126 0.0868364 0.989037
-0.575683 0.0868567 0.980788
-0.567535 0.0868927 0.972711
-0.561218 0.0869118 0.964439
-0.553957 0.0869396 0.956259
-0.547766 0.0869575 0.947966
-0.53988 0.086991 0.939837
-0.533816 0.0870077 0.931522
-0.527802 0.0870239 0.923199
-0.521001 0.0870473 0.914949
-0.515115 0.0870624 0.906606
-0.507572 0.0870926 0.898418
-0.501815 0.0871064 0.890055
-0.496109 0.0871197 0.881685
-0.489775 0.0871388 0.87337
-0.484199 0.0871509 0.864983
-0.477617 0.0871722 0.856683
-0.471556 0.0871887 0.848332
-0.466162 0.0871991 0.83992
-0.460821 0.087209 0.831501
-0.455037 0.087223 0.823117
-0.449828 0.0872317 0.814682
-0.443489 0.0872506 0.806341
-0.438385 0.0872584 0.797893
-0.432958 0.087269 0.789469
-0.427986 0.0872755 0.781007
-0.423068 0.0872815 0.772539
-0.418203 0.087287 0.764065
-0.411831 0.0873062 0.755709
-0.407099 0.0873105 0.747221
-0.402421 0.0873143 0.738728
-0.397796 0.0873176 0.730231
-0.393092 0.0873216 0.721739
-0.388602 0.0873236 0.71323
-0.382738 0.0873382 0.704821
-0.378356 0.0873392 0.696302
-0.374028 0.0873398 0.687779
-0.369798 0.0873395 0.679249
-0.365633 0.0873386 0.670715
-0.361522 0.0873372 0.662177
-0.357466 0.0873354 0.653636
-0.352065 0.0873457 0.645185
-0.348145 0.0873425 0.636634
-0.344279 0.0873389 0.62808
-0.340468 0.0873348 0.619524
-0.336713 0.0873303 0.610964
-0.333012 0.0873252 0.602403
-0.329366 0.0873196 0.593839
-0.325775 0.0873135 0.585272
-0.320951 0.0873186 0.576781
-0.317498 0.0873113 0.568208
-0.3141 0.0873035 0.559633
-0.310757 0.0872952 0.551057
-0.307469 0.0872865 0.542479
-0.304236 0.0872772 0.5339
-0.301059 0.0872675 0.52532
-0.297938 0.0872572 0.516739
-0.294872 0.0872465 0.508157
-0.290716 0.0872456 0.499633
-0.287788 0.0872336 0.491047
-0.284916 0.0872211 0.482461
-0.2821 0.0872082 0.473875
-0.279339 0.0871948 0.465289
-0.276634 0.0871809 0.456703
-0.273984 0.0871665 0.448117
-0.27139 0.0871516 0.439531
-0.268852 0.0871362 0.430946
-0.26637 0.0871204 0.422361
-0.263943 0.087104 0.413777
-0.25967 0.0871042 0.405274
-0.257355 0.0870869 0.39669
-0.255096 0.0870691 0.388108
-0.252893 0.0870508 0.379527
-0.250746 0.087032 0.370948
-0.248654 0.0870128 0.36237
-0.246618 0.0869931 0.353794
-0.244638 0.0869729 0.34522
-0.242714 0.0869522 0.336649
-0.240845 0.086931 0.328079
-0.239032 0.0869094 0.319512
-0.237275 0.0868872 0.310947
-0.235574 0.0868646 0.302385
-0.233928 0.0868416 0.293826
-0.232338 0.086818 0.285269
-0.230804 0.086794 0.276716
-0.227939 0.0867818 0.268204
-0.225903 0.0867623 0.259673
-0.224537 0.0867368 0.251128
-0.223227 0.0867109 0.242587
-0.221972 0.0866845 0.234049
-0.220773 0.0866576 0.225516
-0.219629 0.0866303 0.216986
-0.218541 0.0866024 0.208461
-0.217508 0.0865742 0.19994
-0.216531 0.0865454 0.191424
-0.215609 0.0865162 0.182912
-0.214742 0.0864866 0.174405
-0.213931 0.0864564 0.165903
-0.213174 0.0864258 0.157406
-0.210708 0.0864104 0.148941
-0.210035 0.0863791 0.140453
-0.209418 0.0863473 0.131971
-0.208855 0.0863151 0.123494
-0.208348 0.0862825 0.115023
-0.207895 0.0862493 0.106558
-0.207498 0.0862158 0.0980988
-0.207155 0.0861818 0.0896456
-0.206867 0.0861473 0.0811986
-0.206634 0.0861124 0.072758
-0.206455 0.086077 0.0643238
-0.206331 0.0860411 0.0558963
-0.206262 0.0860049 0.0474755
-0.206247 0.0859681 0.0390616
-0.204161 0.0859496 0.0306614
-0.204229 0.0859122 0.0222598
-0.20435 0.0858744 0.0138656
-0.204526 0.0858361 0.00547864
-0.945811 0.0995777 1.78355
-0.953882 0.0994422 1.77263
-0.958213 0.0993479 1.76246
-0.962619 0.0992529 1.75229
-0.967111 0.0991571 1.74213
-0.96772 0.0991039 1.73273
-0.972204 0.0990083 1.7226
-0.976797 0.0989116 1.71247
-0.981519 0.0988136 1.70233
-0.986397 0.0987139 1.69218
-0.991463 0.0986123 1.68201
-0.996761 0.0985083 1.67182
-1.00235 0.0984012 1.6616
-1.00317 0.0983462 1.65227
-1.01086 0.0982162 1.64169
-1.01218 0.0981561 1.6323
-1.0194 0.0980315 1.62185
-1.02325 0.0979438 1.61204
-1.02517 0.0978773 1.60258
-1.02934 0.0977862 1.59273
-1.03343 0.0976962 1.58292
-1.03933 0.0975865 1.57281
-1.0426 0.0975054 1.56317
-1.04734 0.0974085 1.5533
-1.05362 0.097295 1.54317
-1.05722 0.0972107 1.53353
-1.06266 0.0971064 1.52359
-1.06785 0.0970051 1.51371
-1.07031 0.0969334 1.50431
-1.07506 0.0968369 1.49454
-1.0797 0.0967417 1.48481
-1.08144 0.0966781 1.47557
-1.08585 0.0965856 1.46591
-1.0902 0.0964937 1.45627
-1.09662 0.0963796 1.44632
-1.10078 0.0962901 1.43675
-1.10491 0.0962009 1.4272
-1.10903 0.0961119 1.41767
-1.11649 0.095987 1.40762
-1.11749 0.0959319 1.39862
-1.10766 0.0959938 1.39132
-1.09564 0.0960793 1.38435
-1.0831 0.0961702 1.37744
-1.07118 0.0962544 1.37043
-1.0561 0.0963726 1.36388
-1.04432 0.0964552 1.35681
-1.03218 0.0965415 1.34977
-1.01788 0.096651 1.34305
-1.00854 0.096707 1.33556
-0.994116 0.0968177 1.32882
-0.982666 0.0968963 1.32162
-0.971018 0.096977 1.31444
-0.95967 0.0970543 1.30719
-0.948211 0.0971328 1.29995
-0.936846 0.0972102 1.29268
-0.925696 0.0972852 1.28537
-0.914524 0.0973604 1.27804
-0.903447 0.0974345 1.27069
-0.892498 0.0975072 1.26331
-0.881618 0.097579 1.2559
-0.870834 0.0976498 1.24847
-0.860149 0.0977194 1.24102
-0.849562 0.097788 1.23353
-0.839074 0.0978554 1.22602
-0.828632 0.0979222 1.21849
-0.818347 0.0979873 1.21093
-0.809731 0.0980346 1.20314
-0.79988 0.098095 1.1955
-0.789867 0.0981571 1.18787
-0.779956 0.098218 1.18022
-0.770149 0.0982777 1.17254
-0.761648 0.0983235 1.16469
-0.752379 0.0983774 1.15692
-0.74285 0.0984341 1.14918
-0.733064 0.0984934 1.14146
-0.725438 0.0985297 1.13346
-0.716191 0.0985832 1.12565
-0.706579 0.0986405 1.11788
-0.69914 0.0986748 1.10984
-0.690178 0.0987251 1.10197
-0.681324 0.0987743 1.09408
-0.673493 0.0988125 1.08606
-0.664819 0.0988597 1.07813
-0.656254 0.0989056 1.07019
-0.649196 0.0989356 1.06206
-0.640119 0.0989869 1.05415
-0.633182 0.0990155 1.046
-0.624984 0.0990575 1.03798
-0.618169 0.0990848 1.0298
-0.609344 0.0991332 1.02183
-0.602652 0.0991592 1.01363
-0.594824 0.0991971 1.00554
-0.588256 0.0992216 0.997315
-0.579687 0.0992673 0.989293
-0.573243 0.0992905 0.981042
-0.565791 0.0993243 0.972891
-0.559472 0.0993461 0.964617
-0.551162 0.0993889 0.956542
-0.544969 0.0994094 0.948246
-0.537897 0.0994391 0.940034
-0.531831 0.0994582 0.931718
-0.525816 0.0994767 0.923393
-0.517844 0.0995158 0.915254
-0.511956 0.099533 0.906908
-0.505346 0.0995577 0.898628
-0.499587 0.0995735 0.890264
-0.49388 0.0995887 0.881892
-0.486251 0.0996241 0.873694
-0.480673 0.0996379 0.865303
-0.475146 0.0996512 0.856905
-0.469084 0.0996701 0.848553
-0.463688 0.099682 0.840138
-0.456931 0.0997081 0.83184
-0.451143 0.0997241 0.823453
-0.445931 0.099734 0.815015
-0.440772 0.0997434 0.80657
-0.435263 0.0997564 0.798153
-0.428699 0.0997804 0.789821
-0.423725 0.0997878 0.781354
-0.418804 0.0997947 0.772882
-0.413654 0.0998039 0.764428
-0.408866 0.0998094 0.755942
-0.404133 0.0998143 0.747452
-0.397793 0.0998358 0.739085
-0.393005 0.0998413 0.730595
-0.388458 0.0998442 0.722087
-0.383966 0.0998466 0.713574
-0.379528 0.0998484 0.705056
-0.375144 0.0998496 0.696535
-0.369022 0.0998688 0.688137
-0.364801 0.0998684 0.679602
-0.360634 0.0998674 0.671063
-0.356521 0.0998658 0.662521
-0.352587 0.0998623 0.653966
-0.348611 0.0998593 0.645416
-0.34469 0.0998558 0.636862
-0.340617 0.0998538 0.628318
-0.335109 0.0998666 0.619867
-0.331351 0.0998614 0.611303
-0.327649 0.0998556 0.602737
-0.324332 0.0998458 0.594148
-0.320767 0.0998386 0.585575
-0.317258 0.0998308 0.577001
-0.313804 0.0998224 0.568425
-0.309966 0.099818 0.559872
-0.305042 0.0998248 0.551382
-0.301753 0.0998148 0.542799
-0.298521 0.0998042 0.534215
-0.295343 0.099793 0.52563
-0.292222 0.0997813 0.517043
-0.289774 0.0997626 0.508424
-0.286791 0.0997495 0.499835
-0.283864 0.0997358 0.491246
-0.280992 0.0997216 0.482656
-0.276043 0.0997286 0.474171
-0.273283 0.0997133 0.465579
-0.270579 0.0996973 0.456987
-0.267931 0.0996808 0.448395
-0.265338 0.0996638 0.439804
-0.262801 0.0996462 0.431214
-0.26032 0.099628 0.422624
-0.257895 0.0996093 0.414034
-0.255526 0.09959 0.405446
-0.253212 0.0995702 0.396859
-0.250955 0.0995498 0.388273
-0.248753 0.0995289 0.379688
-0.24437 0.0995302 0.37119
-0.242281 0.0995082 0.362607
-0.240248 0.0994856 0.354025
-0.238271 0.0994624 0.345446
-0.23635 0.0994387 0.336868
-0.234485 0.0994145 0.328293
-0.232676 0.0993897 0.31972
-0.230922 0.0993643 0.311149
-0.229224 0.0993384 0.302582
-0.227583 0.099312 0.294017
-0.225997 0.099285 0.285455
-0.224467 0.0992575 0.276896
-0.222992 0.0992294 0.26834
-0.221574 0.0992008 0.259788
-0.220211 0.0991716 0.251239
-0.218904 0.099142 0.242694
-0.217653 0.0991117 0.234153
-0.216457 0.099081 0.225615
-0.215317 0.0990497 0.217082
-0.211916 0.0990413 0.208602
-0.21089 0.0990089 0.200075
-0.209918 0.0989759 0.191553
-0.209003 0.0989424 0.183036
-0.208143 0.0989084 0.174523
-0.207338 0.0988739 0.166015
-0.206588 0.0988388 0.157512
-0.205894 0.0988033 0.149014
-0.203458 0.0987853 0.140548
-0.202848 0.0987489 0.13206
-0.202293 0.098712 0.123577
-0.201793 0.0986745 0.1151
-0.201348 0.0986366 0.106629
-0.200958 0.0985981 0.0981643
-0.200624 0.0985591 0.0897054
-0.200344 0.0985196 0.0812527
-0.200119 0.0984796 0.0728064
-0.199948 0.098439 0.0643666
-0.199833 0.098398 0.0559334
-0.199772 0.0983564 0.047507
-0.199766 0.0983143 0.0390874
-0.197684 0.0982931 0.0306816
-0.19776 0.0982502 0.0222745
-0.197891 0.0982069 0.0138747
-0.198076 0.098163 0.00548225
-0.946471 0.112017 1.78342
-0.947706 0.111949 1.77384
-0.951753 0.111846 1.76372
-0.960035 0.111691 1.7528
-0.964212 0.111588 1.74269
-0.968455 0.111483 1.73259
-0.972777 0.111377 1.72249
-0.977191 0.111271 1.71239
-0.981715 0.111163 1.70229
-0.986373 0.111053 1.69218
-0.991195 0.110942 1.68206
-0.996222 0.110828 1.67192
-0.996726 0.11077 1.66264
-1.00217 0.110652 1.65245
-1.008 0.110529 1.64222
-1.01432 0.110399 1.63191
-1.01562 0.110332 1.62254
-1.01907 0.110238 1.61279
-1.02696 0.11009 1.60226
-1.03112 0.109988 1.59242
-1.03507 0.109888 1.58263
-1.04052 0.10977 1.5726
-1.04305 0.109688 1.56309
-1.04902 0.109564 1.55301
-1.05213 0.109475 1.54343
-1.05715 0.109363 1.53354
-1.06192 0.109254 1.52372
-1.06654 0.109147 1.51393
-1.07102 0.109041 1.50419
-1.07542 0.108937 1.49448
-1.07975 0.108834 1.4848
-1.08402 0.108731 1.47515
-1.08825 0.108629 1.46551
-1.09245 0.108528 1.4559
-1.09337 0.108467 1.44684
-1.09748 0.108366 1.43728
-1.10158 0.108267 1.42773
-1.10566 0.108167 1.4182
-1.11083 0.108054 1.40852
-1.11808 0.107916 1.39853
-1.11489 0.107905 1.39019
-1.10223 0.108009 1.38333
-1.08718 0.108142 1.37681
-1.07472 0.108243 1.36988
-1.05988 0.108373 1.3633
-1.04763 0.108472 1.3563
-1.03547 0.108569 1.34928
-1.02358 0.108663 1.34219
-1.00901 0.10879 1.33549
-0.997244 0.108882 1.32836
-0.985483 0.108974 1.32121
-0.973813 0.109065 1.31403
-0.962241 0.109155 1.30682
-0.948336 0.109273 1.29993
-0.939284 0.109332 1.29233
-0.925716 0.109446 1.28537
-0.914548 0.10953 1.27804
-0.903475 0.109613 1.27069
-0.892426 0.109696 1.26332
-0.881549 0.109777 1.25591
-0.870598 0.109859 1.24851
-0.859919 0.109937 1.24105
-0.849337 0.110014 1.23356
-0.8403 0.110073 1.22586
-0.829886 0.110147 1.21833
-0.819945 0.110217 1.21072
-0.80936 0.110293 1.20319
-0.799248 0.110364 1.19558
-0.789238 0.110434 1.18795
-0.778855 0.110508 1.18036
-0.770324 0.11056 1.17252
-0.761173 0.11062 1.16475
-0.750957 0.110692 1.1571
-0.741431 0.110755 1.14935
-0.732009 0.110818 1.14159
-0.724383 0.110859 1.13359
-0.714443 0.110927 1.12586
-0.705303 0.110986 1.11803
-0.697864 0.111024 1.10999
-0.688096 0.111091 1.10222
-0.679241 0.111146 1.09432
-0.671991 0.111182 1.08624
-0.663316 0.111235 1.07831
-0.65383 0.111298 1.07046
-0.646771 0.111331 1.06233
-0.638387 0.111381 1.05435
-0.631449 0.111413 1.04619
-0.622211 0.111473 1.03829
-0.615394 0.111503 1.0301
-0.607378 0.111548 1.02205
-0.600684 0.111577 1.01384
-0.591698 0.111634 1.00588
-0.585127 0.111661 0.997647
-0.577484 0.111702 0.989525
-0.571037 0.111728 0.981272
-0.562306 0.111781 0.97325
-0.555984 0.111806 0.964974
-0.548719 0.111841 0.956789
-0.542523 0.111864 0.948491
-0.534051 0.111914 0.940416
-0.527982 0.111936 0.932096
-0.521098 0.111967 0.923853
-0.515156 0.111987 0.915513
-0.509266 0.112006 0.907166
-0.501133 0.112052 0.899027
-0.495371 0.11207 0.890659
-0.488951 0.112095 0.882349
-0.483318 0.112112 0.873963
-0.476096 0.112147 0.865719
-0.46995 0.112169 0.857373
-0.464499 0.112183 0.848961
-0.459099 0.112196 0.840542
-0.45323 0.112215 0.832162
-0.446199 0.112248 0.82388
-0.440983 0.112259 0.815437
-0.43539 0.112274 0.807024
-0.430306 0.112284 0.798567
-0.425276 0.112293 0.790103
-0.4203 0.112301 0.781634
-0.41318 0.112335 0.773336
-0.408335 0.112342 0.764852
-0.403545 0.112348 0.756362
-0.398808 0.112353 0.747867
-0.393936 0.11236 0.739381
-0.389334 0.112364 0.730874
-0.382778 0.112391 0.722514
-0.378283 0.112394 0.713996
-0.373775 0.112397 0.705478
-0.369416 0.112398 0.696949
-0.365112 0.112398 0.688416
-0.360889 0.112398 0.679878
-0.356664 0.112397 0.671339
-0.350575 0.112418 0.662929
-0.346542 0.112416 0.654376
-0.342564 0.112412 0.64582
-0.33864 0.112408 0.637261
-0.334772 0.112403 0.628698
-0.330959 0.112398 0.620133
-0.326939 0.112395 0.611582
-0.321555 0.112408 0.603117
-0.317934 0.112401 0.594541
-0.314369 0.112393 0.585963
-0.310858 0.112384 0.577382
-0.307404 0.112374 0.5688
-0.304004 0.112364 0.560216
-0.30066 0.112354 0.551631
-0.297372 0.112342 0.543044
-0.292318 0.112351 0.534557
-0.289169 0.112339 0.525964
-0.286075 0.112325 0.517371
-0.283036 0.112311 0.508777
-0.280054 0.112296 0.500182
-0.277127 0.112281 0.491587
-0.274257 0.112265 0.482991
-0.271442 0.112248 0.474395
-0.268682 0.11223 0.465799
-0.265193 0.112222 0.45724
-0.260867 0.112222 0.448721
-0.258276 0.112203 0.440123
-0.255742 0.112183 0.431526
-0.253263 0.112163 0.42293
-0.25084 0.112142 0.414334
-0.248473 0.11212 0.40574
-0.246163 0.112098 0.397146
-0.243908 0.112075 0.388554
-0.241709 0.112051 0.379963
-0.239567 0.112027 0.371373
-0.23748 0.112002 0.362785
-0.23545 0.111976 0.354199
-0.232076 0.111966 0.345665
-0.230186 0.111939 0.337081
-0.227138 0.111925 0.32854
-0.225333 0.111897 0.31996
-0.223585 0.111869 0.311383
-0.221892 0.11184 0.302809
-0.220255 0.11181 0.294237
-0.218675 0.111779 0.285669
-0.21715 0.111748 0.277103
-0.215682 0.111717 0.268541
-0.214269 0.111684 0.259982
-0.212912 0.111651 0.251427
-0.211611 0.111618 0.242875
-0.210366 0.111584 0.234327
-0.209177 0.111549 0.225783
-0.208044 0.111514 0.217243
-0.206966 0.111478 0.208708
-0.205945 0.111441 0.200177
-0.204978 0.111404 0.19165
-0.204068 0.111366 0.183128
-0.203213 0.111328 0.174611
-0.202414 0.111289 0.166098
-0.199056 0.111279 0.157633
-0.198371 0.111239 0.149129
-0.197741 0.111198 0.14063
-0.195336 0.111178 0.132161
-0.19479 0.111136 0.123672
-0.1943 0.111094 0.115188
-0.193865 0.111051 0.106711
-0.193485 0.111007 0.0982392
-0.19316 0.110963 0.0897737
-0.19289 0.110919 0.0813145
-0.192676 0.110874 0.0728617
-0.192516 0.110828 0.0644154
-0.192412 0.110782 0.0559757
-0.192362 0.110735 0.0475429
-0.192366 0.110687 0.039117
-0.190288 0.110663 0.0307048
-0.190376 0.110615 0.0222913
-0.190519 0.110566 0.0138851
-0.190715 0.110516 0.00548637
-0.941315 0.124534 1.78443
-0.945215 0.124422 1.77433
-0.953249 0.124253 1.76343
-0.957235 0.12414 1.75334
-0.961264 0.124027 1.74326
-0.965342 0.123913 1.73319
-0.969479 0.123798 1.72312
-0.974896 0.123666 1.71283
-0.97901 0.123551 1.7028
-0.9832 0.123436 1.69278
-0.987483 0.12332 1.68276
-0.991884 0.123202 1.67273
-0.996441 0.123082 1.66269
-1.00121 0.12296 1.65263
-1.00626 0.122833 1.64253
-1.01173 0.122701 1.63238
-1.01396 0.122614 1.62284
-1.02093 0.122461 1.61245
-1.02266 0.122381 1.60303
-1.02676 0.122268 1.59319
-1.03083 0.122156 1.58338
-1.03636 0.122023 1.57333
-1.04091 0.121905 1.56347
-1.04678 0.121768 1.55339
-1.04972 0.121672 1.54385
-1.0546 0.121549 1.53398
-1.05926 0.121429 1.52417
-1.06091 0.121351 1.51489
-1.06521 0.121236 1.50517
-1.06944 0.121122 1.49548
-1.07523 0.120988 1.48555
-1.07924 0.120877 1.47594
-1.08323 0.120767 1.46634
-1.09074 0.12061 1.45618
-1.09477 0.1205 1.44662
-1.09878 0.12039 1.43707
-1.1028 0.12028 1.42754
-1.10681 0.12017 1.41802
-1.10716 0.12011 1.4091
-1.11546 0.119942 1.39894
-1.11543 0.119887 1.3901
-1.10562 0.119964 1.3828
-1.09036 0.120115 1.37632
-1.07789 0.120228 1.3694
-1.06283 0.120375 1.36285
-1.05056 0.120485 1.35586
-1.03836 0.120594 1.34884
-1.02366 0.120736 1.34218
-1.01169 0.120841 1.3351
-0.999799 0.120946 1.32798
-0.987909 0.12105 1.32085
-0.973815 0.121184 1.31403
-0.962148 0.121285 1.30683
-0.950669 0.121383 1.2996
-0.939096 0.121483 1.29236
-0.927807 0.121578 1.28507
-0.916328 0.121676 1.27779
-0.90523 0.121769 1.27044
-0.893845 0.121866 1.26312
-0.882941 0.121956 1.25572
-0.871649 0.122051 1.24836
-0.860941 0.122139 1.24091
-0.85033 0.122225 1.23343
-0.839818 0.122309 1.22592
-0.829406 0.122392 1.21839
-0.818507 0.122482 1.21091
-0.808295 0.122562 1.20333
-0.798185 0.122641 1.19572
-0.787484 0.122728 1.18818
-0.777577 0.122804 1.18052
-0.769631 0.122854 1.17261
-0.759094 0.122938 1.16501
-0.749462 0.123011 1.15729
-0.739934 0.123081 1.14954
-0.729599 0.123163 1.14188
-0.721971 0.123208 1.13388
-0.712723 0.123275 1.12607
-0.702556 0.123354 1.11836
-0.695114 0.123397 1.11032
-0.686149 0.12346 1.10245
-0.677292 0.123521 1.09455
-0.668898 0.123577 1.0866
-0.660219 0.123635 1.07867
-0.65165 0.123693 1.07071
-0.644589 0.12373 1.06258
-0.634942 0.123802 1.05474
-0.628 0.123838 1.04658
-0.619796 0.12389 1.03855
-0.610324 0.12396 1.03066
-0.603577 0.123993 1.02246
-0.595668 0.124041 1.01438
-0.589044 0.124073 1.00616
-0.579824 0.124138 0.998209
-0.573323 0.124168 0.989962
-0.565787 0.124211 0.981818
-0.559412 0.124239 0.973549
-0.550447 0.124301 0.96554
-0.544196 0.124328 0.957247
-0.537039 0.124366 0.949041
-0.530915 0.124391 0.940728
-0.524842 0.124415 0.932405
-0.516212 0.124472 0.924329
-0.510265 0.124494 0.915985
-0.503569 0.124526 0.90771
-0.497751 0.124547 0.899347
-0.490122 0.124591 0.891151
-0.483696 0.124619 0.882837
-0.478058 0.124637 0.874446
-0.471829 0.124663 0.866107
-0.466322 0.124679 0.857699
-0.458881 0.124721 0.849461
-0.452926 0.124743 0.841086
-0.447602 0.124757 0.832653
-0.44233 0.12477 0.824213
-0.437111 0.124783 0.815767
-0.429406 0.124827 0.807529
-0.424319 0.124838 0.799066
-0.419284 0.124848 0.790598
-0.413966 0.124862 0.782151
-0.409065 0.12487 0.773668
-0.404218 0.124878 0.76518
-0.396953 0.124917 0.756881
-0.392239 0.124922 0.748379
-0.387579 0.124928 0.739871
-0.382973 0.124932 0.731358
-0.378422 0.124936 0.722841
-0.371484 0.12497 0.7145
-0.367067 0.124972 0.70597
-0.362704 0.124973 0.697435
-0.358397 0.124974 0.688896
-0.354214 0.124973 0.680349
-0.35007 0.124971 0.671798
-0.345883 0.12497 0.663251
-0.339482 0.124997 0.654855
-0.335502 0.124994 0.646292
-0.331576 0.124989 0.637727
-0.327927 0.124981 0.629144
-0.32414 0.124975 0.620571
-0.320407 0.124968 0.611995
-0.31673 0.12496 0.603417
-0.310532 0.124985 0.594995
-0.306965 0.124976 0.58641
-0.303454 0.124966 0.577824
-0.299999 0.124956 0.569235
-0.297055 0.124939 0.560618
-0.293738 0.124927 0.552025
-0.290477 0.124914 0.54343
-0.287272 0.1249 0.534834
-0.281438 0.12492 0.526383
-0.278345 0.124905 0.517782
-0.275307 0.124889 0.509181
-0.272326 0.124873 0.50058
-0.2694 0.124855 0.491977
-0.266531 0.124837 0.483374
-0.263717 0.124819 0.474772
-0.26096 0.124799 0.466169
-0.258259 0.124779 0.457566
-0.255613 0.124759 0.448963
-0.251098 0.124762 0.440448
-0.248593 0.124739 0.431843
-0.246145 0.124716 0.423239
-0.243753 0.124692 0.414635
-0.241418 0.124668 0.406033
-0.239138 0.124642 0.397432
-0.236915 0.124616 0.388832
-0.234748 0.12459 0.380234
-0.232637 0.124562 0.371637
-0.230583 0.124534 0.363042
-0.228584 0.124506 0.354448
-0.226642 0.124476 0.345857
-0.221886 0.124483 0.337367
-0.220058 0.124452 0.328778
-0.218287 0.12442 0.320191
-0.216572 0.124388 0.311606
-0.214913 0.124355 0.303025
-0.21331 0.124321 0.294446
-0.211764 0.124287 0.28587
-0.210273 0.124252 0.277298
-0.208839 0.124216 0.268729
-0.206021 0.124198 0.260201
-0.204672 0.124162 0.251638
-0.203379 0.124124 0.243079
-0.202142 0.124086 0.234524
-0.200961 0.124047 0.225973
-0.199836 0.124008 0.217425
-0.198767 0.123968 0.208883
-0.197754 0.123927 0.200344
-0.196796 0.123886 0.19181
-0.195895 0.123844 0.183281
-0.19505 0.123801 0.174756
-0.19426 0.123757 0.166237
-0.193526 0.123713 0.157722
-0.192847 0.123669 0.149213
-0.192225 0.123623 0.140709
-0.189822 0.1236 0.132235
-0.188248 0.123567 0.123754
-0.185904 0.123543 0.115287
-0.18548 0.123495 0.106802
-0.185112 0.123447 0.098323
-0.1848 0.123398 0.0898502
-0.184542 0.123348 0.0813837
-0.18434 0.123298 0.0729236
-0.184193 0.123247 0.06447
-0.184102 0.123195 0.0560232
-0.184065 0.123143 0.0475831
-0.184083 0.12309 0.03915
-0.18201 0.123063 0.0307307
-0.182112 0.123009 0.0223101
-0.182268 0.122954 0.0138968
-0.182479 0.122899 0.00549097
-0.939318 0.137018 1.78483
-0.947172 0.136834 1.77394
-0.951019 0.136712 1.76386
-0.954894 0.136589 1.75379
-0.958799 0.136466 1.74373
-0.96274 0.136343 1.73369
-0.968571 0.136191 1.72329
-0.972473 0.136069 1.71329
-0.976415 0.135946 1.70329
-0.980402 0.135822 1.6933
-0.984448 0.135698 1.68332
-0.988565 0.135572 1.67334
-0.992778 0.135445 1.66336
-0.997117 0.135317 1.65338
-1.00164 0.135186 1.64338
-1.00642 0.135051 1.63335
-1.01161 0.13491 1.62326
-1.01747 0.134759 1.61307
-1.0187 0.134678 1.60373
-1.02638 0.1345 1.59326
-1.03013 0.134382 1.5835
-1.03012 0.134319 1.57442
-1.03442 0.134192 1.5646
-1.04339 0.133996 1.55398
-1.04761 0.13387 1.54421
-1.05173 0.133747 1.53447
-1.05579 0.133624 1.52476
-1.06312 0.133453 1.51451
-1.06718 0.13333 1.50484
-1.07122 0.133208 1.49519
-1.07173 0.133139 1.48614
-1.07568 0.133018 1.47652
-1.07964 0.132898 1.46693
-1.0879 0.132713 1.45665
-1.09183 0.132593 1.44709
-1.09577 0.132473 1.43755
-1.09971 0.132354 1.42803
-1.10366 0.132234 1.41852
-1.10762 0.132114 1.40903
-1.11158 0.131994 1.39955
-1.1156 0.131874 1.39008
-1.10859 0.131917 1.38234
-1.09322 0.132084 1.37588
-1.08055 0.132211 1.36899
-1.06553 0.132373 1.36244
-1.05312 0.132496 1.35547
-1.03825 0.132655 1.34886
-1.02616 0.132773 1.34181
-1.01366 0.132897 1.3348
-0.999489 0.133045 1.32803
-0.987708 0.133158 1.32088
-0.97572 0.133274 1.31375
-0.963729 0.13339 1.30661
-0.949795 0.133534 1.29972
-0.938417 0.133641 1.29246
-0.927132 0.133746 1.28517
-0.915452 0.133857 1.27791
-0.904358 0.133959 1.27057
-0.892769 0.134068 1.26327
-0.881866 0.134167 1.25587
-0.871061 0.134265 1.24844
-0.85966 0.134371 1.24108
-0.84905 0.134466 1.2336
-0.838539 0.134559 1.22609
-0.827329 0.134662 1.21867
-0.817016 0.134752 1.21111
-0.805899 0.134854 1.20364
-0.795786 0.134941 1.19603
-0.785776 0.135026 1.1884
-0.774853 0.135124 1.18087
-0.766904 0.135179 1.17295
-0.757166 0.13526 1.16525
-0.747531 0.13534 1.15753
-0.736872 0.135434 1.14992
-0.727445 0.135511 1.14215
-0.719815 0.13556 1.13415
-0.709321 0.135652 1.12649
-0.700174 0.135724 1.11865
-0.69273 0.135771 1.1106
