ply
format ascii 1.0
comment Created by Open3D
element vertex 1728
property double x
property double y
property double z
end_header
-0.435203 0.0498663 0.671328
-0.321479 0.0498666 0.717511
-0.36711 0.0498665 0.68406
-0.506973 0.049869 0.603269
-0.450657 0.0498682 0.620842
-0.341417 0.0498671 0.664901
-0.441772 0.0498658 0.604186
-0.172065 0.0498632 0.728603
-0.320514 0.0498612 0.643902
-0.340552 0.0498588 0.623431
-0.24897 0.0498562 0.658794
-0.533107 0.049857 0.506013
-0.342421 0.0498538 0.590978
-0.227257 0.0498503 0.638207
-0.27473 0.0498466 0.604143
-0.305075 0.0498405 0.578849
-0.456164 0.049836 0.493041
-0.250534 0.0498313 0.585618
-0.444599 0.0498263 0.478374
-0.404697 0.049821 0.48814
-0.444202 0.0498197 0.457857
-0.318707 0.0498139 0.510471
-0.360571 0.0498078 0.479433
-0.244726 0.0498014 0.527276
-0.28239 0.0497947 0.498392
-0.31179 0.0497878 0.473667
-0.314815 0.0497805 0.462157
-0.280627 0.0497692 0.469622
-0.260787 0.0497612 0.469613
-0.294616 0.049753 0.442797
-0.377643 0.0497446 0.391411
-0.221849 0.0497407 0.459027
-0.177475 0.0497317 0.471396
-0.28594 0.0497224 0.407375
-0.356396 0.0497128 0.362387
-0.350495 0.0497029 0.355607
-0.323049 0.0496928 0.359628
-0.274835 0.0496824 0.374062
-0.310429 0.0496717 0.346621
-0.290659 0.0496607 0.346893
-0.270059 0.0496495 0.347608
-0.124682 0.049638 0.410742
-0.265902 0.0496262 0.330607
-0.131811 0.0496142 0.388158
-0.218647 0.0496018 0.335274
-0.226273 0.0495892 0.322027
-0.078048 0.0495819 0.386229
-0.254118 0.0495687 0.288819
-0.271684 0.0495553 0.270693
-0.0161346 0.0495416 0.389154
-0.245123 0.0495277 0.265378
-0.140122 0.0495135 0.308628
-0.244553 0.049499 0.247193
-0.0562069 0.0494842 0.332177
-0.0803808 0.0494692 0.310933
-0.273474 0.0494539 0.205261
-0.215782 0.0494383 0.225014
-0.336876 0.0494225 0.155405
-0.327443 0.0494064 0.151092
-0.229474 0.0493901 0.191078
-0.178548 0.0493735 0.207576
-0.266054 0.0493566 0.154889
-0.209273 0.0493455 0.173802
-0.248566 0.0493308 0.145026
-0.251429 0.0493132 0.134744
-0.110118 0.0492954 0.196583
-0.16712 0.0492773 0.159297
-0.255786 0.049259 0.106212
-0.284572 0.0492404 0.0831002
-0.0584288 0.0492216 0.187486
-0.158438 0.0492025 0.12883
-0.154375 0.0491831 0.122242
-0.123847 0.0491635 0.128921
-0.108363 0.0491436 0.128111
-0.1158 0.0491235 0.115874
-0.302025 0.0491031 0.0142772
-0.103731 0.0490825 0.104974
-0.162318 0.0490616 0.0672635
-0.192113 0.049051 0.0429322
-0.210011 0.0490298 0.0256198
-0.22938 0.0490082 0.00760619
-0.35187 0.0489865 -0.0619338
-0.94644 0.06213 1.77729
-0.858566 0.0620671 1.81341
-0.964239 0.0620035 1.7528
-1.00164 0.0619391 1.72639
-0.810951 0.0618737 1.81409
-1.12828 0.0618072 1.64786
-0.942072 0.0617735 1.73192
-0.954666 0.0617051 1.71818
-1.09274 0.0616351 1.6418
-1.14171 0.0615994 1.60841
-0.810393 0.0615266 1.76689
-1.02807 0.0614517 1.65099
-1.04856 0.0614006 1.63262
-1.1723 0.0613612 1.56209
-0.931118 0.0612805 1.67596
-1.10911 0.0612247 1.5791
-1.10931 0.0611681 1.57121
-1.03743 0.061126 1.59868
-1.1943 0.0610692 1.51249
-1.05262 0.0609986 1.57624
-1.12148 0.0609442 1.53398
-1.07429 0.0608775 1.55036
-1.15506 0.0608276 1.50197
-1.10388 0.060752 1.52081
-1.0902 0.0606932 1.52011
-1.17808 0.0606371 1.46852
-1.03409 0.0605836 1.53276
-1.10414 0.060517 1.49064
-0.961618 0.0604677 1.55398
-1.0561 0.0604041 1.49954
-1.21788 0.0603582 1.41059
-1.26409 0.0602968 1.38022
-1.22547 0.0602361 1.39224
-1.08186 0.0601761 1.45675
-1.17289 0.060135 1.40301
-1.02793 0.0600762 1.46817
-1.13583 0.0600111 1.40724
-1.15722 0.0600218 1.38574
-1.24686 0.0600607 1.32869
-1.22528 0.0601377 1.3253
-1.09829 0.0601862 1.37604
-1.11463 0.0602425 1.3547
-1.06076 0.0602901 1.3689
-1.12696 0.060345 1.32266
-1.03383 0.0603916 1.3565
-1.07928 0.0604452 1.32068
-0.928069 0.0605084 1.38266
-1.03109 0.0605431 1.319
-1.01711 0.0605946 1.31294
-0.966468 0.0606388 1.32558
-1.18297 0.0606889 1.20433
-0.933124 0.0607485 1.31572
-0.993048 0.0607809 1.27366
-0.88804 0.0608289 1.31322
-0.946018 0.0608706 1.27161
-0.951888 0.0609172 1.25577
-0.97107 0.0609631 1.2333
-0.75587 0.0610032 1.32832
-0.802784 0.0610476 1.29203
-0.897625 0.0610914 1.2318
-0.804164 0.0611157 1.26677
-0.919306 0.0611582 1.19643
-0.722394 0.0612001 1.28214
-0.844601 0.0612373 1.20853
-0.859616 0.0612643 1.18907
-0.941634 0.0613042 1.13539
-0.925562 0.0613401 1.13096
-0.635808 0.0613785 1.26321
-0.82633 0.0614038 1.15605
-0.76778 0.0614383 1.1729
-0.627247 0.0614748 1.23062
-0.720512 0.0615106 1.17146
-0.766155 0.061532 1.13692
-0.763378 0.0615665 1.12584
-0.898082 0.0615891 1.04668
-0.626645 0.0616224 1.16998
-0.717925 0.0616536 1.11202
-0.681842 0.0616748 1.11831
-0.698227 0.0617061 1.09778
-0.635615 0.061736 1.11681
-0.565762 0.0617559 1.14004
-0.440355 0.0617852 1.19049
-0.576076 0.0618043 1.11096
-0.548173 0.0618323 1.11271
-0.655067 0.0618506 1.04763
-0.621975 0.0618774 1.05203
-0.758676 0.0618948 0.972085
-0.676335 0.0619203 1.00117
-0.678066 0.0619368 0.988744
-0.501178 0.0619611 1.06517
-0.466557 0.0619768 1.07095
-0.528466 0.0619997 1.02804
-0.589189 0.0620146 0.986189
-0.600939 0.0620363 0.968414
-0.435606 0.062051 1.03959
-0.598248 0.0620714 0.946438
-0.477674 0.0620845 0.995321
-0.573182 0.0620973 0.93618
-0.483014 0.0621174 0.969431
-0.611261 0.0621293 0.893964
-0.513305 0.0621466 0.931267
-0.639562 0.0621577 0.856838
-0.583725 0.0621684 0.873474
-0.42702 0.0621861 0.94011
-0.502725 0.0621959 0.891021
-0.420205 0.0622055 0.921061
-0.439586 0.0622191 0.899892
-0.438818 0.0622277 0.889105
-0.432356 0.062236 0.881183
-0.555721 0.0622508 0.807935
-0.515241 0.0622583 0.817071
-0.425316 0.0622653 0.850948
-0.412437 0.0622753 0.846117
-0.552265 0.0622815 0.765168
-0.461725 0.0622912 0.799181
-0.392233 0.0622967 0.822932
-0.447483 0.0623043 0.784176
-0.4416 0.0623089 0.776174
-0.389218 0.0623132 0.791443
-0.41532 0.0623171 0.767491
-0.329156 0.0623269 0.79929
-0.270609 0.06233 0.817716
-0.48254 0.0623327 0.700925
-0.480993 0.062335 0.690895
-0.540802 0.0623379 0.650152
-0.483691 0.0623394 0.66796
-0.45965 0.0623405 0.669255
-0.389675 0.0623466 0.693186
-0.495908 0.062347 0.629389
-0.391875 0.0623468 0.670768
-0.241468 0.0623462 0.73536
-0.348702 0.0623452 0.671157
-0.290801 0.0623438 0.689544
-0.154776 0.0623421 0.747017
-0.464432 0.0623451 0.581339
-0.312265 0.0623425 0.646943
-0.238766 0.0623396 0.673238
-0.375712 0.0623363 0.594334
-0.241474 0.0623327 0.651048
-0.210148 0.0623287 0.656331
-0.283753 0.0623244 0.609174
-0.372984 0.0623197 0.554229
-0.350892 0.0623173 0.554796
-0.296915 0.0623135 0.571399
-0.251611 0.0623076 0.58381
-0.390317 0.0623013 0.504242
-0.316235 0.0622947 0.531095
-0.280245 0.0622877 0.538928
-0.245276 0.0622804 0.546278
-0.261363 0.0622728 0.528126
-0.21839 0.0622648 0.539531
-0.364275 0.0622565 0.456534
-0.190864 0.0622555 0.532674
-0.173106 0.0622418 0.531879
-0.383052 0.0622322 0.416947
-0.253191 0.0622223 0.471945
-0.250425 0.062212 0.463424
-0.155877 0.0622014 0.500822
-0.293475 0.0621905 0.422175
-0.163189 0.0621792 0.477499
-0.490584 0.0621675 0.304011
-0.28354 0.0621555 0.397771
-0.280965 0.0621432 0.389325
-0.356384 0.0621305 0.341912
-0.302895 0.0621259 0.358374
-0.183287 0.0621126 0.408531
-0.310491 0.0620988 0.335312
-0.375852 0.0620848 0.293044
-0.203696 0.0620704 0.369564
-0.228755 0.0620557 0.347506
-0.312081 0.0620406 0.296345
-0.276459 0.0620252 0.304688
-0.228125 0.0620094 0.319418
-0.131588 0.0619933 0.358279
-0.256108 0.0619769 0.286643
-0.18657 0.0619601 0.312066
-0.209649 0.061943 0.291212
-0.292076 0.0619255 0.240715
-0.247604 0.0619078 0.253698
-0.0821235 0.0618896 0.327216
-0.383933 0.0618712 0.167121
-0.232363 0.0618524 0.233748
-0.142496 0.0618333 0.269554
-0.245941 0.0618228 0.208054
-0.13184 0.061803 0.25604
-0.245883 0.0617829 0.189986
-0.175338 0.0617624 0.216257
-0.315181 0.0617416 0.137368
-0.224055 0.0617205 0.173995
-0.253491 0.0616991 0.150373
-0.204213 0.0616882 0.165303
-0.227244 0.0616663 0.144934
-0.252097 0.061644 0.123688
-0.0654762 0.0616214 0.208211
-0.207484 0.0615985 0.128453
-0.185158 0.0615752 0.130895
-0.152763 0.0615516 0.138405
-0.327188 0.0615277 0.0425374
-0.100149 0.0615035 0.147436
-0.097536 0.0614789 0.140155
-0.243619 0.0614541 0.0585591
-0.0964043 0.0614289 0.123646
-0.394526 0.0614034 -0.0339015
-0.0303267 0.0613775 0.139746
-0.22761 0.0613514 0.0326852
-0.145317 0.0613382 0.0643946
-0.209815 0.0613116 0.0237805
-0.0613901 0.0612846 0.0896619
-0.388322 0.0612574 -0.0821008
-0.890092 0.0746256 1.81353
-1.0424 0.0745546 1.72937
-0.86159 0.0744814 1.81186
-1.05793 0.0744075 1.70584
-0.888337 0.0743327 1.78283
-1.04451 0.0742949 1.69557
-0.996848 0.0742185 1.7117
-0.921997 0.0741409 1.74148
-0.815784 0.0740618 1.78703
-1.05597 0.073981 1.65946
-1.0847 0.0739398 1.63613
-0.861788 0.0738558 1.74028
-0.994794 0.0737561 1.6671
-1.15574 0.0737108 1.57787
-1.11738 0.073618 1.59015
-1.02394 0.0735703 1.62824
-1.18292 0.0735046 1.54084
-1.07393 0.073455 1.58681
-1.17502 0.0733544 1.52976
-0.996247 0.0732687 1.61208
-1.04286 0.0732023 1.58097
-1.04415 0.0731385 1.57244
-1.06819 0.0731043 1.55136
-1.20792 0.0730271 1.47418
-1.03517 0.0729536 1.55311
-1.15058 0.0728838 1.48782
-1.00953 0.0728177 1.55065
-1.0187 0.0727367 1.53898
-1.21904 0.0726577 1.43167
-1.18328 0.0725998 1.44157
-1.07115 0.0725244 1.49039
-1.24129 0.0724502 1.39805
-1.05379 0.0723981 1.48363
-1.17858 0.0723262 1.41391
-1.19986 0.072255 1.39593
-1.06842 0.0722071 1.45336
-1.18924 0.0721373 1.38559
-1.07212 0.072068 1.43679
-1.13651 0.0719837 1.39789
-1.05212 0.0720305 1.42786
-1.01068 0.0720683 1.43671
-1.04694 0.0721599 1.40442
-1.07736 0.0722197 1.37638
-1.09255 0.0722867 1.35563
-1.06366 0.0723674 1.35632
-1.04984 0.0724325 1.35011
-1.06422 0.0724968 1.32982
-0.978886 0.0725534 1.35971
-1.02566 0.0726161 1.32326
-1.01854 0.0726717 1.31406
-1.05328 0.0727327 1.28366
-1.14083 0.072793 1.22688
-1.04184 0.0728467 1.26364
-0.753599 0.0729052 1.39479
-1.04719 0.072958 1.23528
-1.1178 0.0730148 1.18705
-0.837553 0.0730709 1.31427
-1.04793 0.0731218 1.1964
-0.843366 0.0731761 1.28582
-0.936358 0.0732297 1.22649
-0.893167 0.0732612 1.23623
-0.95922 0.0733133 1.1904
-0.874149 0.0733645 1.22016
-0.869033 0.073412 1.21011
-0.866916 0.0734615 1.19844
-0.814322 0.073508 1.21214
-0.85899 0.07354 1.17787
-0.686601 0.0735872 1.25141
-0.83522 0.0736335 1.16447
-0.706742 0.0736776 1.21617
-0.587483 0.0737074 1.26392
-0.724741 0.0737514 1.18273
-0.602352 0.0737939 1.23143
-0.752791 0.0738362 1.14371
-0.671957 0.0738638 1.1723
-0.617695 0.0739046 1.18698
-0.588223 0.0739445 1.1893
-0.784083 0.0739706 1.0796
-0.687662 0.074009 1.11544
-0.777679 0.0740353 1.05863
-0.781101 0.0740711 1.04465
-0.73156 0.0741072 1.05713
-0.752881 0.0741307 1.03478
-0.470731 0.0741652 1.16363
-0.57309 0.0741906 1.10065
-0.532042 0.0742217 1.10909
-0.695812 0.0742538 1.01507
-0.796207 0.0742747 0.953272
-0.696665 0.0743071 0.99087
-0.564643 0.074327 1.04532
-0.6404 0.074356 0.995419
-0.569003 0.0743749 1.01959
-0.489739 0.0744024 1.04726
-0.640719 0.0744229 0.960153
-0.40292 0.074444 1.0674
-0.577508 0.0744657 0.968415
-0.639372 0.0744821 0.926054
-0.534393 0.0745096 0.96655
-0.549839 0.0745249 0.94744
-0.563636 0.0745472 0.928798
-0.508649 0.0745615 0.944947
-0.412841 0.0745754 0.981523
-0.623167 0.0746001 0.864478
-0.558378 0.0746129 0.885588
-0.650517 0.0746315 0.82794
-0.516192 0.0746433 0.883864
-0.601846 0.0746547 0.829817
-0.543638 0.0746766 0.847156
-0.529341 0.0746869 0.843131
-0.492174 0.0746969 0.85056
-0.570454 0.0747111 0.800042
-0.380854 0.07472 0.883736
-0.370487 0.0747349 0.877494
-0.469106 0.0747469 0.816912
-0.565067 0.0747543 0.757894
-0.377915 0.0747613 0.840453
-0.474528 0.0747679 0.781149
-0.377728 0.0747771 0.818416
-0.384119 0.07479 0.803881
-0.502574 0.0747951 0.733729
-0.301675 0.0747998 0.823274
-0.531188 0.0748061 0.697528
-0.524004 0.0748098 0.690271
-0.316722 0.074813 0.783084
-0.372508 0.0748242 0.743933
-0.380667 0.0748276 0.729012
-0.487211 0.0748294 0.664989
-0.544195 0.0748307 0.625768
-0.410911 0.0748316 0.681705
-0.28832 0.0748321 0.732317
-0.331677 0.0748321 0.699986
-0.513556 0.0748404 0.597933
-0.361604 0.0748392 0.663319
-0.512645 0.0748376 0.577232
-0.201839 0.0748355 0.722093
-0.362014 0.0748317 0.631564
-0.415732 0.0748286 0.594223
-0.326119 0.0748251 0.628572
-0.324008 0.0748232 0.619082
-0.320806 0.074827 0.609813
-0.349125 0.0748222 0.58527
-0.379857 0.0748171 0.559545
-0.39914 0.0748085 0.539739
-0.406385 0.0748022 0.525822
-0.232895 0.0747956 0.602297
-0.377943 0.0747885 0.51953
-0.361402 0.074781 0.517584
-0.301737 0.0747841 0.536586
-0.334783 0.0747758 0.509897
-0.381739 0.074767 0.47628
-0.49509 0.0747578 0.409493
-0.469945 0.0747482 0.41198
-0.511244 0.0747382 0.381273
-0.420765 0.0747224 0.416797
-0.366328 0.0747113 0.434025
-0.33971 0.0746998 0.437372
-0.212154 0.0746879 0.491215
-0.327572 0.0746818 0.423232
-0.235566 0.0746748 0.459017
-0.282012 0.0746616 0.425942
-0.284391 0.0746481 0.41493
-0.32945 0.0746341 0.382606
-0.217464 0.0746197 0.428833
-0.324697 0.0746049 0.36548
-0.277743 0.0745896 0.37925
-0.217101 0.074574 0.399892
-0.211027 0.0745579 0.39328
-0.320066 0.0745415 0.329141
-0.297461 0.0745246 0.330854
-0.281978 0.0745073 0.329035
-0.300852 0.0744896 0.310068
-0.158748 0.0744806 0.371064
-0.303712 0.0744657 0.288889
-0.290144 0.0744468 0.286232
-0.306426 0.0744274 0.268681
-0.412901 0.0744077 0.206064
-0.25428 0.0743875 0.276025
-0.262376 0.0743669 0.262659
-0.340802 0.074346 0.214159
-0.221941 0.0743246 0.264334
-0.26571 0.0743028 0.233224
-0.162842 0.0742806 0.275465
-0.165853 0.074258 0.264798
-0.199985 0.0742351 0.238602
-0.277714 0.0742117 0.190639
-0.279713 0.0741879 0.180573
-0.298863 0.0741637 0.161964
-0.11496 0.0741391 0.244913
-0.16534 0.0741141 0.210753
-0.163575 0.0740888 0.202698
-0.208128 0.074063 0.171516
-0.245883 0.07405 0.142926
-0.0767882 0.0740236 0.218619
-0.0935669 0.0739968 0.201408
-0.119704 0.0739697 0.179551
-0.180328 0.0739421 0.140483
-0.313717 0.0739142 0.0650663
-0.161655 0.0738859 0.132408
-0.139148 0.0738572 0.135005
-0.0386409 0.0738281 0.176636
-0.312386 0.0737986 0.0311748
-0.248323 0.0737687 0.054651
-0.226438 0.0737384 0.0570717
-0.373061 0.0737078 -0.0247276
-0.222245 0.0736768 0.0422261
-0.164007 0.0736454 0.0629254
-0.201955 0.0736295 0.034512
-0.384268 0.0735975 -0.0650107
-0.183759 0.0735652 0.0269115
-0.0851984 0.0735324 0.0678939
-1.00737 0.0870812 1.75432
-0.958898 0.0870184 1.76991
-1.0031 0.0869347 1.73985
-0.969134 0.0868503 1.74891
-0.900066 0.086765 1.77557
-0.957866 0.0866777 1.73888
-0.877949 0.0865912 1.77105
-0.852978 0.0865024 1.77584
-1.03565 0.086412 1.67688
-0.94254 0.0863197 1.7159
-0.979589 0.0862727 1.68838
-1.01473 0.0861769 1.66342
-1.00481 0.0860781 1.66112
-0.895694 0.0860274 1.70685
-1.15403 0.0859231 1.57065
-1.19797 0.085851 1.54059
-1.01666 0.0857581 1.62387
-1.07794 0.0856597 1.58607
-0.984561 0.085601 1.62428
-0.999223 0.0855214 1.6092
-1.27382 0.085423 1.4648
-1.00951 0.0853482 1.58908
-0.970939 0.0852577 1.60104
-0.996697 0.0851724 1.58068
-0.977432 0.0850922 1.58268
-1.11198 0.0850168 1.50762
-0.919935 0.084946 1.59572
-1.05832 0.0848565 1.51928
-0.921847 0.084769 1.58021
-1.06155 0.0847074 1.50217
-1.00991 0.0846234 1.5206
-1.24857 0.0845404 1.39387
-1.15884 0.0844583 1.43133
-1.23775 0.0843768 1.38446
-1.23234 0.0842959 1.37975
-1.03666 0.0842154 1.47018
-1.15652 0.0841354 1.40284
-1.19524 0.0840558 1.37608
-1.10118 0.0839712 1.4159
-1.1076 0.0839541 1.40307
-1.05883 0.0840354 1.41425
-0.949944 0.0841349 1.45481
-1.16182 0.0841878 1.33666
-1.18718 0.0842923 1.30987
-1.08965 0.0843628 1.34575
-1.11719 0.0844392 1.31886
-0.908679 0.0845085 1.41024
-1.11592 0.0846076 1.29261
-1.05489 0.0846511 1.31118
-1.01633 0.0847477 1.3165
-1.08562 0.0848191 1.26884
-0.835126 0.0848848 1.38125
-0.879739 0.0849543 1.34596
-0.934114 0.0850189 1.30595
-0.903606 0.0850864 1.30826
-0.855487 0.0851529 1.31939
-1.00932 0.0852154 1.22968
-0.818263 0.08528 1.31233
-0.740863 0.0853437 1.33817
-0.902267 0.0854041 1.24471
-0.870167 0.0854657 1.24795
-0.72028 0.085525 1.31015
-0.824528 0.0855649 1.24603
-0.937812 0.0856239 1.17663
-0.745859 0.0856815 1.2599
-0.765562 0.0857385 1.23734
-0.788357 0.0857945 1.21327
-0.956897 0.0858495 1.11634
-0.83675 0.085886 1.16449
-0.710166 0.085939 1.21518
-0.735616 0.0859913 1.18988
-0.720533 0.0860426 1.18486
-0.869491 0.0860779 1.09846
-0.70248 0.0861262 1.16951
-0.81964 0.0861747 1.09845
-0.849414 0.0862236 1.07106
-0.756787 0.0862547 1.10558
-0.691359 0.0863005 1.1259
-0.692534 0.0863453 1.11294
-0.589478 0.0863768 1.15264
-0.606543 0.0864198 1.13179
-0.593982 0.0864512 1.12622
-0.651208 0.0864892 1.08548
-0.65139 0.0865327 1.07302
-0.528615 0.086559 1.12275
-0.51895 0.0865974 1.11541
-0.681868 0.0866225 1.02233
-0.647492 0.0866635 1.02722
-0.545151 0.0866874 1.06681
-0.588481 0.0867223 1.03308
-0.681016 0.0867504 0.97504
-0.630229 0.0867835 0.988434
-0.491911 0.086805 1.04608
-0.529768 0.0868364 1.01522
-0.56438 0.0868567 0.986439
-0.600081 0.0868927 0.956438
-0.364004 0.0869118 1.06305
-0.670179 0.0869396 0.898148
-0.532149 0.0869575 0.955774
-0.584181 0.086991 0.917687
-0.582993 0.0870077 0.906934
-0.446026 0.0870239 0.964087
-0.513611 0.0870473 0.918644
-0.480856 0.0870624 0.923736
-0.637586 0.0870926 0.833411
-0.342267 0.0871064 0.969829
-0.482204 0.0871197 0.888638
-0.614069 0.0871388 0.811223
-0.569481 0.0871509 0.822341
-0.592227 0.0871722 0.799378
-0.514827 0.0871887 0.826697
-0.394797 0.0871991 0.875603
-0.607762 0.087209 0.75803
-0.607618 0.087223 0.746827
-0.523078 0.0872317 0.778057
-0.365216 0.0872506 0.845478
-0.376105 0.0872584 0.829032
-0.406958 0.087269 0.802469
-0.458865 0.0872755 0.765567
-0.553848 0.0872815 0.707148
-0.351264 0.087287 0.797534
-0.366726 0.0873062 0.778261
-0.454163 0.0873105 0.723689
-0.528118 0.0873143 0.67588
-0.491571 0.0873176 0.683343
-0.250139 0.0873216 0.793215
-0.221905 0.0873236 0.796578
-0.0735709 0.0873382 0.859405
-0.335843 0.0873392 0.717559
-0.482494 0.0873398 0.633546
-0.383675 0.0873395 0.672311
-0.43236 0.0873386 0.637351
-0.39747 0.0873372 0.644203
-0.323409 0.0873354 0.670664
-0.389398 0.0873457 0.626518
-0.357673 0.0873425 0.63187
-0.378294 0.0873389 0.611073
-0.305192 0.0873348 0.637162
-0.218887 0.0873303 0.669877
-0.338633 0.0873252 0.599592
-0.353052 0.0873196 0.581996
-0.320101 0.0873135 0.588109
-0.389418 0.0873186 0.542548
-0.366409 0.0873113 0.543752
-0.210321 0.0873035 0.611523
-0.172262 0.0872952 0.620304
-0.333338 0.0872865 0.529544
-0.228455 0.0872772 0.571791
-0.383893 0.0872675 0.483903
-0.254769 0.0872572 0.538323
-0.410987 0.0872465 0.450099
-0.230724 0.0872456 0.529629
-0.288616 0.0872336 0.490634
-0.173561 0.0872211 0.538139
-0.37144 0.0872082 0.429205
-0.312321 0.0871948 0.448798
-0.331399 0.0871809 0.42932
-0.265572 0.0871665 0.452323
-0.295957 0.0871516 0.427247
-0.273956 0.0871362 0.428394
-0.33082 0.0871204 0.390136
-0.397872 0.087104 0.346813
-0.249367 0.0871042 0.410425
-0.17629 0.0870869 0.437223
-0.357811 0.0870691 0.33675
-0.252454 0.0870508 0.379747
-0.215799 0.087032 0.388421
-0.0772105 0.0870128 0.448092
-0.337459 0.0869931 0.308374
-0.241287 0.0869729 0.346896
-0.181436 0.0869522 0.367287
-0.288304 0.086931 0.304349
-0.391892 0.0869094 0.243082
-0.15859 0.0868872 0.35029
-0.199303 0.0868646 0.32052
-0.273185 0.0868416 0.274197
-0.204655 0.086818 0.299111
-0.146156 0.086794 0.31904
-0.142067 0.0867818 0.31114
-0.168207 0.0867623 0.288521
-0.141186 0.0867368 0.292804
-0.184731 0.0867109 0.261834
-0.346604 0.0866845 0.171733
-0.279552 0.0866576 0.196126
-0.215298 0.0866303 0.219152
-0.206608 0.0866024 0.214427
-0.166137 0.0865742 0.225626
-0.189546 0.0865454 0.204916
-0.239468 0.0865162 0.170982
-0.180482 0.0864866 0.191535
-0.258359 0.0864564 0.143689
-0.165664 0.0864258 0.181161
-0.229678 0.0864104 0.139456
-0.265327 0.0863791 0.112807
-0.205528 0.0863473 0.133916
-0.329019 0.0863151 0.0634125
-0.228667 0.0862825 0.104864
-0.1831 0.0862493 0.118956
-0.099815 0.0862158 0.15194
-0.236736 0.0861818 0.0748552
-0.370652 0.0861473 -0.000693955
-0.223377 0.0861124 0.0643864
-0.270691 0.086077 0.0322061
-0.246944 0.0860411 0.0355898
-0.0348732 0.0860049 0.13317
-0.247817 0.0859681 0.0182762
-0.04118 0.0859496 0.112152
-0.190802 0.0859122 0.0289731
-0.162499 0.0858744 0.0347913
-0.0565734 0.0858361 0.0794549
-0.835231 0.0995777 1.83884
-0.944828 0.0994422 1.77715
-0.809145 0.0993479 1.83699
-0.881159 0.0992529 1.79302
-0.988133 0.0991571 1.73162
-0.832254 0.0991039 1.80046
-1.0394 0.0990083 1.689
-1.08909 0.0989116 1.65632
-1.11168 0.0988136 1.63725
-0.907024 0.0987139 1.73187
-1.11084 0.0986123 1.62233
-0.82589 0.0985083 1.75726
-0.990533 0.0984012 1.6675
-1.05349 0.0983462 1.6271
-1.03497 0.0982162 1.62964
-1.08246 0.0981561 1.59716
-0.976947 0.0980315 1.64308
-0.881808 0.0979438 1.68276
-0.928119 0.0978773 1.6511
-1.01408 0.0977862 1.60036
-1.07827 0.0976962 1.5605
-1.18697 0.0975865 1.49898
-1.08998 0.0975054 1.53948
-1.05304 0.0974085 1.55045
-0.959408 0.097295 1.59028
-0.821746 0.0972107 1.65127
-1.18283 0.0971064 1.46351
-1.10958 0.0970051 1.49285
-1.058 0.0969334 1.51047
-1.07492 0.0968369 1.49461
-1.00848 0.0967417 1.52042
-1.15921 0.0966781 1.43668
-1.01869 0.0965856 1.49949
-1.07209 0.0964937 1.46533
-1.08597 0.0963796 1.45164
-1.1318 0.0962901 1.42123
-1.09821 0.0962009 1.43055
-1.2644 0.0961119 1.33998
-1.04487 0.095987 1.44343
-1.06142 0.0959319 1.42665
-1.08983 0.0959938 1.40024
-1.1397 0.0960793 1.36232
-1.19749 0.0961702 1.32025
-1.0418 0.0962544 1.38512
-0.940214 0.0963726 1.42182
-0.984869 0.0964552 1.38653
-1.19536 0.0965415 1.26818
-1.05963 0.096651 1.32217
-1.03317 0.096707 1.32325
-1.07887 0.0968177 1.28644
-1.11172 0.0968963 1.25709
-0.942184 0.096977 1.32885
-1.04087 0.0970543 1.26659
-0.892553 0.0971328 1.32778
-0.860571 0.0972102 1.33082
-0.799724 0.0972852 1.34835
-0.952414 0.0973604 1.2591
-1.02034 0.0974345 1.21225
-0.93465 0.0975072 1.24223
-0.885545 0.097579 1.25394
-0.70591 0.0976498 1.33094
-0.920248 0.0977194 1.21097
-1.0751 0.097788 1.12076
-0.77783 0.0978554 1.25664
-0.883271 0.0979222 1.19117
-0.842082 0.0979873 1.19907
-0.750165 0.0980346 1.23292
-0.792399 0.098095 1.19924
-0.742183 0.0981571 1.21171
-0.714192 0.098218 1.2131
-0.8336 0.0982777 1.14082
-0.732438 0.0983235 1.17929
-0.711259 0.0983774 1.17748
-0.718205 0.0984341 1.1615
-0.88279 0.0984934 1.06659
-0.736685 0.0985297 1.12784
-0.661507 0.0985832 1.15299
-0.704774 0.0986405 1.11878
-0.588983 0.0986748 1.16492
-0.667215 0.0987251 1.11345
-0.701817 0.0987743 1.08383
-0.930573 0.0988125 0.957522
-0.652089 0.0988597 1.0845
-0.606394 0.0989056 1.09512
-0.651319 0.0989356 1.061
-0.557303 0.0989869 1.09556
-0.721096 0.0990155 1.00204
-0.678256 0.0990575 1.01134
-0.670914 0.0990848 1.00343
-0.414152 0.0991332 1.11943
-0.680389 0.0991592 0.974762
-0.71826 0.0991971 0.943825
-0.562022 0.0992216 1.01043
-0.556579 0.0992673 1.00085
-0.488082 0.0992905 1.02362
-0.410785 0.0993243 1.05039
-0.820322 0.0993461 0.834192
-0.596854 0.0993889 0.933696
-0.534611 0.0994094 0.953425
-0.448429 0.0994391 0.984768
-0.485117 0.0994582 0.955074
-0.486056 0.0994767 0.943273
-0.576887 0.0995158 0.885732
-0.627782 0.099533 0.848995
-0.59602 0.0995577 0.853291
-0.6248 0.0995735 0.827658
-0.531638 0.0995887 0.863013
-0.467345 0.0996241 0.883147
-0.63254 0.0996379 0.789369
-0.630663 0.0996512 0.779147
-0.513513 0.0996701 0.826338
-0.274878 0.099682 0.934543
-0.496071 0.0997081 0.81227
-0.386858 0.0997241 0.855596
-0.482073 0.099734 0.796944
-0.462688 0.0997434 0.795612
-0.39026 0.0997564 0.820655
-0.349855 0.0997804 0.829243
-0.37177 0.0997878 0.807332
-0.456962 0.0997947 0.753804
-0.453184 0.0998039 0.744663
-0.313156 0.0998094 0.803797
-0.383163 0.0998143 0.757937
-0.219166 0.0998358 0.828398
-0.411187 0.0998413 0.721504
-0.275806 0.0998442 0.778413
-0.410856 0.0998466 0.700129
-0.327965 0.0998484 0.730838
-0.304555 0.0998496 0.731829
-0.341463 0.0998688 0.701917
-0.317366 0.0998684 0.703319
-0.334085 0.0998674 0.684337
-0.189456 0.0998658 0.746053
-0.256493 0.0998623 0.702014
-0.356163 0.0998593 0.64164
-0.332017 0.0998558 0.643198
-0.389939 0.0998538 0.603657
-0.220161 0.0998666 0.677341
-0.335738 0.0998614 0.60911
-0.397294 0.0998556 0.567914
-0.339502 0.0998458 0.586563
-0.195184 0.0998386 0.648367
-0.246341 0.0998308 0.61246
-0.421382 0.0998224 0.514636
-0.382979 0.099818 0.523365
-0.357158 0.0998248 0.525324
-0.431239 0.0998148 0.478056
-0.220188 0.0998042 0.573381
-0.267355 0.099793 0.539624
-0.234905 0.0997813 0.545702
-0.317722 0.0997626 0.49445
-0.277708 0.0997495 0.504377
-0.226645 0.0997358 0.519855
-0.315373 0.0997216 0.465466
-0.261206 0.0997286 0.481589
-0.117766 0.0997133 0.543337
-0.314546 0.0996973 0.435003
-0.342646 0.0996808 0.411038
-0.381966 0.0996638 0.38149
-0.257441 0.0996462 0.433894
-0.199153 0.099628 0.453207
-0.326059 0.0996093 0.379952
-0.303107 0.09959 0.381655
-0.432129 0.0995702 0.307401
-0.250219 0.0995498 0.388641
-0.187752 0.0995289 0.410189
-0.276498 0.0995302 0.355126
-0.341347 0.0995082 0.313074
-0.117505 0.0994856 0.415397
-0.270548 0.0994624 0.329307
-0.3794 0.0994387 0.265343
-0.0790967 0.0994145 0.405987
-0.271345 0.0993897 0.300385
-0.323403 0.0993643 0.264909
-0.0955322 0.0993384 0.369428
-0.237031 0.099312 0.289293
-0.149223 0.099285 0.323841
-0.348493 0.0992575 0.214882
-0.147249 0.0992294 0.306212
-0.193175 0.0992008 0.273987
-0.187497 0.0991716 0.267596
-0.239123 0.099142 0.232584
-0.177483 0.0991117 0.254237
-0.18512 0.099081 0.241284
-0.401376 0.0990497 0.124052
-0.207577 0.0990413 0.210772
-0.25424 0.0990089 0.178401
-0.361574 0.0989759 0.115725
-0.247238 0.0989424 0.163918
-0.147767 0.0989084 0.204711
-0.213194 0.0988739 0.163086
-0.231963 0.0988388 0.144825
-0.269584 0.0988033 0.117169
-0.243501 0.0987853 0.120526
-0.216114 0.0987489 0.125427
-0.159897 0.098712 0.144775
-0.199429 0.0986745 0.116283
-0.179399 0.0986366 0.117604
-0.160557 0.0985981 0.118365
-0.185929 0.0985591 0.0970528
-0.103668 0.0985196 0.129591
-0.32078 0.0984796 0.0124757
-0.144706 0.098439 0.0919879
-0.23184 0.098398 0.03993
-0.167453 0.0983564 0.0636666
-0.194242 0.0983143 0.0418492
-0.130761 0.0982931 0.064143
-0.133538 0.0982502 0.0543854
-0.124065 0.0982069 0.0507874
-0.164308 0.098163 0.0223661
-0.989393 0.112017 1.76196
-0.829446 0.111949 1.83297
-0.97366 0.111846 1.75276
-1.05626 0.111691 1.70469
-0.886506 0.111588 1.78154
-0.970337 0.111483 1.73165
-1.02054 0.111377 1.69861
-0.962919 0.111271 1.71953
-1.03242 0.111163 1.67694
-1.03598 0.111053 1.66738
-0.943064 0.110942 1.70613
-1.03054 0.110828 1.65476
-1.03929 0.11077 1.64135
-1.08837 0.110652 1.60935
-0.957726 0.110529 1.66735
-1.00605 0.110399 1.63605
-1.1365 0.110332 1.5621
-1.04854 0.110238 1.59805
-0.993107 0.11009 1.61919
-1.13934 0.109988 1.53831
-1.08803 0.109888 1.55615
-1.08265 0.10977 1.55154
-0.976745 0.109688 1.59624
-1.02457 0.109564 1.56523
-0.967074 0.109475 1.58596
-1.11741 0.109363 1.50341
-1.08993 0.109254 1.50971
-1.04119 0.109147 1.52661
-1.09165 0.109041 1.49388
-1.13658 0.108937 1.4639
-1.12523 0.108834 1.46206
-1.0603 0.108731 1.48701
-0.975008 0.108629 1.52214
-1.17655 0.108528 1.41385
-0.956114 0.108467 1.51547
-1.11044 0.108366 1.4308
-1.08792 0.108267 1.43456
-0.972385 0.108167 1.48484
-1.12443 0.108054 1.40172
-1.13515 0.107916 1.38999
-0.969115 0.107905 1.46308
-1.15993 0.108009 1.35447
-1.18509 0.108142 1.32786
-1.10066 0.108243 1.35692
-1.09406 0.108373 1.34621
-1.10146 0.108472 1.32939
-1.03141 0.108569 1.35131
-1.08948 0.108663 1.30924
-1.14059 0.10879 1.2697
-0.933149 0.108882 1.36041
-1.19393 0.108974 1.21698
-1.0515 0.109065 1.27519
-0.832416 0.109155 1.37173
-1.02418 0.109273 1.26201
-0.961658 0.109332 1.28115
-1.00332 0.109446 1.24656
-0.779347 0.10953 1.34564
-0.984565 0.109613 1.23014
-1.01818 0.109696 1.20044
-0.834283 0.109777 1.27955
-0.840918 0.109859 1.26335
-0.910463 0.109937 1.21577
-0.887032 0.110014 1.21471
-0.91936 0.110073 1.18633
-0.755644 0.110147 1.25545
-0.818562 0.110217 1.21141
-0.6879 0.110293 1.26392
-0.887708 0.110364 1.15135
-0.620493 0.110434 1.27233
-0.702587 0.110508 1.21849
-0.756547 0.11056 1.17941
-0.689526 0.11062 1.20057
-0.673154 0.110692 1.196
-0.60785 0.110755 1.21614
-0.615505 0.110818 1.19984
-0.669628 0.110859 1.16097
-0.732734 0.110927 1.11672
-0.571186 0.110986 1.18509
-0.712925 0.111024 1.10246
-0.693943 0.111091 1.09929
-0.656436 0.111146 1.10573
-0.68351 0.111182 1.08048
-0.740585 0.111235 1.03967
-0.554365 0.111298 1.1202
-0.623116 0.111331 1.07416
-0.762532 0.111381 0.992275
-0.588451 0.111413 1.06769
-0.473835 0.111473 1.11247
-0.541218 0.111503 1.06719
-0.707909 0.111548 0.971783
-0.639799 0.111577 0.994285
-0.547768 0.111634 1.02784
-0.461074 0.111661 1.05967
-0.469846 0.111702 1.04334
-0.636966 0.111728 0.948307
-0.287692 0.111781 1.11056
-0.655334 0.111806 0.915299
-0.615956 0.111841 0.92317
-0.640363 0.111864 0.899571
-0.576936 0.111914 0.918974
-0.559882 0.111936 0.916146
-0.555288 0.111967 0.906758
-0.465023 0.111987 0.94058
-0.405023 0.112006 0.959287
-0.486421 0.112052 0.906383
-0.500414 0.11207 0.888137
-0.52719 0.112095 0.86323
-0.379264 0.112112 0.925991
-0.496341 0.112147 0.855597
-0.498999 0.112169 0.842848
-0.649178 0.112183 0.756621
-0.302238 0.112196 0.918973
-0.651923 0.112215 0.732816
-0.608698 0.112248 0.74263
-0.461359 0.112259 0.805249
-0.605155 0.112274 0.722142
-0.594213 0.112284 0.716613
-0.397909 0.112293 0.803787
-0.496543 0.112301 0.743512
-0.467704 0.112335 0.746074
-0.471323 0.112342 0.733358
-0.369481 0.112348 0.773394
-0.373105 0.112353 0.760718
-0.539862 0.11236 0.666419
-0.433493 0.112364 0.708795
-0.513649 0.112391 0.657078
-0.399417 0.112394 0.703428
-0.543764 0.112397 0.620484
-0.426544 0.112398 0.668385
-0.462128 0.112398 0.639909
-0.332716 0.112398 0.693964
-0.339904 0.112397 0.679719
-0.156182 0.112418 0.760125
-0.411371 0.112416 0.621962
-0.31475 0.112412 0.659727
-0.307804 0.112408 0.652679
-0.223138 0.112403 0.684516
-0.277327 0.112398 0.646949
-0.323716 0.112395 0.613194
-0.41913 0.112408 0.554329
-0.279759 0.112401 0.613628
-0.296205 0.112393 0.595045
-0.359524 0.112384 0.55305
-0.380172 0.112374 0.532416
-0.336759 0.112364 0.543839
-0.227174 0.112354 0.588375
-0.392246 0.112342 0.495608
-0.203425 0.112351 0.579003
-0.228357 0.112339 0.55637
-0.391541 0.112325 0.464638
-0.452341 0.112311 0.424124
-0.370949 0.112296 0.454734
-0.321716 0.112281 0.469292
-0.35669 0.112265 0.441774
-0.190875 0.112248 0.514678
-0.28839 0.11223 0.455945
-0.225011 0.112222 0.477331
-0.274003 0.112222 0.442153
-0.187431 0.112203 0.475546
-0.305893 0.112183 0.406451
-0.240235 0.112163 0.429444
-0.222222 0.112142 0.428643
-0.392972 0.11212 0.33349
-0.175081 0.112098 0.432687
-0.256764 0.112075 0.382125
-0.31546 0.112051 0.343088
-0.125363 0.112027 0.428475
-0.362967 0.112002 0.300042
-0.303562 0.111976 0.320143
-0.245575 0.111966 0.338916
-0.194336 0.111939 0.355006
-0.160799 0.111925 0.361709
-0.270063 0.111897 0.297595
-0.276024 0.111869 0.285163
-0.415187 0.11184 0.206161
-0.236182 0.11181 0.286274
-0.257889 0.111779 0.266061
-0.229828 0.111748 0.270764
-0.202483 0.111717 0.27514
-0.180186 0.111684 0.277024
-0.21848 0.111651 0.248643
-0.204392 0.111618 0.246484
-0.293972 0.111584 0.192524
-0.402376 0.111549 0.129184
-0.126895 0.111514 0.257818
-0.250395 0.111478 0.186993
-0.271 0.111441 0.167649
-0.28444 0.111404 0.151919
-0.27863 0.111366 0.145847
-0.203108 0.111328 0.174663
-0.0326219 0.111289 0.250994
-0.285881 0.111279 0.11422
-0.147664 0.111239 0.174482
-0.084218 0.111198 0.197391
-0.0602475 0.111178 0.199705
-0.165675 0.111136 0.138229
-0.192526 0.111094 0.116075
-0.269644 0.111051 0.068821
-0.299878 0.111007 0.0450426
-0.164355 0.110963 0.104176
-0.154939 0.110919 0.10029
-0.0979804 0.110874 0.120209
-0.237925 0.110828 0.0417112
-0.187698 0.110782 0.0583323
-0.0917405 0.110735 0.0978535
-0.0594949 0.110687 0.105553
-0.256798 0.110663 -0.00254999
-0.0105336 0.110615 0.112213
-0.0708363 0.110566 0.0737263
-0.096724 0.110516 0.0524821
-0.935027 0.124534 1.78758
-0.944489 0.124422 1.77469
-1.10537 0.124253 1.68737
-1.09303 0.12414 1.68544
-1.08729 0.124027 1.68024
-1.03579 0.123913 1.69796
-0.898074 0.123798 1.75882
-0.890617 0.123666 1.75497
-0.976229 0.123551 1.70419
-0.941785 0.123436 1.71349
-1.05969 0.12332 1.64665
-0.811408 0.123202 1.76297
-1.09406 0.123082 1.61388
-0.862197 0.12296 1.72213
-0.92674 0.122833 1.68229
-0.932043 0.122701 1.67223
-1.00769 0.122614 1.62597
-0.959489 0.122461 1.64317
-1.01059 0.122381 1.60906
-1.04898 0.122268 1.58208
-0.971313 0.122156 1.61314
-0.98449 0.122023 1.59926
-0.932282 0.121905 1.61778
-1.08566 0.121768 1.53395
-0.91819 0.121672 1.60961
-1.02323 0.121549 1.54967
-1.09268 0.121429 1.50746
-1.05447 0.121351 1.51811
-1.04704 0.121236 1.51425
-1.16019 0.121122 1.45011
-1.20076 0.120988 1.42279
-1.00296 0.120877 1.51408
-1.0758 0.120767 1.47006
-1.13285 0.12061 1.43513
-1.15439 0.1205 1.41681
-1.01608 0.12039 1.47842
-0.989305 0.12028 1.48428
-1.06435 0.12017 1.43925
-1.19328 0.12011 1.36604
-1.2087 0.119942 1.35232
-1.13893 0.119887 1.37835
-1.25137 0.119964 1.30993
-1.02951 0.120115 1.40675
-1.05901 0.120228 1.37884
-1.02943 0.120375 1.37955
-1.07386 0.120485 1.34421
-1.06688 0.120594 1.33458
-0.817808 0.120736 1.44511
-1.03398 0.120841 1.32395
-0.843365 0.120946 1.4062
-0.974787 0.12105 1.32741
-0.962157 0.121184 1.31986
-1.03373 0.121285 1.27104
-0.97067 0.121383 1.2896
-0.912381 0.121483 1.30572
-0.917523 0.121578 1.29021
-0.879765 0.121676 1.29607
-0.965628 0.121769 1.24025
-0.925314 0.121866 1.24739
-0.95699 0.121956 1.2187
-0.781882 0.122051 1.29325
-0.82759 0.122139 1.25758
-0.914124 0.122225 1.20153
-0.786371 0.122309 1.25265
-0.779055 0.122392 1.24357
-0.732398 0.122482 1.25397
-0.778218 0.122562 1.21837
-0.649303 0.122641 1.27016
-0.837013 0.122728 1.16342
-0.822242 0.122804 1.15819
-0.590274 0.122854 1.26228
-0.694037 0.122938 1.19754
-0.792235 0.123011 1.1359
-0.714053 0.123081 1.16248
-0.631835 0.123163 1.19076
-0.6993 0.123208 1.14522
-0.660425 0.123275 1.15222
-0.527158 0.123354 1.20606
-0.466122 0.123397 1.22481
-0.63152 0.12346 1.12976
-0.795315 0.123521 1.03554
-0.655567 0.123577 1.09326
-0.731749 0.123635 1.0429
-0.679563 0.123693 1.05676
-0.593757 0.12373 1.088
-0.578659 0.123802 1.08288
-0.469329 0.123838 1.12591
-0.519851 0.12389 1.08853
-0.696909 0.12396 0.987368
-0.646354 0.123993 1.00107
-0.648347 0.124041 0.988044
-0.57352 0.124073 1.01392
-0.574293 0.124138 1.00097
-0.607429 0.124168 0.972909
-0.493274 0.124211 1.01807
-0.515182 0.124239 0.995663
-0.459945 0.124301 1.01079
-0.411578 0.124328 1.02356
-0.538033 0.124366 0.948544
-0.595813 0.124391 0.908279
-0.405373 0.124415 0.99214
-0.640245 0.124472 0.862312
-0.367446 0.124494 0.987395
-0.423507 0.124526 0.947741
-0.381739 0.124547 0.957353
-0.507347 0.124591 0.882538
-0.400239 0.124619 0.924565
-0.448409 0.124637 0.889271
-0.538827 0.124663 0.832608
-0.539294 0.124679 0.821213
-0.583298 0.124721 0.787252
-0.448061 0.124743 0.843519
-0.435045 0.124757 0.838931
-0.346846 0.12477 0.871955
-0.566246 0.124783 0.751199
-0.482259 0.124827 0.781103
-0.35517 0.124838 0.833641
-0.349909 0.124848 0.825285
-0.375915 0.124862 0.801176
-0.353842 0.12487 0.80128
-0.542313 0.124878 0.696132
-0.29573 0.124917 0.807493
-0.372 0.124922 0.758498
-0.396684 0.124928 0.735319
-0.518579 0.124932 0.663555
-0.359387 0.124936 0.732358
-0.484627 0.12497 0.657928
-0.387983 0.124972 0.695512
-0.332727 0.124973 0.712423
-0.301838 0.124974 0.717176
-0.487022 0.124973 0.613944
-0.310703 0.124971 0.691482
-0.28974 0.12497 0.691323
-0.269553 0.124997 0.689819
-0.20629 0.124994 0.710898
-0.472963 0.124989 0.567033
-0.355264 0.124981 0.615475
-0.218362 0.124975 0.67346
-0.29776 0.124968 0.623319
-0.439336 0.12496 0.542114
-0.148152 0.124985 0.676185
-0.313053 0.124976 0.583367
-0.190302 0.124966 0.634399
-0.377172 0.124956 0.530648
-0.283738 0.124939 0.567277
-0.268092 0.124927 0.564848
-0.0841493 0.124914 0.646594
-0.179327 0.1249 0.588807
-0.300678 0.12492 0.516763
-0.169595 0.124905 0.572157
-0.308979 0.124889 0.492346
-0.348403 0.124873 0.462541
-0.282775 0.124855 0.48529
-0.322529 0.124837 0.455376
-0.210064 0.124819 0.501598
-0.263911 0.124799 0.464693
-0.198061 0.124779 0.487664
-0.263779 0.124759 0.44488
-0.0604655 0.124762 0.535764
-0.0853739 0.124739 0.513453
-0.187439 0.124716 0.452592
-0.169296 0.124692 0.451864
-0.113025 0.124668 0.470229
-0.310985 0.124642 0.361509
-0.335559 0.124616 0.33951
-0.231719 0.12459 0.381748
-0.340264 0.124562 0.317824
-0.0376231 0.124534 0.459521
-0.144514 0.124506 0.396484
-0.314661 0.124476 0.301848
-0.314786 0.124483 0.290917
-0.16142 0.124452 0.358097
-0.23562 0.12442 0.311524
-0.248428 0.124388 0.295678
-0.222267 0.124355 0.299348
-0.151587 0.124321 0.325308
-0.170504 0.124287 0.3065
-0.264599 0.124252 0.250135
-0.138544 0.124216 0.303876
-0.162396 0.124198 0.282013
-0.269653 0.124162 0.219147
-0.128672 0.124124 0.280432
-0.115256 0.124086 0.277967
-0.147749 0.124047 0.252579
-0.10404 0.124008 0.265323
-0.105832 0.123968 0.25535
-0.162556 0.123927 0.217943
-0.203136 0.123886 0.18864
-0.21595 0.123844 0.173253
-0.226757 0.123801 0.158902
0.0384076 0.123757 0.28257
-0.219628 0.123713 0.144671
-0.0937853 0.123669 0.198744
0.0239734 0.123623 0.248808
-0.124961 0.1236 0.164666
0.0102795 0.123567 0.223018
-0.304045 0.123543 0.0562167
-0.249683 0.123495 0.0747007
-0.395648 0.123447 -0.0069448
-0.309551 0.123398 0.0274744
0.080299 0.123348 0.213804
-0.26365 0.123298 0.0332685
-0.212741 0.123247 0.050196
-0.152233 0.123195 0.0719573
-0.251762 0.123143 0.0137345
-0.32429 0.12309 -0.0309535
-0.148284 0.123063 0.0475935
-0.185298 0.123009 0.0207169
-0.225728 0.122954 -0.00783344
-0.137186 0.122899 0.0281372
-0.897685 0.137018 1.80564
-1.03133 0.136834 1.73186
-1.03987 0.136712 1.71943
-0.976658 0.136589 1.74291
-0.909197 0.136466 1.76853
-0.916984 0.136343 1.75656
-0.973752 0.136191 1.7207
-0.988753 0.136069 1.70515
-1.13195 0.135946 1.62552
-0.959093 0.135822 1.70396
-1.05142 0.135698 1.64984
-0.859983 0.135572 1.73763
-1.15914 0.135445 1.58018
-1.00738 0.135317 1.64825
-1.09467 0.135186 1.59686
-1.09525 0.135051 1.58893
-0.970982 0.13491 1.64358
-0.95949 0.134759 1.64207
-0.92703 0.134678 1.64957
-0.988503 0.1345 1.6122
-1.02802 0.134382 1.58456
-1.08111 0.134319 1.54893
-1.0112 0.134192 1.57621
-0.978078 0.133996 1.58664
-1.10234 0.13387 1.51684
-0.939895 0.133747 1.59039
-0.960926 0.133624 1.57219
-1.17304 0.133453 1.45955
-0.984905 0.13333 1.54598
-1.1886 0.133208 1.43649
-0.964573 0.133139 1.53971
-1.11407 0.133018 1.45733
-1.09456 0.132898 1.45947
-1.1653 0.132713 1.41795
-1.14757 0.132593 1.41922
-1.24035 0.132473 1.36526
-1.03203 0.132354 1.46187
-1.02178 0.132234 1.45947
-1.15817 0.132114 1.38375
-0.888094 0.131994 1.51129
-1.22716 0.131874 1.3343
-1.05318 0.131917 1.41004
-1.0244 0.132084 1.41029
-1.07172 0.132211 1.37341
-1.25718 0.132373 1.26661
-1.07139 0.132496 1.34634
-1.01923 0.132655 1.35837
-1.01443 0.132773 1.34767
-1.15619 0.132897 1.26353
-0.97925 0.133045 1.33815
-0.95597 0.133158 1.33675
-0.989756 0.133274 1.30673
-1.05382 0.13339 1.26156
-1.02172 0.133534 1.26376
-1.00015 0.133641 1.26159
-1.03944 0.133746 1.22901
-0.916317 0.133857 1.27748
-0.82438 0.133959 1.31055
-0.903886 0.134068 1.25771
-0.94051 0.134167 1.22655
-0.900313 0.134265 1.23382
-0.874809 0.134371 1.23351
-0.845854 0.134466 1.2352
-0.880672 0.134559 1.20503
-0.78295 0.134662 1.24086
-0.743524 0.134752 1.24785
-0.757853 0.134854 1.22767
-0.856161 0.134941 1.16585
-0.752612 0.135026 1.20498
-0.872409 0.135124 1.13209
-0.655839 0.135179 1.22849
-0.672366 0.13526 1.20765
-0.695311 0.13534 1.18364
-0.777056 0.135434 1.12983
-0.593981 0.135511 1.20888
-0.614193 0.13556 1.18696
-0.689473 0.135652 1.13641
-0.648292 0.135724 1.14459
-0.73891 0.135771 1.08751
-0.692869 0.13586 1.09766
-0.627537 0.135928 1.118
-0.708255 0.135994 1.06534
-0.662196 0.136037 1.07667
-0.588815 0.136122 1.10055
-0.675986 0.136163 1.0453
-0.746229 0.136224 0.997986
-0.627482 0.136306 1.04459
-0.671744 0.136344 1.01084
-0.593685 0.1364 1.03777
-0.551654 0.136437 1.04721
-0.631113 0.136515 0.994773
-0.608928 0.13655 0.994324
-0.517157 0.1366 1.02823
-0.453422 0.136633 1.04859
-0.531096 0.136707 0.997114
-0.617767 0.136753 0.941898
-0.595106 0.136783 0.941789
-0.538659 0.136812 0.958588
-0.415826 0.136883 1.00743
-0.567692 0.13691 0.920116
-0.671223 0.136949 0.856625
-0.750729 0.136974 0.805532
-0.581087 0.137041 0.877858
-0.502572 0.137064 0.905818
-0.602333 0.137087 0.844658
-0.422144 0.137119 0.923191
-0.407421 0.13714 0.919319
-0.4713 0.137201 0.874992
-0.561674 0.13722 0.818616
-0.469907 0.137238 0.853329
-0.460911 0.137263 0.846439
-0.290621 0.137313 0.919507
-0.466261 0.137328 0.820583
-0.487048 0.137349 0.798905
-0.466533 0.137363 0.798109
-0.346226 0.137375 0.84723
-0.387158 0.137428 0.814571
-0.372845 0.137439 0.810744
-0.458604 0.137448 0.756902
-0.534133 0.137458 0.708196
-0.497915 0.13747 0.715271
-0.435284 0.137477 0.735699
-0.38249 0.13752 0.75015
-0.305557 0.137525 0.77777
-0.14224 0.137532 0.848541
-0.4549 0.137536 0.681421
-0.526891 0.137539 0.634658
-0.452722 0.137579 0.659856
-0.257416 0.137581 0.746774
-0.373738 0.137581 0.67793
-0.286794 0.13758 0.710747
-0.288736 0.137578 0.699146
-0.259747 0.137575 0.703034
-0.370932 0.137574 0.636805
-0.424474 0.137605 0.598394
-0.41815 0.1376 0.591032
-0.373524 0.137594 0.602845
-0.227699 0.137587 0.665283
-0.234015 0.137579 0.651675
-0.220321 0.137571 0.648098
-0.385802 0.137566 0.554812
-0.291053 0.137587 0.590851
-0.335431 0.137576 0.558324
-0.218426 0.137564 0.606515
-0.222974 0.137551 0.593955
-0.328229 0.137538 0.531069
-0.290987 0.137523 0.539457
-0.398687 0.137508 0.475401
-0.229565 0.1375 0.54953
-0.221593 0.137518 0.542278
-0.291022 0.137492 0.497722
-0.147439 0.137473 0.559427
-0.237819 0.137454 0.504178
-0.221892 0.137433 0.50211
-0.0801713 0.137413 0.562967
-0.17891 0.137391 0.503623
-0.143815 0.137368 0.511223
-0.421868 0.137357 0.3619
-0.287616 0.137364 0.418107
-0.277101 0.13734 0.413502
-0.20941 0.137314 0.437513
-0.128366 0.137288 0.468229
-0.381121 0.13726 0.332075
0.0162377 0.137232 0.521008
-0.354649 0.137204 0.325847
-0.314673 0.137174 0.336148
-0.176181 0.137144 0.395736
-0.438097 0.137113 0.255151
-0.147034 0.137081 0.391084
-0.0293575 0.137065 0.439812
-0.216191 0.13706 0.335925
-0.114588 0.137026 0.377218
-0.0950488 0.136991 0.37751
-0.168619 0.136955 0.331279
-0.322069 0.136919 0.245138
-0.212876 0.136882 0.29035
-0.161748 0.136844 0.306561
-0.0517715 0.136805 0.352227
-0.282687 0.136766 0.227479
-0.221861 0.136726 0.248633
-0.204169 0.136685 0.248252
-0.140494 0.136643 0.270895
-0.282661 0.136601 0.190648
-0.300341 0.136579 0.171935
-0.295732 0.136536 0.165126
-0.0936262 0.136491 0.257099
-0.378137 0.136446 0.105795
-0.0164618 0.1364 0.277618
-0.125639 0.136354 0.214046
-0.283858 0.136307 0.125987
-0.171724 0.136283 0.172299
-0.107399 0.136254 0.194867
-0.185726 0.136205 0.146853
-0.209597 0.136155 0.1261
-0.266134 0.136104 0.0890468
-0.156207 0.136052 0.135259
-0.128017 0.135999 0.140637
-0.361323 0.135973 0.0143584
-0.30734 0.135919 0.0326855
-0.340886 0.135865 0.00728199
-0.139881 0.13581 0.0991885
-0.0508713 0.135754 0.135131
-0.255958 0.135698 0.0240603
-0.135384 0.135641 0.0758541
-0.140929 0.135583 0.0646231
-0.12375 0.135524 0.0647883
-0.2264 0.135495 0.00400275
-0.0823521 0.135435 0.067657
-0.244549 0.135375 -0.0217764
-0.0948617 0.135314 0.0447674
-1.01494 0.1495 1.74653
-0.979932 0.149368 1.75582
-1.04131 0.14917 1.71817
-0.795702 0.149038 1.83281
-0.933675 0.148905 1.75569
-0.940837 0.148798 1.74352
-0.921037 0.1486 1.74654
-1.04864 0.148468 1.67465
-1.01539 0.148336 1.6832
-1.11088 0.148203 1.62742
-0.961539 0.148071 1.69407
-1.13776 0.14787 1.59925
-1.09208 0.147736 1.61415
-1.07441 0.1476 1.61508
-0.850139 0.147463 1.71936
-1.10627 0.147324 1.58352
-0.929908 0.14718 1.66401
-0.989106 0.147028 1.62691
-1.08592 0.146947 1.56964
-0.785867 0.146763 1.71281
-1.00774 0.146632 1.59403
-1.21776 0.146465 1.48189
-0.99409 0.146318 1.58624
-0.999868 0.146227 1.57476
-0.937703 0.146093 1.59812
-1.06983 0.14596 1.52433
-1.07245 0.145821 1.51544
-0.902574 0.14569 1.59265
-1.2018 0.145495 1.43664
-1.2427 0.145364 1.40851
-1.03115 0.145233 1.50661
-0.953788 0.145103 1.53764
-1.05359 0.144972 1.48011
-1.07073 0.144841 1.46392
-1.15457 0.144714 1.41434
-1.16889 0.144584 1.3996
-1.13908 0.144385 1.40836
-1.13054 0.144255 1.40509
-1.08674 0.144124 1.41947
-1.11012 0.143994 1.40028
-1.08833 0.143865 1.40364
-1.18354 0.143912 1.34481
-1.09108 0.144053 1.37778
-1.06956 0.144234 1.37441
-1.15584 0.144373 1.31801
-1.01573 0.144549 1.37398
-1.06536 0.14468 1.33605
-0.918587 0.144858 1.39527
-1.03775 0.144985 1.32262
-1.04366 0.145118 1.30643
-1.06861 0.145282 1.28001
-0.935684 0.145404 1.33345
-0.825833 0.145534 1.37517
-1.00528 0.145652 1.27246
-0.979311 0.145819 1.27138
-0.823603 0.145933 1.33629
-1.08635 0.146046 1.192
-0.993045 0.14617 1.22547
-0.779531 0.14628 1.31935
-0.725607 0.146388 1.33346
-0.835944 0.146509 1.26513
-0.792653 0.146614 1.27397
-0.747362 0.146733 1.28346
-0.765137 0.146835 1.2618
-0.820262 0.146935 1.2215
-0.807676 0.147051 1.21466
-0.908285 0.147147 1.15167
-0.836114 0.147242 1.17508
-0.854869 0.147355 1.15261
-0.902426 0.147446 1.11621
-0.898933 0.147536 1.10537
-0.7472 0.147616 1.16885
-0.778746 0.147703 1.14053
-0.672696 0.147788 1.18104
-0.71804 0.147894 1.14533
-0.661419 0.147976 1.16118
-0.712948 0.148029 1.12361
-0.590853 0.148133 1.17165
-0.581686 0.148209 1.16384
-0.821749 0.14826 1.03206
-0.753486 0.14836 1.05321
-0.625438 0.148433 1.10493
-0.7265 0.148503 1.04213
-0.732085 0.148549 1.02765
-0.506436 0.148645 1.12756
-0.522848 0.148689 1.1077
-0.659712 0.148753 1.02711
-0.616943 0.148846 1.03562
-0.7191 0.148887 0.972937
-0.52629 0.148946 1.05727
-0.617406 0.148985 1.00015
-0.545491 0.149074 1.0233
-0.389396 0.149111 1.08982
-0.678711 0.149164 0.933208
-0.513843 0.149199 1.00416
-0.623251 0.149283 0.936705
-0.519904 0.149316 0.976929
-0.533645 0.149363 0.958234
-0.558775 0.149393 0.934262
-0.416161 0.149474 0.992894
-0.535655 0.149502 0.92178
-0.518925 0.149543 0.918452
-0.395018 0.14957 0.969083
-0.309632 0.149645 0.999179
-0.572327 0.14967 0.856551
-0.414627 0.149693 0.92414
-0.488933 0.149727 0.875459
-0.462204 0.149788 0.876579
-0.572327 0.149818 0.810059
-0.424121 0.149838 0.872993
-0.343793 0.149856 0.902006
-0.448305 0.149874 0.83862
-0.568311 0.14994 0.766203
-0.489824 0.149955 0.794362
-0.407917 0.14997 0.824253
-0.470693 0.14999 0.781648
-0.255866 0.150003 0.87805
-0.296688 0.150058 0.845495
-0.272331 0.150073 0.846565
-0.545511 0.150083 0.699035
-0.390099 0.150092 0.765822
-0.473443 0.1501 0.713253
-0.316523 0.150155 0.779537
-0.387729 0.15016 0.733089
-0.27368 0.150165 0.779291
-0.480849 0.150169 0.664907
-0.246427 0.150174 0.771306
-0.296453 0.150222 0.734276
-0.296507 0.150223 0.723526
-0.397872 0.150223 0.66215
-0.358777 0.150221 0.671059
-0.278977 0.150218 0.700331
-0.255504 0.150215 0.701463
-0.36618 0.150259 0.634207
-0.458068 0.150254 0.577705
-0.226682 0.150248 0.682864
-0.199732 0.150238 0.685933
-0.370249 0.15023 0.590203
-0.115335 0.150221 0.707214
-0.266068 0.150216 0.621286
-0.4662 0.150251 0.509561
-0.259678 0.150239 0.60245
-0.348768 0.150227 0.547558
-0.227537 0.150214 0.597853
-0.34073 0.1502 0.530963
-0.164055 0.150177 0.609255
-0.276762 0.150161 0.542674
-0.282526 0.150195 0.528122
-0.280619 0.150177 0.518899
-0.283584 0.150158 0.507267
-0.320572 0.150139 0.478651
-0.358714 0.150118 0.449486
-0.199883 0.150097 0.518834
-0.140608 0.150075 0.538433
-0.322377 0.150052 0.437538
-0.236043 0.150028 0.470722
-0.125628 0.150056 0.51444
-0.239949 0.15003 0.447352
-0.291346 0.150004 0.411754
-0.202058 0.149976 0.446528
-0.273156 0.149948 0.401137
-0.290933 0.149919 0.382437
-0.300636 0.14989 0.367803
-0.270779 0.149859 0.372978
-0.176283 0.149828 0.410502
-0.253388 0.149795 0.362256
-0.266921 0.149779 0.345322
-0.270682 0.149781 0.332709
-0.178603 0.149746 0.369143
-0.242048 0.14971 0.327846
-0.133737 0.149674 0.372457
-0.00933152 0.149637 0.425146
-0.390178 0.149598 0.22524
-0.227506 0.149559 0.297124
-0.196037 0.149519 0.303439
-0.30954 0.149479 0.237298
-0.249273 0.149437 0.258073
