ply
format ascii 1.0
comment Created by Open3D
element vertex 1745
property double x
property double y
property double z
end_header
-0.16796 0.192922 0.938433
-0.223261 0.192831 0.901677
-0.231254 0.192731 0.888777
-0.150794 0.192642 0.919868
-0.175307 0.192592 0.897682
-0.0600607 0.192506 0.946132
-0.188507 0.192407 0.873037
-0.152571 0.192323 0.881797
-0.191905 0.192273 0.852226
-0.141102 0.192193 0.868383
-0.0987819 0.192093 0.880703
-0.167504 0.192015 0.837062
-0.206725 0.191966 0.807572
-0.193852 0.19189 0.804691
-0.172784 0.191791 0.806416
-0.19674 0.191718 0.785084
-0.194179 0.191619 0.777572
-0.208084 0.191598 0.760164
-0.145118 0.191499 0.782868
-0.193075 0.191431 0.74946
-0.200674 0.191333 0.736896
-0.147701 0.191316 0.752845
-0.211898 0.191218 0.711996
-0.118971 0.191155 0.748953
-0.169402 0.191057 0.715001
-0.178414 0.191008 0.700692
-0.14024 0.190948 0.710238
-0.157643 0.19085 0.692823
-0.197375 0.190792 0.663377
-0.225584 0.190695 0.640574
-0.216616 0.190688 0.634354
-0.213626 0.190591 0.627162
-0.216756 0.190537 0.615939
-0.13847 0.19044 0.646409
-0.296939 0.190392 0.55742
-0.233865 0.190341 0.579262
-0.153277 0.190245 0.610904
-0.0939806 0.190196 0.630818
-0.130229 0.1901 0.604056
-0.119616 0.190102 0.598491
-0.28377 0.190006 0.507787
-0.119825 0.18991 0.581142
-0.131785 0.189866 0.565352
-0.162781 0.18977 0.541249
-0.0844603 0.189777 0.569454
-0.112744 0.189681 0.546718
-0.170966 0.189586 0.509023
-0.198528 0.189546 0.485355
-0.095584 0.189451 0.528254
-0.205779 0.189404 0.463481
-0.166807 0.189367 0.473042
-0.221834 0.189272 0.436976
-0.103141 0.189225 0.486661
-0.0783399 0.189143 0.490218
-0.142072 0.189095 0.4487
-0.218999 0.189048 0.40059
-0.180375 0.188969 0.411026
-0.1459 0.188874 0.41975
-0.19198 0.188844 0.386672
-0.142745 0.188797 0.401661
-0.126947 0.188703 0.401066
-0.0909388 0.188656 0.409453
-0.117677 0.188582 0.387142
-0.126271 0.188488 0.37437
-0.106651 0.188441 0.374579
-0.159509 0.188416 0.338041
-0.133804 0.188323 0.342436
-0.146517 0.188229 0.327631
-0.163503 0.188206 0.308992
-0.245803 0.188159 0.258263
-0.141387 0.188067 0.302039
-0.137679 0.187974 0.29547
-0.0650333 0.187953 0.321612
-0.107427 0.18786 0.292001
-0.0996881 0.187814 0.286319
-0.213825 0.187722 0.220852
-0.0883354 0.187702 0.273381
-0.187218 0.18761 0.215551
-0.153847 0.187518 0.223856
-0.10496 0.187472 0.238773
-0.0957228 0.187381 0.235026
-0.138763 0.187364 0.203256
-0.11383 0.187272 0.207366
0.000282765 0.187181 0.256073
-0.122285 0.187135 0.185289
-0.12475 0.187044 0.175722
-0.130131 0.186953 0.164706
-0.111806 0.186939 0.163585
-0.153889 0.186848 0.134225
-0.094488 0.186802 0.15445
-0.117259 0.186712 0.134761
-0.123029 0.186621 0.123581
-0.169782 0.18653 0.0919162
-0.0327761 0.18644 0.152139
-0.155384 0.186395 0.0813897
-0.161315 0.186305 0.0701575
-0.122962 0.186214 0.081075
-0.161948 0.186169 0.0521537
-0.0823439 0.186113 0.0828155
-0.147118 0.186069 0.0410069
-0.135981 0.185979 0.0383375
-0.12808 0.185889 0.0340578
-0.203484 0.1858 -0.0118672
-0.129554 0.185711 0.016882
-0.0994569 0.185666 0.0225378
-0.115306 0.185577 0.00641054
0.0209753 0.217439 1.66677
0.0680938 0.217029 1.68505
0.0564866 0.216465 1.67638
0.0149499 0.21606 1.65034
-0.000466753 0.215755 1.63585
-0.0893035 0.215453 1.58465
-0.117489 0.215246 1.5623
-0.134519 0.214948 1.54699
-0.105153 0.214654 1.55484
-0.0640092 0.214451 1.56716
-0.123067 0.214163 1.53076
-0.0910867 0.213965 1.53849
-0.117588 0.213684 1.51831
-0.093873 0.213489 1.52189
-0.129161 0.213296 1.49596
-0.137511 0.213104 1.4835
-0.115928 0.21297 1.48509
-0.118715 0.212781 1.4754
-0.0889049 0.212521 1.48319
-0.151157 0.212338 1.44373
-0.168003 0.212156 1.42696
-0.0820742 0.212043 1.46045
-0.107766 0.211853 1.43943
-0.14857 0.211677 1.41064
-0.13982 0.211503 1.40662
-0.14917 0.211391 1.39252
-0.243391 0.211218 1.33701
-0.232723 0.211104 1.33299
-0.11987 0.210936 1.38099
-0.190305 0.21077 1.33732
-0.207619 0.210606 1.32019
-0.0926136 0.210494 1.36834
-0.183998 0.210383 1.31332
-0.242861 0.210229 1.27529
-0.180745 0.210072 1.29783
-0.160092 0.209961 1.29885
-0.20312 0.20982 1.26857
-0.153822 0.209709 1.28393
-0.169845 0.209559 1.26734
-0.184633 0.209448 1.25069
-0.124431 0.209321 1.27184
-0.236184 0.20919 1.20708
-0.172071 0.209068 1.23012
-0.199566 0.208957 1.20716
-0.104242 0.208847 1.24562
-0.209169 0.208734 1.18401
-0.139597 0.208599 1.21007
-0.260683 0.208489 1.14035
-0.248341 0.208379 1.13735
-0.15142 0.208281 1.17646
-0.207356 0.208153 1.13968
-0.0897151 0.208044 1.18936
-0.181566 0.207935 1.13431
-0.199154 0.207826 1.1164
-0.135275 0.207742 1.13877
-0.104419 0.207622 1.1453
-0.183492 0.207514 1.09667
-0.0892404 0.207405 1.13472
-0.136007 0.207336 1.10153
-0.247685 0.207228 1.03662
-0.167361 0.20712 1.06773
-0.189362 0.207012 1.04769
-0.216342 0.206953 1.02424
-0.218952 0.206845 1.0139
-0.161565 0.206737 1.03358
-0.144094 0.206683 1.03229
-0.200796 0.206577 0.994911
-0.224163 0.206474 0.974157
-0.235419 0.206367 0.959547
-0.17018 0.206266 0.983065
-0.157703 0.206212 0.979315
-0.165034 0.206114 0.966516
-0.205346 0.206019 0.937186
-0.237739 0.205912 0.912049
-0.221152 0.205873 0.910105
-0.0922457 0.205767 0.965632
-0.274613 0.205677 0.865207
-0.191107 0.20557 0.898052
-0.184099 0.205536 0.891244
-0.207171 0.20543 0.870814
-0.165376 0.205346 0.882401
-0.151706 0.205264 0.879884
-0.21916 0.205158 0.837287
-0.189727 0.205105 0.842096
-0.175975 0.205026 0.839589
-0.135935 0.20495 0.850185
-0.254133 0.204844 0.782246
-0.163908 0.204792 0.817475
-0.199151 0.204718 0.790397
-0.206483 0.204647 0.777232
-0.170307 0.204542 0.78651
-0.16611 0.20449 0.778748
-0.11852 0.204421 0.793011
-0.139437 0.204355 0.772979
-0.0861004 0.204251 0.790865
-0.146866 0.204188 0.750871
-0.258579 0.204136 0.68518
-0.130948 0.204075 0.739346
-0.0876954 0.203971 0.752217
-0.138713 0.203913 0.71702
-0.0944992 0.203809 0.730387
-0.216619 0.203757 0.659521
-0.135036 0.203702 0.690589
-0.161334 0.203598 0.668722
-0.180999 0.203545 0.649129
-0.247607 0.203442 0.60712
-0.158252 0.203443 0.640916
-0.136122 0.20334 0.643288
-0.129276 0.203289 0.636941
-0.169048 0.203189 0.608307
-0.120163 0.203138 0.622991
-0.176792 0.203092 0.584803
-0.188311 0.20299 0.570385
-0.124262 0.202947 0.592497
-0.120681 0.202845 0.585641
-0.10935 0.202855 0.580262
-0.118629 0.202753 0.566987
-0.0945735 0.202702 0.569289
-0.0615689 0.202613 0.576906
-0.0810116 0.202562 0.557469
-0.131799 0.202526 0.522051
-0.116484 0.202424 0.521105
-0.166467 0.202374 0.486413
-0.15266 0.202289 0.484364
-0.185777 0.202239 0.458115
-0.157473 0.202207 0.46217
-0.0928723 0.202106 0.485898
-0.14441 0.202056 0.450452
-0.143952 0.201976 0.441664
-0.117229 0.201926 0.445357
-0.150945 0.201899 0.418331
-0.217729 0.201799 0.376396
-0.20606 0.201749 0.372577
-0.152478 0.201673 0.390286
-0.0652442 0.201574 0.42538
-0.0740093 0.2016 0.409636
-0.0804721 0.201501 0.397891
-0.152653 0.201401 0.353296
-0.112997 0.20138 0.362851
-0.0963994 0.201281 0.362656
-0.124636 0.201182 0.340053
-0.0621569 0.201213 0.359855
-0.192421 0.201114 0.286246
-0.160843 0.201015 0.293567
-0.106066 0.200998 0.310616
-0.0268397 0.2009 0.341771
-0.143173 0.200851 0.274016
-0.170286 0.200752 0.252016
-0.130145 0.200737 0.261716
-0.0718891 0.20064 0.28241
-0.15637 0.200542 0.231745
-0.101733 0.200578 0.247516
-0.0435538 0.20048 0.268189
-0.158387 0.200382 0.202363
-0.02155 0.200285 0.26238
-0.117563 0.200236 0.20483
-0.11777 0.200177 0.195445
-0.0960144 0.200128 0.196786
-0.0991335 0.200032 0.186849
-0.0375709 0.199935 0.20926
-0.0109606 0.199886 0.213047
-0.122709 0.199829 0.147867
-0.0359469 0.199781 0.181737
-0.0403882 0.199685 0.171169
-0.114303 0.199589 0.125872
-0.0689931 0.199492 0.140195
-0.0214324 0.199396 0.155651
-0.145817 0.199348 0.0839779
-0.0460181 0.199342 0.123386
-0.140078 0.199246 0.0680463
-0.0885363 0.199151 0.0855148
-0.133952 0.199056 0.0545121
-0.0827737 0.19896 0.0718135
-0.0969489 0.198913 0.0552744
-0.0939216 0.198817 0.048514
-0.108646 0.198722 0.0328848
-0.0966237 0.198628 0.0306366
-0.0481571 0.198533 0.0466175
-0.0639741 0.198485 0.0292864
-0.077476 0.198391 0.0142963
0.0512414 0.23214 1.70082
0.014993 0.231331 1.68265
0.0160904 0.230626 1.68174
-0.0657635 0.230193 1.63549
-0.0812935 0.229867 1.6209
0.0337974 0.229381 1.67397
-0.0312402 0.229061 1.6346
-0.0233173 0.228744 1.6317
-0.0719825 0.228527 1.59907
-0.0650459 0.228216 1.59565
-0.104199 0.228002 1.56778
-0.0847013 0.227699 1.57058
-0.0900924 0.227489 1.55958
-0.143922 0.22734 1.52346
-0.0758001 0.227133 1.54921
-0.0913225 0.226843 1.5344
-0.125828 0.22664 1.50881
-0.130954 0.22644 1.49791
-0.124094 0.226241 1.49299
-0.0726641 0.226043 1.51035
-0.0891677 0.225908 1.49282
-0.107233 0.225714 1.47541
-0.172864 0.225522 1.43421
-0.0559958 0.225264 1.4853
-0.214653 0.225145 1.3965
-0.113137 0.22496 1.43884
-0.1441 0.224835 1.41399
-0.0817437 0.224654 1.43671
-0.145713 0.224475 1.39626
-0.192277 0.224298 1.36448
-0.153322 0.22418 1.37456
-0.147414 0.22401 1.36894
-0.0472055 0.22384 1.4105
-0.0967785 0.223722 1.37635
-0.17529 0.223555 1.32853
-0.203766 0.223437 1.30496
-0.14743 0.223286 1.32433
-0.150351 0.223126 1.31424
-0.138732 0.223009 1.31074
-0.172615 0.222891 1.28451
-0.131332 0.222755 1.29617
-0.201965 0.222602 1.25216
-0.131619 0.222485 1.27807
-0.145833 0.222368 1.26171
-0.182519 0.222247 1.2342
-0.19529 0.222102 1.21904
-0.18392 0.221986 1.21551
-0.173056 0.221869 1.21172
-0.138611 0.221753 1.21975
-0.268552 0.221647 1.14541
-0.252156 0.221511 1.14476
-0.190776 0.221395 1.16628
-0.156987 0.221279 1.17401
-0.152612 0.221188 1.16661
-0.198611 0.221073 1.13447
-0.134743 0.220957 1.15727
-0.151526 0.22083 1.13996
-0.183521 0.220714 1.11485
-0.098068 0.22064 1.14776
-0.213769 0.220525 1.08081
-0.174482 0.22041 1.09137
-0.301986 0.220346 1.01764
-0.181194 0.220232 1.06897
-0.160471 0.220117 1.07026
-0.201996 0.220003 1.04043
-0.196439 0.219889 1.03417
-0.195307 0.219836 1.02462
-0.240649 0.219721 0.992927
-0.219247 0.219614 0.994496
-0.191855 0.219557 0.99817
-0.258749 0.219452 0.95556
-0.25015 0.21935 0.950657
-0.209515 0.219236 0.961989
-0.125411 0.219137 0.994807
-0.171635 0.21908 0.961706
-0.0516393 0.218984 1.01244
-0.227714 0.21889 0.91509
-0.194811 0.218778 0.922597
-0.169996 0.218743 0.924635
-0.210296 0.218631 0.895554
-0.188442 0.218543 0.897104
-0.265832 0.218486 0.848461
-0.140949 0.218402 0.901491
-0.164131 0.218319 0.880446
-0.15766 0.218207 0.874788
-0.188528 0.218128 0.849866
-0.255958 0.218016 0.807274
-0.153719 0.217995 0.847825
-0.122807 0.217883 0.854418
-0.129366 0.21781 0.841577
-0.182901 0.217754 0.804913
-0.140861 0.217683 0.816334
-0.146283 0.217572 0.804789
-0.154892 0.217503 0.790849
-0.134196 0.217438 0.79152
-0.23663 0.217382 0.730432
-0.148623 0.217272 0.765629
-0.218101 0.217209 0.72118
-0.166548 0.217148 0.737205
-0.242954 0.217038 0.690215
-0.109302 0.216983 0.747199
-0.145997 0.216925 0.719066
-0.155924 0.21687 0.704276
-0.127688 0.21676 0.709633
-0.131761 0.216706 0.697775
-0.0419648 0.216653 0.732812
-0.195457 0.216598 0.646253
-0.157615 0.216494 0.65635
-0.100512 0.216439 0.6751
-0.243513 0.216392 0.593663
-0.131339 0.216283 0.641036
-0.113682 0.216238 0.639891
-0.182952 0.216184 0.595473
-0.197095 0.216087 0.579474
-0.196893 0.216033 0.569802
-0.199315 0.215992 0.558544
-0.0858587 0.215884 0.606595
-0.173369 0.215846 0.552755
-0.147762 0.215739 0.556895
-0.138855 0.215757 0.550136
-0.159286 0.215649 0.531267
-0.143443 0.215616 0.529031
-0.0918033 0.215509 0.54621
-0.14183 0.215478 0.511004
-0.126807 0.215424 0.508787
-0.134153 0.215371 0.49539
-0.138035 0.215288 0.484325
-0.168153 0.215235 0.459551
-0.0938334 0.215155 0.487556
-0.11555 0.215102 0.466992
-0.114838 0.215077 0.457053
-0.0946917 0.214971 0.458537
-0.186147 0.214948 0.402481
-0.105399 0.214842 0.434276
-0.0803389 0.214789 0.437124
-0.116031 0.214769 0.408918
-0.197099 0.214663 0.359824
-0.089646 0.214645 0.403159
-0.0906028 0.214539 0.39413
-0.162583 0.214523 0.347717
-0.0719069 0.21447 0.383395
-0.0867762 0.214418 0.366306
-0.061932 0.21435 0.369397
-0.128643 0.214246 0.32752
-0.0828522 0.214233 0.339932
-0.119512 0.214128 0.31309
-0.12208 0.214076 0.302174
-0.126285 0.214065 0.28956
-0.076808 0.213961 0.305803
-0.0735112 0.213951 0.296911
-0.0878787 0.213847 0.281242
-0.0673001 0.213796 0.28192
-0.137846 0.213788 0.23608
-0.0517518 0.213684 0.270657
-0.139095 0.213633 0.217387
-0.0816214 0.213575 0.236669
-0.0412683 0.213472 0.248394
-0.10225 0.21342 0.208317
-0.11878 0.213415 0.189435
-0.0400291 0.213313 0.220374
-0.110885 0.21321 0.176518
-0.0473553 0.213207 0.197641
-0.193739 0.213105 0.11603
0.0615701 0.213054 0.234124
-0.0429805 0.212952 0.173443
-0.126892 0.21295 0.120823
-0.122299 0.212849 0.114723
-0.0792062 0.212747 0.12788
-0.0437164 0.212645 0.137244
-0.00521086 0.212595 0.146967
-0.111441 0.212595 0.0831665
-0.0224584 0.212494 0.119291
-0.0219689 0.212393 0.111176
-0.15692 0.212292 0.0353483
-0.000280518 0.212191 0.105323
-0.076292 0.212141 0.0578176
-0.0311938 0.21204 0.0720355
-0.0239134 0.21194 0.0673518
-0.0891231 0.21184 0.0264302
-0.0934282 0.211739 0.0159682
0.0613128 0.211639 0.0850363
-0.136806 0.211589 -0.0234881
-0.0830733 0.211489 -0.00491117
-0.000164126 0.24572 1.69945
-0.0376235 0.244973 1.67913
0.00888937 0.244228 1.70084
0.0204112 0.243881 1.69972
-0.0371355 0.243536 1.66407
-0.0289063 0.243194 1.6613
0.0154506 0.242855 1.67659
0.0147127 0.242519 1.66931
-0.111798 0.242187 1.59913
-0.0742616 0.24196 1.60956
-0.0945741 0.241635 1.59243
0.0243656 0.241411 1.64356
-0.102617 0.241095 1.57304
-0.0590448 0.240875 1.58647
-0.00184086 0.240657 1.60671
-0.119025 0.240353 1.541
-0.10831 0.240226 1.53675
-0.050028 0.239992 1.55782
-0.136104 0.239783 1.50638
-0.164738 0.239576 1.48365
-0.116604 0.23937 1.4993
-0.152916 0.239167 1.47272
-0.0951031 0.238966 1.49318
-0.153699 0.23883 1.45452
-0.181231 0.238633 1.43229
-0.149548 0.238438 1.43965
-0.179101 0.238246 1.41638
-0.154642 0.238056 1.42009
-0.144574 0.237931 1.41568
-0.182895 0.237746 1.38797
-0.17279 0.237563 1.38445
-0.163394 0.237438 1.37974
-0.137766 0.237257 1.38398
-0.129753 0.237132 1.3786
-0.170935 0.236967 1.34924
-0.165969 0.236794 1.34309
-0.0476984 0.23667 1.39287
-0.177902 0.236545 1.31842
-0.197098 0.236375 1.30018
-0.174696 0.23623 1.30239
-0.205088 0.236106 1.27788
-0.160583 0.235944 1.29142
-0.175394 0.23582 1.27472
-0.130402 0.235691 1.28803
-0.228627 0.235567 1.22965
-0.105995 0.235414 1.28217
-0.165036 0.23529 1.24341
-0.23435 0.235177 1.19936
-0.168918 0.235054 1.22285
-0.161134 0.234931 1.21752
-0.128683 0.234786 1.22488
-0.169788 0.234663 1.19513
-0.203081 0.234567 1.16889
-0.165562 0.234444 1.17847
-0.207172 0.234322 1.14849
-0.253874 0.234228 1.11553
-0.219688 0.234106 1.12346
-0.226006 0.233984 1.11116
-0.188168 0.233862 1.12094
-0.218932 0.233794 1.09558
-0.215761 0.233672 1.08805
-0.158683 0.233551 1.10748
-0.182058 0.23343 1.08669
-0.159164 0.233308 1.08904
-0.224412 0.233251 1.04629
-0.173155 0.23313 1.06285
-0.18817 0.233015 1.04618
-0.231564 0.232964 1.01428
-0.197247 0.232843 1.02239
-0.130073 0.232734 1.04675
-0.174555 0.232628 1.01524
-0.179309 0.232508 1.00384
-0.164777 0.232465 1.00079
-0.267308 0.232345 0.940518
-0.25007 0.232245 0.939803
-0.25481 0.232185 0.927427
-0.144381 0.232088 0.973272
-0.238596 0.231994 0.916757
-0.197712 0.231875 0.928231
-0.226873 0.231784 0.904208
-0.135167 0.231724 0.940086
-0.152064 0.231636 0.92216
-0.226909 0.231551 0.875219
-0.224153 0.231433 0.867667
-0.144268 0.23141 0.897026
-0.164761 0.231291 0.877863
-0.17242 0.231212 0.864445
-0.171197 0.231135 0.855427
-0.176655 0.231018 0.843803
-0.207822 0.230959 0.818295
-0.175939 0.230885 0.824576
-0.156678 0.230814 0.824505
-0.23116 0.230697 0.778398
-0.144068 0.230688 0.811161
-0.136917 0.230571 0.805883
-0.100857 0.230505 0.814138
-0.174138 0.230443 0.767682
-0.158128 0.230326 0.766853
-0.118494 0.230268 0.776793
-0.188848 0.230208 0.731767
-0.123608 0.23015 0.754519
-0.130823 0.230035 0.742084
-0.0949225 0.230039 0.749051
-0.0946836 0.229923 0.740375
-0.139927 0.229871 0.707791
-0.150079 0.229756 0.693935
-0.0996578 0.229706 0.709147
-0.131116 0.229649 0.683583
-0.130278 0.229602 0.673968
-0.107681 0.229545 0.67544
-0.155623 0.229443 0.642469
-0.165596 0.229386 0.627666
-0.0715593 0.229344 0.664578
-0.118108 0.229287 0.631496
-0.139074 0.22919 0.611947
-0.215218 0.229133 0.564077
-0.157362 0.229039 0.583908
-0.106372 0.229061 0.598108
-0.0708584 0.228948 0.60716
-0.0861975 0.228915 0.589242
-0.173739 0.228802 0.536778
-0.125552 0.228772 0.55059
-0.129918 0.228715 0.538638
-0.0755733 0.228687 0.555494
-0.103488 0.228574 0.532866
-0.102042 0.228548 0.523241
-0.129342 0.228492 0.499838
-0.111926 0.228412 0.49926
-0.109062 0.228446 0.489182
-0.0289036 0.228334 0.520615
-0.0721328 0.228277 0.489263
-0.0652868 0.228202 0.483343
-0.0791806 0.228183 0.465921
-0.0920006 0.228128 0.449784
-0.0806705 0.228072 0.445727
-0.164102 0.228 0.394614
-0.0566731 0.227985 0.437796
-0.0579353 0.22793 0.427452
-0.146466 0.227917 0.372626
-0.122681 0.227806 0.375924
-0.00680499 0.227795 0.423274
-0.0562194 0.227739 0.388869
-0.111917 0.227674 0.35152
-0.111307 0.227666 0.341186
-0.0760156 0.227611 0.349143
-0.10721 0.227604 0.322882
-0.149757 0.227549 0.291925
-0.0266095 0.227489 0.343932
-0.0463494 0.227485 0.323352
-0.175943 0.22743 0.248881
-0.0249072 0.227427 0.313668
0.00585486 0.227372 0.31938
-0.0359576 0.227316 0.288849
-0.0518984 0.227315 0.270109
-0.0534433 0.227315 0.258549
-0.0411462 0.22726 0.255038
0.0122829 0.227261 0.270948
-0.0626748 0.227263 0.222649
0.0313629 0.227319 0.257702
0.00278934 0.227322 0.232567
0.0886556 0.259407 1.76673
-0.0256978 0.258619 1.70789
0.0325086 0.258134 1.73154
-0.00325865 0.257767 1.70672
0.0240273 0.257222 1.71576
-0.0666998 0.256862 1.66346
-0.102992 0.256506 1.63837
-0.0461984 0.256153 1.6598
-0.0345697 0.255805 1.65862
-0.112346 0.255566 1.61135
-0.0662119 0.255226 1.62737
-0.0402706 0.25499 1.63196
-0.0987806 0.254757 1.59431
-0.0590986 0.254525 1.60576
-0.162434 0.254267 1.54608
-0.0341446 0.25404 1.60181
-0.16092 0.253815 1.53
-0.198837 0.253504 1.50379
-0.210333 0.253285 1.48959
-0.163875 0.253068 1.50436
-0.207874 0.25292 1.47299
-0.139847 0.252707 1.49852
-0.0836536 0.252497 1.51812
-0.0470018 0.252289 1.52794
-0.131588 0.252083 1.47712
-0.111009 0.251946 1.47796
-0.25067 0.251745 1.39958
-0.0412572 0.251546 1.49572
-0.162575 0.25135 1.42647
-0.142863 0.251218 1.42687
-0.188865 0.251025 1.39527
-0.0787049 0.250893 1.44092
-0.153876 0.250711 1.3946
-0.117512 0.250526 1.40413
-0.188089 0.250395 1.35944
-0.17809 0.250229 1.35553
-0.0921015 0.250052 1.3898
-0.14278 0.249921 1.35509
-0.240934 0.249746 1.29728
-0.14901 0.249615 1.33389
-0.15535 0.249471 1.32158
-0.190911 0.249306 1.29498
-0.192273 0.249175 1.28498
-0.160359 0.249045 1.29163
-0.17801 0.248915 1.27351
-0.17336 0.248761 1.2669
-0.183047 0.248631 1.25278
-0.17309 0.248502 1.24849
-0.202852 0.248372 1.22435
-0.188285 0.248262 1.22209
-0.134391 0.248115 1.24007
-0.255798 0.247986 1.17014
-0.245142 0.247857 1.16625
-0.208577 0.247765 1.17477
-0.150391 0.247626 1.19481
-0.204582 0.247498 1.15852
-0.171924 0.247369 1.16567
-0.197659 0.247295 1.14281
-0.126984 0.247167 1.16898
-0.180394 0.247038 1.13312
-0.201908 0.246974 1.11225
-0.243152 0.246782 1.08347
-0.212822 0.24672 1.08849
-0.159381 0.246593 1.10609
-0.228935 0.246471 1.06212
-0.153239 0.246407 1.08988
-0.105202 0.246288 1.10467
-0.128574 0.246172 1.08373
-0.140251 0.246059 1.06859
-0.0861859 0.245932 1.08655
-0.196009 0.245886 1.02131
-0.12562 0.245759 1.04746
-0.161283 0.245653 1.02026
-0.120268 0.245613 1.03037
-0.242344 0.245487 0.960298
-0.176174 0.245387 0.983948
-0.224788 0.245289 0.950167
-0.144946 0.245164 0.981083
-0.100552 0.245132 0.99276
-0.168442 0.245007 0.949824
-0.145144 0.244916 0.951931
-0.179111 0.244853 0.924955
-0.216915 0.244766 0.896476
-0.23225 0.244681 0.879191
-0.120911 0.244556 0.925908
-0.22136 0.244474 0.866032
-0.127066 0.244412 0.903214
-0.139584 0.244333 0.887267
-0.0869273 0.244257 0.903868
-0.207439 0.244133 0.834694
-0.124818 0.244061 0.866241
-0.115697 0.243999 0.860863
-0.21121 0.243929 0.803308
-0.171407 0.243862 0.81337
-0.233708 0.243738 0.773334
-0.156091 0.243736 0.801228
-0.138497 0.243613 0.801152
-0.171959 0.243551 0.77451
-0.14585 0.24349 0.777661
-0.180886 0.24337 0.751243
-0.0995924 0.243375 0.780856
-0.112192 0.243253 0.765715
-0.120425 0.2432 0.751577
-0.179629 0.243139 0.712093
-0.198739 0.243027 0.693536
-0.187797 0.24304 0.687856
-0.151945 0.242918 0.696971
-0.124255 0.242873 0.700685
-0.102333 0.242812 0.701787
-0.0355533 0.242709 0.726073
-0.0291379 0.242729 0.718017
-0.170117 0.242608 0.638743
-0.101414 0.24257 0.662859
-0.0720363 0.24251 0.667709
-0.149535 0.242414 0.619758
-0.123324 0.24244 0.621489
-0.144219 0.24232 0.602285
-0.133892 0.242289 0.597111
-0.15727 0.242229 0.575603
-0.123795 0.24214 0.583046
-0.174968 0.242173 0.54598
-0.177251 0.242054 0.536107
-0.119051 0.242029 0.554773
-0.0269642 0.241969 0.591016
-0.112281 0.241887 0.538975
-0.072196 0.241926 0.547439
-0.0710627 0.241807 0.539299
-0.215202 0.241788 0.456705
-0.0561838 0.241771 0.52566
-0.068896 0.241712 0.509523
0.00183484 0.241696 0.534306
-0.0751456 0.241637 0.486041
-0.0319922 0.241623 0.49701
-0.126432 0.241552 0.440248
-0.109126 0.241541 0.438241
-0.0287633 0.241591 0.466641
-0.0147594 0.241473 0.464976
-0.140124 0.241466 0.391585
-0.018467 0.241459 0.441683
0.0442506 0.241453 0.462288
-0.0193582 0.241507 0.418609
0.0104112 0.241504 0.422699
-0.0308362 0.241501 0.391263
-0.0556818 0.241558 0.366906
-0.0979706 0.241673 0.332705
0.0223005 0.241907 0.37749
0.0250677 0.273097 1.75783
-0.0414636 0.272585 1.71902
0.0549484 0.271881 1.76403
0.0684789 0.271497 1.76381
0.0616695 0.270996 1.75487
-0.0111154 0.270618 1.71148
-0.09264 0.27036 1.6623
-0.0828057 0.269989 1.66021
0.0580778 0.269622 1.72361
-0.017495 0.26926 1.67875
-0.0433774 0.269011 1.65739
-0.130119 0.268659 1.6069
-0.12398 0.268414 1.60153
-0.0666047 0.268172 1.62177
-0.12125 0.267832 1.58724
-0.0846217 0.267595 1.59709
-0.0939595 0.26736 1.58395
-0.0945554 0.267198 1.57429
-0.119324 0.266967 1.55343
-0.10959 0.266738 1.5498
-0.107083 0.266427 1.54363
-0.144881 0.266205 1.51619
-0.141047 0.266066 1.50853
-0.00847501 0.265846 1.56629
-0.160422 0.265624 1.48184
-0.114727 0.265412 1.49609
-0.0679677 0.265202 1.51086
-0.138905 0.265063 1.46588
-0.162719 0.264924 1.44447
-0.0862518 0.264718 1.47411
-0.180139 0.264521 1.41846
-0.184404 0.264322 1.40766
-0.252973 0.264184 1.36392
-0.1435 0.264003 1.40978
-0.203868 0.263813 1.37086
-0.148338 0.263675 1.38921
-0.120456 0.263488 1.3944
-0.138285 0.26335 1.37609
-0.160143 0.263191 1.35606
-0.210244 0.263013 1.32219
-0.178905 0.262876 1.32849
-0.138848 0.262739 1.33917
-0.144395 0.262598 1.3271
-0.172341 0.262429 1.30424
-0.146616 0.262292 1.30777
-0.199333 0.262156 1.2721
-0.186369 0.262033 1.2691
-0.164106 0.261873 1.27125
-0.164482 0.261737 1.26178
-0.128423 0.261601 1.27054
-0.206071 0.261497 1.22201
-0.131771 0.26131 1.25062
-0.216002 0.261211 1.19873
-0.2226 0.261076 1.1862
-0.214336 0.26099 1.1804
-0.13954 0.26085 1.20865
-0.186838 0.260715 1.17579
-0.228929 0.26058 1.14554
-0.0866531 0.260445 1.20749
-0.077877 0.260376 1.20174
-0.171932 0.260242 1.14555
-0.120423 0.260109 1.16211
-0.127841 0.25998 1.14918
-0.171542 0.259913 1.1172
-0.166974 0.259786 1.11023
-0.195537 0.259664 1.08666
-0.19495 0.259597 1.07684
-0.207158 0.25941 1.0624
-0.175685 0.259361 1.06779
-0.139039 0.259248 1.07672
-0.166314 0.259115 1.05399
-0.123181 0.259071 1.06514
-0.170572 0.258939 1.03237
-0.200061 0.258832 1.00816
-0.183178 0.258729 1.0071
-0.136352 0.258663 1.02047
-0.160797 0.258563 0.998709
-0.273181 0.258466 0.932944
-0.209883 0.258334 0.955565
-0.222093 0.258241 0.939855
-0.147943 0.258175 0.966909
-0.149932 0.258084 0.956273
-0.136258 0.257997 0.953431
-0.1257 0.257932 0.948704
-0.150467 0.257848 0.926606
-0.178406 0.257767 0.902882
-0.0856033 0.257636 0.940311
-0.159501 0.257558 0.893574
-0.181087 0.257493 0.872802
-0.0700982 0.257418 0.918472
-0.135057 0.257346 0.876129
-0.225068 0.257216 0.822186
-0.132599 0.257147 0.858522
-0.216958 0.257083 0.80639
-0.116906 0.257017 0.846482
-0.0474272 0.256954 0.871249
-0.108089 0.256889 0.830978
-0.0888567 0.256765 0.831622
-0.106824 0.256772 0.811556
-0.131582 0.256643 0.790288
-0.17018 0.256588 0.760909
-0.245926 0.256524 0.713118
-0.08932 0.256472 0.781306
-0.186179 0.256408 0.722968
-0.190192 0.256359 0.710811
-0.0261053 0.256249 0.783715
-0.205057 0.256205 0.684017
-0.0801253 0.256141 0.73659
-0.147352 0.2561 0.69272
-0.110512 0.256036 0.701255
-0.156886 0.255997 0.667778
-0.1489 0.255897 0.662503
-0.0944383 0.255926 0.678318
-0.030019 0.255799 0.701715
-0.0407317 0.255767 0.685968
-0.142618 0.255738 0.624602
-0.0890444 0.255675 0.641528
-0.0686096 0.255647 0.641292
-0.102192 0.255584 0.614648
-0.089013 0.255558 0.610753
-0.0699721 0.255535 0.609758
-0.160543 0.255451 0.554997
-0.0847979 0.255493 0.581225
-0.0980693 0.255431 0.564749
-0.0540505 0.255413 0.576157
-0.111556 0.255334 0.537849
-0.0775979 0.25532 0.544173
-0.162613 0.255369 0.489907
-0.0157676 0.255307 0.553502
-0.0648612 0.255347 0.517346
-0.00518456 0.255338 0.53643
-0.0918188 0.255393 0.481256
0.0339534 0.255386 0.533346
0.0410535 0.255443 0.524995
-0.0889314 0.255558 0.447056
-0.0297762 0.255676 0.463622
0.0573434 0.255859 0.493028
-0.0130231 0.287124 1.75792
0.0559461 0.286382 1.78911
0.0195253 0.285847 1.76532
-0.00250162 0.285443 1.74728
0.00522841 0.284718 1.74783
-0.0562259 0.284323 1.71004
0.010986 0.284054 1.73519
-0.191567 0.283666 1.62684
-0.0907385 0.283283 1.67015
-0.105919 0.28302 1.6541
-0.123636 0.282646 1.63809
-0.119583 0.282387 1.63165
-0.150235 0.28213 1.60786
-0.0427944 0.281844 1.65348
-0.167739 0.281593 1.58251
-0.0762189 0.281344 1.61978
-0.134179 0.280999 1.58346
-0.110193 0.280756 1.58693
-0.109772 0.280516 1.5786
-0.118841 0.280278 1.56552
-0.177688 0.280115 1.52666
-0.128846 0.279882 1.54251
-0.0522187 0.279651 1.57225
-0.185696 0.279423 1.49692
-0.164114 0.279197 1.4991
-0.104479 0.279047 1.5194
-0.174791 0.278827 1.47561
-0.105271 0.278609 1.50172
-0.212655 0.278395 1.43936
-0.14511 0.278249 1.46361
-0.0991234 0.278038 1.47793
-0.129631 0.27784 1.45384
-0.151939 0.277637 1.43393
-0.243573 0.277493 1.37865
-0.138486 0.277293 1.42243
-0.0407988 0.277148 1.46183
-0.172876 0.276974 1.38673
-0.19165 0.276784 1.36851
-0.148505 0.276639 1.38067
-0.238866 0.276495 1.32609
-0.167711 0.27634 1.35242
-0.134393 0.276159 1.36018
-0.177652 0.276015 1.32918
-0.149436 0.275871 1.33393
-0.12728 0.275694 1.3361
-0.186371 0.275564 1.29705
-0.136002 0.27542 1.3129
-0.24044 0.275253 1.25169
-0.254597 0.27511 1.2353
-0.170384 0.274999 1.26769
-0.0540671 0.274856 1.31656
-0.21959 0.274699 1.22472
-0.186314 0.274556 1.23208
-0.153845 0.274465 1.23838
-0.225446 0.274323 1.19333
-0.151444 0.274181 1.22108
-0.0610625 0.274034 1.25711
-0.15243 0.273961 1.20127
-0.171302 0.27382 1.18262
-0.142783 0.273679 1.18765
-0.192762 0.273609 1.1525
-0.128803 0.273472 1.17523
-0.232681 0.273339 1.114
-0.109566 0.273209 1.16624
-0.0945996 0.273139 1.16358
-0.131394 0.273012 1.13583
-0.193266 0.272889 1.0955
-0.178079 0.272749 1.09395
-0.179722 0.27263 1.08371
-0.0994261 0.272583 1.11342
-0.153627 0.272444 1.0772
-0.143483 0.272331 1.07279
-0.23608 0.272222 1.01696
-0.200652 0.272152 1.02459
-0.180067 0.272046 1.02532
-0.176941 0.271944 1.01729
-0.191369 0.271874 1.00001
-0.236298 0.271775 0.96791
-0.165939 0.271679 0.993419
-0.185333 0.271541 0.97467
-0.134679 0.271449 0.990294
-0.195514 0.27138 0.949838
-0.175683 0.27129 0.950015
-0.167877 0.271204 0.944142
-0.130484 0.271122 0.953023
-0.116601 0.270984 0.950955
-0.203141 0.270973 0.896825
-0.108931 0.270897 0.934041
-0.216403 0.27076 0.871314
-0.113072 0.270687 0.913057
-0.109183 0.270618 0.905008
-0.0390197 0.270548 0.930132
-0.154095 0.270481 0.862598
-0.143978 0.270413 0.857676
-0.188403 0.270281 0.826457
-0.112723 0.270287 0.853205
-0.111675 0.270219 0.843761
-0.170174 0.270093 0.805437
-0.13778 0.270038 0.811495
-0.152083 0.26997 0.79439
-0.116458 0.269917 0.802029
-0.136992 0.269867 0.781553
-0.155948 0.2698 0.762132
-0.140363 0.269753 0.759682
-0.16885 0.269708 0.73516
-0.120637 0.269641 0.749336
-0.11946 0.269598 0.739612
-0.080068 0.269492 0.750006
-0.0826112 0.269521 0.737311
-0.170325 0.269455 0.683536
-0.0819337 0.269353 0.718368
-0.171646 0.26932 0.663069
-0.0680817 0.26929 0.704376
-0.100282 0.269328 0.676718
-0.0469525 0.269196 0.694533
-0.0336576 0.269169 0.690645
-0.139934 0.269145 0.626941
-0.153524 0.269123 0.609552
-0.101024 0.269169 0.624122
-0.0807319 0.269103 0.624378
-0.122446 0.269084 0.592872
-0.131264 0.269068 0.577787
-0.139519 0.26917 0.561054
-0.0835507 0.269105 0.579152
-0.0266266 0.269092 0.596864
-0.0701804 0.269203 0.562333
-0.126262 0.269253 0.522522
0.0571917 0.269312 0.602324
0.0159655 0.269498 0.567694
0.0306604 0.269877 0.557805
0.0526267 0.301186 1.80995
-0.0255119 0.300409 1.76751
-0.00979156 0.299636 1.77202
-0.0228951 0.299082 1.75982
0.018668 0.298664 1.77351
-0.0755696 0.298251 1.71929
0.0124683 0.297842 1.75619
-0.0647304 0.297561 1.70909
-0.0412528 0.29716 1.71369
0.00689868 0.296765 1.73058
-0.0701492 0.296492 1.68355
-0.0359339 0.296106 1.69343
0.000274548 0.295839 1.70301
-0.0985456 0.295465 1.6463
-0.100069 0.295204 1.637
-0.0437008 0.294944 1.65664
-0.147213 0.294765 1.59546
-0.0864498 0.29451 1.61728
-0.048272 0.294258 1.6278
-0.160974 0.293914 1.56395
-0.0988224 0.29367 1.58641
-0.0515712 0.293516 1.6004
-0.161373 0.293264 1.537
-0.132244 0.293028 1.54292
-0.146697 0.292794 1.52703
-0.14764 0.292562 1.51788
-0.102827 0.29241 1.53071
-0.116262 0.292182 1.51532
-0.1505 0.291962 1.48943
-0.126846 0.291743 1.49251
-0.092995 0.291591 1.49991
-0.166832 0.291375 1.45423
-0.164399 0.291223 1.44595
-0.219683 0.29101 1.40954
-0.100519 0.29082 1.4601
-0.0900961 0.290669 1.45583
-0.121342 0.290466 1.43138
-0.143456 0.290295 1.41112
-0.19351 0.290101 1.37717
-0.164577 0.289951 1.38221
-0.167253 0.2898 1.37145
-0.130475 0.289648 1.38045
-0.167704 0.28946 1.35291
-0.0922543 0.289315 1.38118
-0.156279 0.289165 1.33979
-0.193039 0.288985 1.31241
-0.129583 0.28886 1.33448
-0.0726337 0.288711 1.3536
-0.119262 0.288561 1.32095
-0.241883 0.288392 1.25056
-0.112043 0.288287 1.30561
-0.169266 0.288139 1.26768
-0.0735852 0.28799 1.30622
-0.140509 0.287831 1.2636
-0.163523 0.287747 1.24199
-0.109484 0.287599 1.25973
-0.187289 0.287451 1.21157
-0.231627 0.287303 1.18014
-0.139038 0.287155 1.21719
-0.227007 0.287085 1.16297
-0.232852 0.286945 1.15072
-0.159209 0.286797 1.17833
-0.168891 0.28666 1.16414
-0.140456 0.286601 1.16801
-0.175778 0.286454 1.14115
-0.171316 0.286324 1.13397
-0.183348 0.286271 1.11754
-0.173516 0.286125 1.11328
-0.245578 0.286002 1.06777
-0.127399 0.285883 1.11734
-0.0999464 0.28581 1.12095
-0.142335 0.285695 1.0902
-0.204748 0.285583 1.04941
-0.162028 0.285474 1.06114
-0.106348 0.285402 1.07888
-0.132065 0.285297 1.05637
-0.162993 0.285195 1.03121
-0.169254 0.285097 1.01834
-0.133572 0.284953 1.0271
-0.147785 0.28493 1.00923
-0.15073 0.284786 0.998684
-0.0787109 0.284695 1.02489
-0.0486121 0.284607 1.03011
-0.0545165 0.284535 1.0171
-0.0819731 0.284451 0.993501
-0.152098 0.284369 0.948529
-0.179678 0.284291 0.92479
-0.108308 0.28422 0.950441
-0.112491 0.284145 0.938367
-0.156822 0.284073 0.906181
-0.179742 0.284002 0.8847
-0.073546 0.283862 0.928756
-0.072128 0.283868 0.918362
-0.165686 0.283797 0.861575
-0.128259 0.283663 0.871179
-0.0963727 0.283604 0.876962
-0.158636 0.283618 0.834614
-0.129019 0.283477 0.840451
-0.0892477 0.283423 0.850106
-0.128193 0.283372 0.820368
-0.131723 0.283302 0.808624
-0.0591149 0.283253 0.83463
-0.114327 0.283208 0.796691
-0.105383 0.283165 0.790796
-0.135544 0.283095 0.76575
-0.096203 0.283055 0.775023
-0.0170643 0.283017 0.804161
-0.0712241 0.282981 0.766617
-0.152449 0.282948 0.715509
-0.11106 0.282987 0.724639
-0.145044 0.282917 0.697698
-0.133845 0.282888 0.692742
-0.0798905 0.282862 0.709133
-0.0535282 0.282837 0.7117
-0.0875568 0.282815 0.684043
0.00378326 0.282794 0.719044
-0.105336 0.282844 0.652742
-0.0356427 0.282827 0.676866
-0.108527 0.282935 0.627792
-0.016521 0.282866 0.663859
-0.0370762 0.28298 0.640854
-0.0222059 0.283099 0.635476
-0.0393348 0.283221 0.614024
0.0133135 0.283416 0.626339
0.0767139 0.316656 1.8391
-0.0311973 0.315059 1.78958
0.072152 0.314106 1.83925
0.013188 0.313662 1.80263
-0.0304266 0.313221 1.7737
-0.0882971 0.312646 1.73905
-0.00491623 0.312132 1.77443
0.00744285 0.311704 1.77345
-0.0741709 0.311281 1.72546
-0.10802 0.310864 1.70133
-0.134069 0.310577 1.67976
-0.0543757 0.310292 1.71107
-0.0603914 0.309969 1.69994
-0.132315 0.30969 1.65543
-0.0416064 0.309298 1.69344
-0.0810859 0.309024 1.66513
-0.141396 0.308753 1.62639
-0.107029 0.308379 1.63613
-0.119818 0.308115 1.62112
-0.0614916 0.307853 1.64167
-0.166697 0.307675 1.57957
-0.0789663 0.307418 1.61479
-0.0989835 0.307165 1.59613
-0.197513 0.306914 1.53821
-0.0769576 0.306666 1.58981
-0.0641616 0.306421 1.58752
-0.116542 0.306259 1.55174
-0.124465 0.30602 1.53906
-0.0878287 0.305784 1.54864
-0.118296 0.305551 1.52466
-0.13101 0.305392 1.50873
-0.159497 0.305163 1.48573
-0.0936539 0.304951 1.50971
-0.16651 0.30473 1.46445
-0.211186 0.304572 1.43259
-0.0883722 0.304379 1.48488
-0.17003 0.304169 1.43515
-0.170502 0.304011 1.42543
-0.100787 0.303805 1.45137
-0.227705 0.303648 1.37844
-0.122935 0.303481 1.42148
-0.191302 0.303285 1.3783
-0.263146 0.303128 1.33295
-0.166802 0.302971 1.37169
-0.204165 0.302779 1.34401
-0.138723 0.30264 1.36713
-0.216294 0.302484 1.31895
-0.272975 0.302302 1.28152
-0.116628 0.302146 1.35032
-0.0930665 0.302028 1.35228
-0.191397 0.301873 1.29376
-0.265668 0.301702 1.24746
-0.145248 0.301547 1.29833
-0.262573 0.30145 1.22963
-0.187738 0.301295 1.25773
-0.135535 0.301136 1.27457
-0.169822 0.300981 1.24813
-0.225079 0.300903 1.21028
-0.270581 0.300749 1.17824
-0.0904868 0.300597 1.25898
-0.122243 0.30045 1.23376
-0.106925 0.300383 1.23109
-0.199472 0.300229 1.17556
-0.112102 0.300089 1.20984
-0.202447 0.299952 1.15522
-0.103252 0.299875 1.19464
-0.139681 0.299743 1.16695
-0.15166 0.299614 1.15145
-0.147412 0.299565 1.14307
-0.207333 0.299412 1.10391
-0.176989 0.299291 1.10951
-0.160577 0.299173 1.1081
-0.111726 0.299096 1.12239
-0.138018 0.298982 1.09959
-0.244494 0.298872 1.03667
-0.089012 0.298764 1.10469
-0.185801 0.298689 1.04618
-0.193126 0.298585 1.03276
-0.130899 0.298485 1.05409
-0.133665 0.298389 1.04288
-0.147454 0.298238 1.02687
-0.0991977 0.298221 1.04015
-0.189642 0.298131 0.985026
-0.0626604 0.297981 1.03942
-0.138866 0.297895 0.991389
-0.190505 0.297887 0.954607
-0.234764 0.297808 0.922469
-0.169254 0.297658 0.946155
-0.126596 0.297582 0.957444
-0.0809757 0.297584 0.969178
-0.191502 0.297435 0.904864
-0.107767 0.297365 0.93662
-0.19038 0.297299 0.885166
-0.0809937 0.297236 0.929676
-0.151767 0.297162 0.884256
-0.197698 0.297101 0.851074
-0.0268786 0.297044 0.926232
-0.19448 0.29699 0.832144
-0.098259 0.297012 0.868921
-0.0823971 0.296864 0.867849
-0.0832006 0.296816 0.857094
-0.127757 0.296769 0.824428
-0.160452 0.296799 0.796643
-0.200727 0.296726 0.766501
-0.100958 0.296685 0.805934
-0.135159 0.296647 0.77835
-0.0727868 0.296611 0.799021
-0.123447 0.296578 0.763146
-0.110166 0.296546 0.75921
-0.00440186 0.296517 0.801487
-0.127627 0.296563 0.728212
-0.0456699 0.296538 0.758528
-0.0807139 0.296588 0.729284
-0.0576023 0.296567 0.730124
-0.0811702 0.296603 0.706812
-0.0620284 0.296659 0.704557
-0.0160584 0.296717 0.71569
-0.0593159 0.296836 0.681311
-0.0492255 0.296961 0.673526
-0.0803432 0.297161 0.644025
0.0519299 0.297924 0.688017
0.147005 0.330469 1.89733
0.043548 0.32918 1.84628
-0.00729196 0.328333 1.81734
0.0304777 0.327722 1.83047
0.097443 0.327033 1.85901
-0.0357993 0.326435 1.7866
-0.0455647 0.325985 1.77452
-0.0396543 0.325678 1.7689
-0.0671405 0.325237 1.74793
-0.13349 0.324801 1.7075
-0.0198369 0.324372 1.75704
-0.0608485 0.324076 1.72795
-0.0481729 0.323658 1.72695
-0.111962 0.323369 1.68645
-0.0846275 0.323081 1.69152
-0.111703 0.322796 1.66937
-0.0900094 0.322483 1.67191
-0.100221 0.322205 1.65817
-0.0307055 0.321929 1.68428
-0.222976 0.321656 1.5795
-0.0397094 0.321285 1.66351
-0.156244 0.321118 1.59553
-0.101093 0.320841 1.61456
-0.229077 0.320582 1.54185
-0.118411 0.320326 1.58845
-0.104706 0.320073 1.58656
-0.185837 0.319823 1.53723
-0.142134 0.319657 1.54945
-0.128038 0.319411 1.54774
-0.0925856 0.319175 1.5566
-0.0962514 0.318938 1.54593
-0.0634161 0.318773 1.55277
-0.171311 0.31854 1.48998
-0.176814 0.31833 1.47815
-0.11081 0.318107 1.50224
-0.147402 0.317942 1.47441
-0.194866 0.317778 1.44115
-0.204736 0.317558 1.4273
-0.170411 0.317376 1.43516
-0.184326 0.317212 1.41871
-0.190161 0.317003 1.4068
-0.211442 0.31684 1.38669
-0.14644 0.316679 1.4097
-0.132927 0.316481 1.40738
-0.114771 0.316318 1.40702
-0.186317 0.316155 1.36182
-0.0991285 0.315961 1.39633
-0.178725 0.315829 1.34678
-0.178414 0.315667 1.33753
-0.107067 0.315485 1.36403
-0.196821 0.315374 1.30918
-0.213144 0.315212 1.29164
-0.122034 0.315051 1.32783
-0.14518 0.31488 1.30701
-0.145335 0.314792 1.29674
-0.206273 0.314631 1.25693
-0.164539 0.31447 1.26846
-0.181762 0.314311 1.25051
-0.222273 0.31423 1.22
-0.192137 0.314075 1.2257
-0.190528 0.313924 1.2171
-0.156854 0.313777 1.2245
-0.231833 0.313697 1.17679
-0.132777 0.313554 1.21685
-0.0915039 0.313414 1.22798
-0.149154 0.313278 1.18961
-0.213575 0.313199 1.14721
-0.123466 0.313067 1.18269
-0.129988 0.312939 1.16983
-0.154566 0.312815 1.14789
-0.179465 0.312736 1.12527
-0.139096 0.312615 1.13578
-0.159302 0.312499 1.11597
-0.143581 0.31242 1.11367
-0.198204 0.312307 1.07662
-0.232215 0.312198 1.04983
-0.144681 0.312093 1.08379
-0.178647 0.312014 1.05667
-0.211606 0.311913 1.03034
-0.14708 0.311815 1.05271
-0.174362 0.31172 1.02915
-0.141362 0.311642 1.03553
-0.139137 0.311551 1.02669
-0.230117 0.311464 0.971209
-0.121189 0.31138 1.01564
-0.10446 0.311299 1.01394
-0.10041 0.311221 1.00587
-0.104628 0.311144 0.993663
-0.177064 0.311066 0.947361
-0.10097 0.310993 0.975276
-0.208306 0.310922 0.91144
-0.128124 0.310855 0.941327
-0.163473 0.310791 0.913413
-0.194565 0.310714 0.887802
-0.00129669 0.310653 0.974165
-0.0671441 0.310595 0.930935
-0.179618 0.31054 0.864358
-0.0587717 0.310488 0.914407
-0.103083 0.310439 0.881843
-0.0766153 0.310469 0.883631
-0.069085 0.310392 0.877353
-0.0465668 0.310349 0.878141
-0.0928732 0.310308 0.844484
-0.0426428 0.310385 0.857522
-0.0409722 0.310309 0.848323
-0.0665586 0.310275 0.824934
-0.0840652 0.310244 0.805556
0.0137047 0.310339 0.842116
-0.0398327 0.310264 0.80532
-0.0662999 0.310291 0.780667
0.0408679 0.310346 0.822468
-0.0261073 0.31046 0.776387
-0.0731771 0.310519 0.740993
-0.135809 0.310642 0.696945
-0.04261 0.310846 0.729707
-0.0815275 0.310979 0.697361
-0.000946572 0.31148 0.719694
0.162969 0.344678 1.92482
0.0156168 0.343093 1.85393
0.0160392 0.342453 1.84832
0.0275695 0.341577 1.8505
-0.0543656 0.341098 1.80231
-0.0674371 0.340624 1.78855
-0.0272917 0.340153 1.80139
-0.0237438 0.339687 1.79591
0.00787509 0.339227 1.80446
-0.0359054 0.338772 1.77527
-0.0339928 0.338325 1.7689
-0.0625043 0.338017 1.74602
-0.0713963 0.337581 1.7342
-0.0784387 0.337279 1.72204
-0.18586 0.336856 1.66088
-0.150258 0.336561 1.67002
-0.0443639 0.336268 1.71431
-0.0776547 0.335978 1.689
-0.114441 0.335691 1.66193
-0.0811229 0.335385 1.67012
-0.132652 0.335106 1.63564
-0.0892048 0.334829 1.64864
-0.119423 0.334556 1.6248
-0.116419 0.334286 1.61756
-0.119774 0.334105 1.60626
-0.0884343 0.333841 1.61315
-0.121528 0.333581 1.58782
-0.100007 0.333323 1.58977
-0.133433 0.333069 1.56424
-0.0509456 0.332897 1.59585
-0.146062 0.332646 1.53947
-0.176827 0.332413 1.5151
-0.109395 0.332173 1.53992
-0.141394 0.332002 1.51433
-0.154367 0.331765 1.49894
-0.120737 0.33156 1.50655
-0.206053 0.331334 1.4549
-0.143686 0.331163 1.47654
-0.200884 0.330979 1.43856
-0.126905 0.330764 1.46648
-0.227973 0.330594 1.40644
-0.152541 0.330424 1.43465
-0.199305 0.330214 1.40221
-0.146317 0.330059 1.41906
-0.220882 0.32989 1.37231
-0.114314 0.329691 1.41644
-0.165287 0.329522 1.3815
-0.0710361 0.32939 1.41879
-0.191223 0.329203 1.34946
-0.2118 0.329034 1.32974
-0.164338 0.328866 1.34406
-0.0787768 0.328683 1.3776
-0.129892 0.328582 1.34191
-0.193811 0.328414 1.30056
-0.174926 0.328246 1.30063
-0.183405 0.328076 1.28706
-0.213906 0.327993 1.26151
-0.21377 0.327831 1.25217
-0.220621 0.327664 1.23941
-0.171569 0.327506 1.2545
-0.141642 0.327435 1.25907
-0.0771579 0.327285 1.28181
-0.168985 0.327201 1.22565
-0.0984177 0.326972 1.25235
-0.157321 0.326913 1.21239
-0.18191 0.326775 1.1905
-0.137091 0.326692 1.20269
-0.220253 0.326475 1.15242
-0.181325 0.326428 1.16128
-0.178574 0.326301 1.15295
-0.187872 0.326219 1.1381
-0.132737 0.326097 1.15594
-0.109377 0.325978 1.15785
-0.17599 0.325864 1.11474
-0.091995 0.325782 1.14656
-0.147823 0.325671 1.10881
-0.0729888 0.325564 1.13636
-0.159046 0.325461 1.08342
-0.140103 0.325362 1.08294
-0.108569 0.32528 1.08856
-0.165202 0.325184 1.05026
-0.199996 0.325092 1.02285
-0.12745 0.325004 1.04907
-0.152882 0.324923 1.02623
-0.147793 0.324838 1.01869
-0.0890615 0.324757 1.03793
-0.120916 0.324679 1.01185
-0.104868 0.324685 1.0087
-0.153748 0.324604 0.974148
-0.122401 0.324533 0.979596
-0.12106 0.324385 0.970992
-0.075304 0.324401 0.98259
-0.128895 0.32432 0.945698
-0.103197 0.324259 0.948222
-0.116736 0.324201 0.931093
-0.169045 0.324253 0.89321
-0.0596545 0.324173 0.937819
-0.111334 0.324123 0.90152
-0.126485 0.324077 0.883452
-0.0937893 0.324033 0.889276
-0.15755 0.324071 0.845842
-0.0935216 0.324032 0.86727
-0.0111199 0.323996 0.897856
0.0200358 0.324089 0.901181
-0.10159 0.32401 0.830299
-0.0898938 0.324033 0.824784
-0.0546827 0.324087 0.830627
0.0460105 0.324143 0.869183
-0.116175 0.32426 0.77551
0.00886879 0.324383 0.825359
-0.0672907 0.324447 0.775366
0.0972669 0.324726 0.84295
-0.053111 0.325093 0.751903
0.0848541 0.35908 1.90394
-0.00298088 0.357273 1.86408
-0.0325241 0.356608 1.84342
0.0243561 0.355696 1.8682
0.0110186 0.355199 1.85426
0.0511586 0.354705 1.86706
-0.0416468 0.353972 1.81555
-0.0372268 0.35349 1.81046
-0.0954061 0.353014 1.77404
-0.0719375 0.352544 1.77841
0.0071431 0.352222 1.8093
-0.0715356 0.351901 1.7613
-0.051527 0.351447 1.76389
-0.0258847 0.351133 1.76804
-0.0321233 0.350783 1.7566
-0.164692 0.350476 1.68163
-0.118073 0.350171 1.69625
-0.110946 0.349751 1.69221
-0.124507 0.349455 1.67671
-0.165599 0.349161 1.64743
-0.113812 0.348871 1.66458
-0.106095 0.348673 1.65884
-0.0998506 0.348287 1.65416
-0.140693 0.348009 1.62493
-0.162802 0.347734 1.60506
-0.130545 0.347552 1.61151
-0.111972 0.347283 1.61195
-0.103919 0.347018 1.60711
-0.0386802 0.346757 1.63085
-0.133195 0.346499 1.5747
-0.0571908 0.346321 1.60305
-0.111892 0.346067 1.5668
-0.197798 0.345837 1.51473
-0.117781 0.345594 1.54576
-0.168073 0.345416 1.51101
-0.125361 0.345238 1.52278
-0.209147 0.345 1.47191
-0.0519165 0.344799 1.54118
-0.149075 0.344572 1.48354
-0.127925 0.344395 1.48457
-0.170093 0.344217 1.45396
-0.161804 0.344002 1.44897
-0.108348 0.343825 1.46618
-0.175246 0.343649 1.42322
-0.154488 0.343438 1.42446
-0.192233 0.343291 1.3958
-0.223132 0.343116 1.37087
-0.0813187 0.342917 1.43255
-0.107753 0.342741 1.40987
-0.141244 0.342619 1.38313
-0.112337 0.342432 1.38827
-0.195825 0.342257 1.33709
-0.114584 0.342158 1.3675
-0.152644 0.341984 1.33906
-0.155061 0.34181 1.32844
-0.138079 0.341636 1.32754
-0.234627 0.341549 1.26896
-0.176867 0.341379 1.28841
-0.102987 0.341214 1.3159
-0.180691 0.341053 1.26755
-0.0720503 0.340982 1.31142
-0.187209 0.340809 1.2445
-0.259203 0.340656 1.19895
-0.161668 0.340508 1.23813
-0.0877765 0.340449 1.26452
-0.133967 0.340309 1.23177
-0.09427 0.340172 1.24192
-0.144563 0.340001 1.20748
-0.168183 0.339868 1.18595
-0.132256 0.339826 1.19321
-0.124405 0.339702 1.18734
-0.180627 0.339616 1.14901
-0.111784 0.339496 1.17361
-0.0605182 0.33938 1.18938
-0.162285 0.339268 1.1286
-0.0876724 0.339183 1.15571
-0.203232 0.339075 1.088
-0.160051 0.338971 1.09962
-0.10683 0.33887 1.11623
-0.143298 0.338773 1.08796
-0.142552 0.338765 1.0773
-0.181423 0.338596 1.04866
-0.125168 0.338507 1.06668
-0.099372 0.338421 1.06944
-0.1363 0.338423 1.03983
-0.155323 0.338339 1.02017
-0.0673618 0.338261 1.05394
-0.187919 0.338186 0.983413
-0.0830239 0.338114 1.02558
-0.0965476 0.338046 1.0085
-0.0735166 0.337981 1.00967
-0.141058 0.337919 0.96552
-0.115964 0.337944 0.966672
-0.0997227 0.337888 0.964344
-0.0695177 0.337836 0.968965
-0.0149502 0.337786 0.985736
-0.0671318 0.337823 0.948116
-0.163521 0.337778 0.889346
-0.127801 0.337737 0.896601
-0.091351 0.337781 0.903202
-0.0775968 0.337827 0.898423
-0.0605346 0.337794 0.896261
-0.0158941 0.337898 0.906224
-0.0556388 0.337871 0.875576
-0.0120956 0.337928 0.88555
-0.122968 0.338048 0.817546
0.0148184 0.338175 0.873779
0.00222797 0.33839 0.853738
-0.0386234 0.338763 0.81761
0.0259869 0.339617 0.828262
0.0500694 0.373528 1.90483
0.0868488 0.371655 1.9271
-0.0119651 0.370536 1.87535
0.0429686 0.370015 1.8955
-0.10056 0.369333 1.81781
-0.0886311 0.368565 1.81862
-0.115739 0.368059 1.79773
0.00817872 0.367558 1.85234
-0.0125127 0.367063 1.83462
-0.0158062 0.366575 1.82558
-0.0522778 0.36624 1.79865
-0.0677584 0.365764 1.78346
-0.126583 0.365435 1.74535
-0.120887 0.364972 1.74069
-0.123937 0.36465 1.73045
-0.105962 0.364331 1.73071
-0.0798625 0.363982 1.73533
-0.139353 0.363671 1.69683
-0.128202 0.363363 1.69365
-0.159983 0.362943 1.67002
-0.070591 0.362644 1.70592
-0.109323 0.362348 1.67775
-0.0159729 0.362148 1.71477
-0.183601 0.361859 1.62212
-0.0881949 0.361573 1.66098
-0.0917293 0.361291 1.65035
-0.16326 0.361012 1.60572
-0.114163 0.360826 1.62055
-0.122242 0.360551 1.60764
-0.12456 0.360279 1.59759
-0.172888 0.360025 1.56439
-0.119922 0.359765 1.58191
-0.171749 0.35958 1.54635
-0.122202 0.359323 1.56215
-0.137337 0.359098 1.54534
-0.126431 0.358853 1.54174
-0.258763 0.358669 1.46597
-0.151702 0.358467 1.51007
-0.169366 0.358235 1.49213
-0.120271 0.358051 1.5071
-0.188009 0.357823 1.4641
-0.121816 0.35764 1.48764
-0.195202 0.35747 1.44127
-0.187235 0.357254 1.43605
-0.192029 0.357071 1.42412
-0.128104 0.356889 1.44657
-0.192192 0.356677 1.40531
-0.210618 0.35654 1.38616
-0.116309 0.356358 1.42383
-0.208697 0.35616 1.36833
-0.0899018 0.356047 1.41757
-0.184385 0.355866 1.36087
-0.166349 0.35568 1.36049
-0.155556 0.355499 1.35644
-0.20456 0.355408 1.32161
-0.103382 0.355231 1.36274
-0.156277 0.355058 1.3268
-0.167826 0.354968 1.31071
-0.153197 0.3548 1.3085
-0.177347 0.354636 1.28688
-0.0744333 0.354476 1.32875
-0.154649 0.354387 1.27835
-0.188023 0.354231 1.25205
-0.141052 0.35408 1.26589
-0.136386 0.353934 1.25854
-0.175312 0.35388 1.22843
-0.182917 0.353702 1.2153
-0.159521 0.353564 1.21725
-0.197947 0.35343 1.18825
-0.193721 0.353389 1.17962
-0.128897 0.353263 1.20217
-0.17551 0.353142 1.16898
-0.147825 0.353053 1.17259
-0.197388 0.352936 1.13789
-0.0496873 0.352823 1.20178
-0.101271 0.352713 1.166
-0.0130584 0.352625 1.19989
-0.0606189 0.35252 1.16609
-0.154057 0.352418 1.10932
-0.11204 0.352321 1.12023
-0.108829 0.352227 1.11171
-0.146822 0.352225 1.08159
-0.189191 0.352138 1.05022
-0.137611 0.352051 1.06581
-0.148609 0.351969 1.05008
-0.172519 0.35189 1.02786
-0.0644129 0.351902 1.07065
-0.0808084 0.35183 1.05212
-0.075968 0.351761 1.04417
-0.116768 0.351696 1.01337
-0.0617712 0.351634 1.03043
-0.0543046 0.351662 1.02273
-0.110913 0.351606 0.98392
-0.0534542 0.351554 1.00212
-0.0524967 0.351591 0.991058
-0.0801676 0.351544 0.966629
-0.0902107 0.351586 0.950005
-0.0392166 0.351545 0.964848
-0.142942 0.351641 0.900753
-0.0416973 0.351608 0.940634
-0.0883894 0.351662 0.905537
0.0130727 0.351777 0.943813
-0.0857222 0.351838 0.882583
0.0189108 0.351965 0.922294
-0.0923399 0.352253 0.85218
-0.074351 0.35248 0.847371
-0.0404927 0.353034 0.846662
0.0526543 0.386084 1.9282
0.0297769 0.384922 1.91433
0.0256726 0.384209 1.9063
0.0217112 0.383235 1.9005
0.0394649 0.382705 1.90201
-0.00494938 0.382179 1.87242
0.00384276 0.38166 1.86942
-0.0564737 0.381146 1.83185
0.0171386 0.380794 1.85993
-0.0416356 0.380292 1.8231
-0.0419718 0.379798 1.81544
