ply
format ascii 1.0
comment Created by Open3D
element vertex 1727
property double x
property double y
property double z
end_header
-0.187658 0.0629242 0.58408
-0.361603 0.0628945 0.488397
-0.241406 0.0628797 0.538773
-0.192075 0.06285 0.554749
-0.315852 0.0628203 0.484183
-0.129691 0.0627933 0.568405
-0.202141 0.0627784 0.522487
-0.199573 0.0627487 0.515124
-0.184312 0.0627189 0.514119
-0.167287 0.0626927 0.513754
-0.100931 0.0626778 0.537269
-0.24814 0.062648 0.455058
-0.248814 0.0626182 0.446127
-0.304408 0.0625883 0.409748
-0.154054 0.0625584 0.476356
-0.146479 0.062548 0.470199
-0.0869843 0.0625181 0.491394
-0.272313 0.0624882 0.390189
-0.330766 0.0624582 0.352434
-0.305133 0.0624433 0.355657
-0.27552 0.0624133 0.361955
-0.303931 0.0623887 0.338865
-0.232767 0.0623587 0.365959
-0.30795 0.0623437 0.318803
-0.274268 0.0623136 0.327177
-0.20419 0.0622836 0.353762
-0.114654 0.0622535 0.390088
-0.270179 0.0622385 0.302792
-0.317487 0.0622147 0.270253
-0.317077 0.0621845 0.262045
-0.313319 0.0621544 0.255522
-0.315336 0.0621393 0.245009
-0.199514 0.0621092 0.294539
-0.0894776 0.062079 0.341189
-0.208279 0.0620488 0.273432
-0.443087 0.0620337 0.146554
-0.172056 0.0620107 0.273191
-0.216087 0.0619804 0.242848
-0.260654 0.0619502 0.212249
-0.253063 0.0619351 0.2066
-0.232931 0.0619048 0.208371
-0.241279 0.0618745 0.195914
-0.224745 0.0618593 0.194759
-0.115492 0.061829 0.241122
-0.39878 0.0617986 0.0912282
-0.100659 0.0617682 0.23205
-0.271771 0.061753 0.137104
-0.206904 0.0617226 0.16132
-0.307756 0.0616922 0.102688
-0.356583 0.06167 0.0694376
-0.297888 0.0616548 0.0894236
-0.275605 0.0616244 0.0923873
-0.249867 0.0615939 0.0970908
-0.138041 0.0615634 0.144851
-0.34261 0.0615481 0.0332355
-0.0253266 0.0615176 0.183744
-0.162834 0.0614871 0.106869
-0.104036 0.0614718 0.126961
-0.244072 0.0614412 0.0488426
-0.26182 0.0614106 0.0318803
-0.156448 0.06138 0.0764896
-0.163555 0.0613647 0.0636598
-0.147194 0.0613341 0.0637845
-0.0579953 0.0613034 0.10034
-0.222712 0.0612881 0.00872745
-0.291202 0.0612574 -0.0335407
-0.0672173 0.0805608 1.63986
-0.157242 0.0804111 1.58959
0.0362289 0.0802622 1.68106
-0.061033 0.0801526 1.62557
-0.158129 0.0800439 1.57016
-0.232001 0.0799361 1.52636
-0.0785455 0.079866 1.59466
-0.0660002 0.0797599 1.59405
-0.302167 0.0796908 1.46754
-0.0996202 0.0796386 1.55969
0.00989122 0.0795702 1.60603
-0.391833 0.0795021 1.39675
-0.209062 0.0794006 1.48118
-0.130754 0.0793339 1.51191
-0.21347 0.0792676 1.46212
-0.0248589 0.0792342 1.54659
-0.305227 0.0791851 1.39727
-0.187194 0.0791198 1.44786
-0.202989 0.079055 1.43154
-0.277001 0.0789908 1.38611
-0.134576 0.0789271 1.44888
-0.116214 0.0788807 1.44888
-0.276697 0.0788182 1.36018
-0.203125 0.0787563 1.3885
-0.32217 0.0787227 1.31927
-0.105104 0.0786614 1.41934
-0.173564 0.0786176 1.37589
-0.396041 0.0785839 1.25497
-0.368715 0.0785239 1.26016
-0.222164 0.0784646 1.32495
-0.273485 0.0784059 1.29079
-0.301002 0.0783891 1.26664
-0.206942 0.0783311 1.30516
-0.247728 0.0782739 1.27625
-0.289977 0.0782401 1.24554
-0.262898 0.0781836 1.25055
-0.102055 0.0781498 1.32141
-0.307885 0.0781109 1.20918
-0.210639 0.0780559 1.24925
-0.334547 0.078022 1.17777
-0.157397 0.0779677 1.25779
-0.0112198 0.0779508 1.32057
-0.177234 0.0778973 1.229
-0.270294 0.0778446 1.17387
-0.286033 0.0778106 1.15653
-0.0865989 0.0777757 1.24684
-0.23729 0.0777417 1.16204
-0.278109 0.0776906 1.13302
-0.243195 0.0776565 1.14105
-0.202304 0.0776062 1.15287
-0.182149 0.0775721 1.15355
-0.184175 0.0775397 1.14306
-0.212813 0.0775056 1.11936
-0.0731711 0.077457 1.18052
-0.148566 0.0774228 1.13347
-0.124825 0.0773886 1.136
-0.0872373 0.0773543 1.14546
-0.209183 0.077311 1.07561
-0.251781 0.0772767 1.045
-0.227095 0.0772424 1.04805
-0.0700937 0.0772081 1.11726
-0.191119 0.0771737 1.04748
-0.199408 0.077134 1.03433
-0.244505 0.0770997 1.00253
-0.104865 0.0770652 1.06311
-0.249964 0.0770308 0.981325
-0.17798 0.0769947 1.00817
-0.189454 0.0769603 0.993225
-0.30837 0.0769178 0.924977
-0.181862 0.0768913 0.978634
-0.220539 0.0768567 0.95012
-0.285973 0.0768244 0.908119
-0.160025 0.0767898 0.961935
-0.438337 0.0767491 0.81395
-0.279308 0.0767206 0.884015
-0.286224 0.0766972 0.870849
-0.233687 0.0766574 0.888272
-0.263647 0.0766227 0.864188
-0.100851 0.076588 0.936494
-0.213879 0.0765583 0.870636
-0.275907 0.0765317 0.83012
-0.353212 0.076497 0.782407
-0.278938 0.076459 0.810664
-0.224472 0.0764242 0.828859
-0.247717 0.0763925 0.808044
-0.148282 0.0763697 0.848099
-0.287266 0.0763349 0.769599
-0.234974 0.0762987 0.786817
-0.318204 0.076265 0.736151
-0.28951 0.0762463 0.740647
-0.240144 0.0762114 0.756364
-0.273366 0.0761762 0.730813
-0.399215 0.0761412 0.658945
-0.190293 0.0761063 0.754465
-0.302946 0.0760886 0.688269
-0.178279 0.0760536 0.741691
-0.471576 0.0760185 0.586144
-0.246868 0.0759833 0.689611
-0.353728 0.0759481 0.627305
-0.294651 0.0759314 0.646955
-0.322017 0.0758962 0.624415
-0.31955 0.075861 0.616803
-0.235494 0.0758276 0.649892
-0.222132 0.07581 0.646763
-0.373032 0.0757747 0.562498
-0.190211 0.0757394 0.645105
-0.304814 0.0757069 0.578849
-0.20766 0.0756716 0.618644
-0.332321 0.0756539 0.546541
-0.200867 0.0756185 0.603507
-0.290859 0.075587 0.549539
-0.15056 0.0755516 0.610948
-0.192645 0.0755339 0.580163
-0.235762 0.0754984 0.549885
-0.0684871 0.0754678 0.624532
-0.166661 0.0754323 0.566747
-0.255542 0.0754145 0.512592
-0.220378 0.075379 0.521497
-0.222862 0.0753434 0.511589
-0.324695 0.0753137 0.451671
-0.498387 0.0752781 0.35618
-0.21453 0.0752603 0.488433
-0.323814 0.0752247 0.425166
-0.237111 0.075189 0.459905
-0.317034 0.0751603 0.410931
-0.1382 0.0751424 0.490701
-0.174055 0.0751067 0.464191
-0.14894 0.0750709 0.468177
-0.39406 0.0750351 0.337058
-0.27196 0.0750172 0.388492
-0.180896 0.0749894 0.425004
-0.269207 0.0749536 0.372319
-0.127798 0.0749178 0.434505
-0.338644 0.0748819 0.320575
-0.0911716 0.0748639 0.434733
-0.0918951 0.074828 0.425886
-0.18619 0.0748012 0.369713
-0.236909 0.0747652 0.335888
-0.254466 0.0747472 0.31756
-0.244242 0.0747113 0.314227
-0.43763 0.0746752 0.209101
-0.227033 0.0746392 0.305978
-0.275304 0.0746212 0.272324
-0.143733 0.0745952 0.329082
-0.165814 0.0745592 0.309649
-0.322599 0.0745231 0.222877
-0.204112 0.074505 0.27263
-0.280756 0.0744689 0.225949
-0.25781 0.0744327 0.229074
-0.125524 0.0743965 0.286881
-0.221837 0.0743784 0.229267
-0.149416 0.0743422 0.257162
-0.13758 0.0743059 0.254777
-0.177874 0.074281 0.225622
-0.0860819 0.0742628 0.262088
-0.375435 0.0742265 0.109136
-0.2799 0.0741902 0.148641
-0.194371 0.0741539 0.183155
-0.16402 0.0741357 0.188931
-0.122141 0.0740993 0.201641
-0.252465 0.0740629 0.12826
-0.19522 0.0740265 0.148677
-0.345106 0.0740083 0.0643659
-0.101789 0.0739718 0.177838
-0.125834 0.0739353 0.157642
-0.229641 0.0739171 0.0963934
-0.242096 0.0738806 0.0820126
-0.186407 0.073844 0.101716
-0.308919 0.0738074 0.0323301
-0.167302 0.0737891 0.0938253
-0.285571 0.0737525 0.0265814
-0.114476 0.0737159 0.104032
-0.0929597 0.0736793 0.106705
-0.147576 0.0736609 0.0701145
-0.211859 0.0736242 0.0299084
-0.210605 0.0735875 0.0224826
-0.0144978 0.0735692 0.111277
-0.277562 0.0735324 -0.0282878
-0.0816361 0.0942782 1.6684
-0.0742465 0.0940578 1.6683
-0.20041 0.0938834 1.59987
-0.238509 0.0937102 1.57547
-0.173642 0.0935829 1.60098
-0.254391 0.0934566 1.55367
-0.09467 0.0933315 1.62658
0.0396599 0.0932502 1.68526
-0.0323087 0.0931273 1.6423
-0.204978 0.0930887 1.54599
-0.274971 0.0929868 1.50332
-0.114978 0.0929075 1.57484
-0.231419 0.0928287 1.50815
-0.158033 0.0927504 1.53637
-0.356978 0.0926341 1.42983
-0.243933 0.0925954 1.47647
-0.248192 0.0925381 1.46515
-0.293796 0.092462 1.43387
-0.242827 0.0923865 1.45087
-0.19767 0.0923117 1.46496
0.100328 0.0922375 1.60546
-0.16335 0.0921834 1.4644
-0.22136 0.0921105 1.42688
-0.264954 0.0920384 1.39656
-0.178028 0.0919995 1.43026
-0.352364 0.091928 1.33458
-0.227858 0.0918573 1.3883
-0.254142 0.0918069 1.36588
-0.0633577 0.0917679 1.45156
-0.363945 0.0916988 1.29273
0.0359627 0.0916304 1.48412
-0.184076 0.0915913 1.36443
-0.174186 0.0915433 1.36006
-0.0994046 0.0914766 1.38888
-0.332981 0.0914107 1.2635
-0.262556 0.0913715 1.28909
-0.0424233 0.0913065 1.39056
-0.396945 0.0912869 1.20293
-0.124219 0.0912227 1.33069
-0.350692 0.0911595 1.20883
-0.21193 0.0911202 1.26865
-0.213651 0.0910578 1.25915
-0.195444 0.0910381 1.25793
-0.363645 0.0909767 1.16519
-0.155746 0.0909162 1.26047
-0.161258 0.0908768 1.24821
-0.212243 0.0908369 1.21324
-0.112294 0.0907974 1.25374
-0.105585 0.0907388 1.2484
-0.189713 0.0906993 1.19688
-0.309158 0.0906416 1.12845
-0.283635 0.090602 1.13178
-0.343078 0.0905652 1.09252
-0.323941 0.0905255 1.09267
-0.323616 0.0904699 1.0841
-0.26185 0.0904302 1.10559
-0.18883 0.0903904 1.13272
-0.192016 0.0903506 1.12176
-0.22912 0.0903019 1.09423
-0.36411 0.0902621 1.01739
-0.285281 0.0902094 1.04801
-0.232701 0.0901824 1.06444
-0.241299 0.0901379 1.05102
-0.337122 0.090098 0.993809
-0.298739 0.0900474 1.00417
-0.233951 0.0900075 1.02728
-0.200461 0.0899781 1.0343
-0.240039 0.0899379 1.00526
-0.200801 0.0898979 1.01564
-0.21845 0.0898493 0.997943
-0.371246 0.0898093 0.912319
-0.295593 0.0897776 0.940566
-0.304672 0.0897417 0.926636
-0.251218 0.0897016 0.944168
-0.252533 0.0896552 0.934604
-0.222561 0.089615 0.940418
-0.290704 0.089581 0.896913
-0.12594 0.0895495 0.969756
-0.149517 0.0895092 0.948827
-0.204003 0.0894649 0.912634
-0.239981 0.0894286 0.885348
-0.203863 0.0893882 0.894302
-0.247884 0.0893612 0.862596
-0.155181 0.0893208 0.899859
-0.286178 0.0892786 0.825365
-0.298108 0.08924 0.810255
-0.399309 0.089218 0.74976
-0.234874 0.0891769 0.822962
-0.256983 0.0891364 0.802871
-0.221496 0.0890959 0.81159
-0.262273 0.0890558 0.782166
-0.274091 0.089035 0.766346
-0.173632 0.0889944 0.807584
-0.205498 0.0889537 0.782671
-0.23281 0.088913 0.760047
-0.230969 0.0888729 0.751978
-0.190747 0.0888525 0.762193
-0.11651 0.0888117 0.790374
-0.181129 0.0887728 0.749051
-0.20291 0.0887319 0.729245
-0.226453 0.0886911 0.708569
-0.284082 0.0886736 0.669756
-0.229894 0.0886327 0.687963
-0.16601 0.0885918 0.711031
-0.204141 0.088555 0.682906
-0.249397 0.0885345 0.650448
-0.311618 0.0884935 0.610492
-0.221725 0.0884525 0.646607
-0.259706 0.0884167 0.61854
-0.31226 0.0883757 0.583452
-0.197915 0.0883551 0.630831
-0.145417 0.088314 0.648289
-0.344334 0.0882793 0.539737
-0.291187 0.0882382 0.557541
-0.1002 0.0882176 0.64327
-0.360422 0.0881764 0.504409
-0.312584 0.0881427 0.519216
-0.271052 0.0881015 0.531253
-0.197223 0.0880602 0.559451
-0.37714 0.0880396 0.459766
-0.189003 0.0879982 0.545138
-0.262532 0.0879657 0.49925
-0.302158 0.0879243 0.470761
-0.275372 0.0878829 0.475491
-0.188834 0.0878622 0.509071
-0.0625472 0.0878307 0.56307
-0.236271 0.0877893 0.467573
-0.113154 0.0877478 0.520509
-0.204478 0.087727 0.465186
-0.198005 0.0876855 0.45982
-0.112056 0.087655 0.493637
-0.0457611 0.0876135 0.518202
-0.0336883 0.0875927 0.514607
-0.21319 0.087551 0.416295
-0.0595702 0.0875094 0.484555
-0.316781 0.0874677 0.347412
-0.285694 0.0874592 0.352718
-0.35364 0.0874175 0.310223
-0.143114 0.0873758 0.406978
-0.172517 0.087334 0.383779
-0.441308 0.0872922 0.240898
-0.145888 0.0872713 0.379045
-0.284747 0.087243 0.300441
-0.230467 0.0872011 0.319124
-0.248915 0.0871593 0.301455
-0.147558 0.0871383 0.342599
-0.308601 0.0870964 0.253653
-0.329349 0.0870544 0.234867
-0.114756 0.0870124 0.333763
-0.332219 0.0869914 0.215527
-0.175936 0.0869642 0.284498
-0.210694 0.0869222 0.258748
-0.233939 0.0868801 0.238765
-0.237835 0.0868591 0.227341
-0.203886 0.086817 0.235976
-0.239268 0.0867749 0.209957
-0.228434 0.0867327 0.207058
-0.21806 0.0867116 0.2028
-0.256694 0.0866694 0.175188
-0.191522 0.0866271 0.199491
-0.0862093 0.0865849 0.243876
-0.223899 0.0865637 0.165617
-0.296833 0.0865377 0.12001
-0.140922 0.0864954 0.189722
-0.173417 0.086453 0.165243
-0.230806 0.0864319 0.127163
-0.170342 0.0863895 0.149184
-0.195772 0.0863471 0.12827
-0.232522 0.0863046 0.101707
-0.0922199 0.0862834 0.162504
-0.366981 0.0862409 0.0169567
-0.170946 0.0861984 0.106819
-0.258983 0.0861559 0.0546577
-0.191716 0.0861346 0.0789681
-0.207237 0.0860921 0.0630848
-0.407173 0.0860495 -0.0449937
-0.183656 0.0860282 0.0574639
-0.208299 0.0859855 0.0370525
-0.135054 0.0859429 0.0655967
-0.177861 0.0859002 0.0361266
-0.217603 0.0858788 0.0069863
-0.255786 0.0858361 -0.0201513
-0.179438 0.107774 1.65319
-0.172023 0.107522 1.65302
-0.0304735 0.107375 1.71679
-0.127447 0.107178 1.66286
-0.195055 0.107033 1.62205
-0.100075 0.106889 1.66252
-0.233288 0.106796 1.58738
-0.195249 0.106655 1.59937
-0.196251 0.106563 1.59033
-0.0899458 0.106494 1.63427
-0.26022 0.106356 1.54207
-0.249928 0.106266 1.53868
-0.250067 0.106177 1.53008
-0.229207 0.106088 1.53197
-0.240472 0.106 1.51781
-0.2331 0.105912 1.51296
-0.075457 0.105848 1.58254
-0.287044 0.105761 1.4682
-0.226379 0.105676 1.48998
-0.236791 0.105591 1.47622
-0.198953 0.105507 1.48658
-0.1649 0.105446 1.49432
-0.187678 0.105402 1.47311
-0.130883 0.10532 1.49295
-0.247708 0.105238 1.42596
-0.0981583 0.105158 1.49215
-0.246974 0.1051 1.40842
-0.248382 0.105056 1.39796
-0.325578 0.104977 1.35076
-0.463807 0.104899 1.27304
-0.31693 0.104821 1.33785
-0.272991 0.104777 1.35012
-0.383446 0.104723 1.28551
-0.220542 0.104648 1.35832
-0.190291 0.104603 1.36378
-0.121477 0.104529 1.38954
-0.288623 0.104478 1.29654
-0.200411 0.104434 1.33101
-0.153406 0.104361 1.34583
0.0175153 0.10429 1.4226
-0.144299 0.104245 1.33209
-0.289269 0.104198 1.25013
-0.322919 0.104153 1.22373
-0.155578 0.104084 1.29869
-0.12794 0.104016 1.30376
-0.185195 0.103971 1.2656
-0.215341 0.103926 1.241
-0.212431 0.103881 1.23294
-0.201106 0.103816 1.22982
-0.040364 0.103771 1.3007
-0.240876 0.103706 1.19166
-0.222674 0.103661 1.19129
-0.283977 0.10362 1.15104
-0.214636 0.103575 1.17626
-0.123354 0.103512 1.21309
-0.0995833 0.103467 1.21555
-0.294185 0.103422 1.10884
-0.0383971 0.103377 1.22733
-0.169476 0.103323 1.15271
-0.317436 0.103278 1.06934
-0.179738 0.103219 1.12933
-0.220037 0.103187 1.09932
-0.160588 0.103139 1.11982
-0.298154 0.103093 1.0417
-0.129653 0.103037 1.11704
-0.26761 0.102991 1.03874
-0.1452 0.102946 1.09064
-0.191894 0.102913 1.05753
-0.206832 0.102859 1.0411
-0.072998 0.102813 1.09875
-0.466846 0.102768 0.892559
-0.17963 0.102722 1.02692
-0.295984 0.102692 0.958917
-0.320465 0.10264 0.937682
-0.320242 0.102594 0.928573
-0.210287 0.102549 0.974341
-0.391082 0.102503 0.874746
-0.226172 0.102475 0.947323
-0.0819407 0.102426 1.0104
-0.318581 0.10238 0.882913
-0.306872 0.102334 0.879612
-0.255567 0.102292 0.895983
-0.293387 0.102263 0.867272
-0.268088 0.102216 0.870838
-0.274441 0.10217 0.858546
-0.218944 0.102124 0.87719
-0.299075 0.102079 0.827995
-0.187997 0.102055 0.87358
-0.122056 0.102009 0.897479
-0.409427 0.101963 0.744733
-0.260368 0.101917 0.810199
-0.268171 0.101871 0.797259
-0.161806 0.101847 0.840488
-0.14646 0.101803 0.839075
-0.22293 0.101757 0.791831
-0.380336 0.10171 0.704132
-0.16672 0.10169 0.800895
-0.184865 0.101644 0.782844
-0.238237 0.101597 0.747192
-0.151966 0.101555 0.781197
-0.125923 0.101509 0.785272
-0.262249 0.101462 0.708176
-0.243807 0.101439 0.707519
-0.174731 0.101398 0.73291
-0.273245 0.101352 0.674749
-0.30772 0.101305 0.64862
-0.158108 0.101289 0.713288
-0.303919 0.101242 0.631508
-0.120929 0.101195 0.714141
-0.327876 0.101157 0.601472
-0.273037 0.10111 0.62005
-0.428794 0.101087 0.532358
-0.240968 0.10104 0.617449
-0.202094 0.101003 0.627672
-0.242527 0.100956 0.598655
-0.276526 0.100909 0.572867
-0.221669 0.100885 0.590519
-0.157389 0.100849 0.613426
-0.226317 0.100802 0.570202
-0.230551 0.100755 0.559338
-0.172222 0.100708 0.579767
-0.250166 0.100697 0.530529
-0.254185 0.10065 0.519801
-0.242437 0.100603 0.516968
-0.386859 0.100556 0.436062
-0.0391064 0.100546 0.59964
-0.382936 0.100499 0.419047
-0.29527 0.100451 0.454214
-0.168447 0.100404 0.508971
-0.246923 0.100357 0.461091
-0.26069 0.100348 0.443879
-0.0450163 0.100301 0.54309
-0.0515894 0.100253 0.53119
-0.19152 0.100206 0.452623
0.0459346 0.100182 0.561705
-0.23459 0.100151 0.41214
-0.11499 0.100104 0.463367
-0.171248 0.100056 0.426676
-0.062743 0.100009 0.472379
-0.03327 0.0999849 0.477507
-0.257091 0.0999374 0.357067
-0.220928 0.0999073 0.365838
-0.289421 0.0998597 0.323082
-0.179963 0.0998359 0.36823
-0.206131 0.0997883 0.346658
-0.144846 0.0997406 0.368823
-0.206516 0.0996929 0.329523
-0.351299 0.099669 0.247581
-0.325473 0.0996401 0.251181
-0.25441 0.0995923 0.278275
-0.174955 0.0995445 0.309577
-0.16983 0.0995206 0.302618
-0.0871789 0.0994728 0.335539
-0.151651 0.0994249 0.29491
-0.131223 0.0993769 0.296743
-0.211548 0.099329 0.248212
-0.170178 0.0993253 0.258463
-0.226231 0.0992773 0.222084
-0.459603 0.0992293 0.0970566
-0.20198 0.0991813 0.217538
-0.0955679 0.0991572 0.26129
-0.16631 0.0991091 0.217611
-0.307021 0.099061 0.138958
-0.203653 0.0990128 0.182357
-0.254118 0.0989888 0.147701
-0.0694332 0.0989405 0.231779
-0.301343 0.0988923 0.107572
-0.0239545 0.098844 0.238025
-0.19756 0.0988199 0.14183
-0.25665 0.0987935 0.103007
-0.337644 0.0987451 0.0542971
-0.153494 0.0986968 0.138171
-0.200879 0.0986726 0.105113
-0.0899891 0.0986242 0.152377
-0.415511 0.0985758 -0.0185528
-0.278989 0.0985274 0.0415513
-0.157499 0.0985031 0.0929625
-0.272348 0.0984546 0.0274013
-0.196914 0.0984061 0.0569931
-0.28771 0.0983818 0.00228397
-0.138688 0.0983333 0.0686904
-0.256308 0.0982847 0.00178766
-0.19919 0.098236 0.0222657
-0.338086 0.0982117 -0.0564623
-0.217828 0.098163 -0.00439371
-0.158141 0.121334 1.69602
-0.163467 0.121051 1.68938
-0.0984192 0.120886 1.71483
-0.225834 0.120665 1.64558
0.058651 0.120503 1.78075
-0.148484 0.120398 1.66858
-0.257663 0.120238 1.6069
-0.307662 0.120134 1.57331
-0.0105169 0.120056 1.71264
-0.0897147 0.1199 1.66592
-0.372933 0.119798 1.51572
-0.235465 0.119646 1.57729
-0.152009 0.119546 1.61042
-0.0579143 0.119447 1.64887
-0.308479 0.119374 1.51431
-0.381755 0.119276 1.46907
-0.178908 0.119179 1.56189
-0.294287 0.119083 1.49559
-0.145536 0.118988 1.56136
-0.294213 0.118894 1.4784
-0.284903 0.118844 1.47318
-0.272141 0.118776 1.47024
-0.0762342 0.118683 1.55957
-0.379246 0.118592 1.39943
-0.217082 0.118501 1.47188
-0.0418548 0.118451 1.54968
-0.0996268 0.118386 1.51143
-0.24866 0.118298 1.42826
-0.272795 0.11821 1.40753
-0.314375 0.118123 1.37806
-0.244869 0.118074 1.40306
-0.238218 0.118013 1.39697
-0.110723 0.117928 1.45202
-0.277685 0.117845 1.35982
-0.208009 0.117795 1.38496
-0.273773 0.117713 1.34336
-0.217043 0.117663 1.36205
-0.222267 0.117607 1.34996
-0.25305 0.117527 1.32582
-0.119311 0.117477 1.38304
-0.139889 0.117398 1.364
-0.110058 0.117348 1.3693
-0.101382 0.117295 1.3641
-0.356422 0.117219 1.22779
-0.413892 0.117169 1.18947
-0.269517 0.117093 1.25286
-0.0975434 0.117043 1.32929
-0.288437 0.116993 1.22429
-0.361164 0.116921 1.17904
-0.189928 0.116871 1.25513
-0.313575 0.1168 1.18446
-0.238968 0.11677 1.21159
-0.188891 0.116704 1.22763
-0.401157 0.116654 1.11201
-0.321166 0.116585 1.14312
-0.26146 0.116534 1.16351
-0.178904 0.116484 1.19534
-0.366513 0.116433 1.0921
-0.402845 0.116375 1.06474
-0.385799 0.11631 1.06431
-0.248333 0.116259 1.12364
-0.337773 0.116223 1.06906
-0.302612 0.11617 1.07732
-0.178029 0.11612 1.13023
-0.263147 0.116057 1.07869
-0.207146 0.116007 1.09734
-0.292314 0.115956 1.04541
-0.326634 0.11592 1.01842
-0.229134 0.11586 1.05814
-0.30257 0.115809 1.01211
-0.118627 0.115758 1.09478
-0.234927 0.115707 1.02734
-0.276962 0.115656 0.997049
-0.306998 0.115618 0.972348
-0.149797 0.115567 1.04169
-0.439069 0.115515 0.887808
-0.233635 0.115464 0.98129
-0.153124 0.115413 1.01232
-0.141821 0.11538 1.00814
-0.251771 0.115329 0.94396
-0.0771985 0.115277 1.02205
-0.312744 0.115226 0.895097
-0.268839 0.115175 0.90788
-0.443296 0.115147 0.810659
-0.421496 0.115096 0.812405
-0.0770875 0.115044 0.975467
-0.218867 0.114993 0.895447
-0.275424 0.114967 0.857151
-0.232357 0.114915 0.869575
-0.3274 0.114865 0.812902
-0.21494 0.114814 0.860044
-0.199428 0.114762 0.858723
-0.310927 0.114739 0.792889
-0.291838 0.114687 0.793375
-0.276755 0.114635 0.79187
-0.189906 0.114588 0.826101
-0.265197 0.114536 0.77943
-0.139898 0.11451 0.832136
-0.272125 0.114464 0.756806
-0.187616 0.114412 0.790064
-0.315835 0.114367 0.716707
-0.27526 0.114315 0.728019
-0.287355 0.114289 0.712064
-0.205187 0.114237 0.744194
-0.00951303 0.114194 0.832767
-0.304567 0.114142 0.676306
-0.238089 0.114089 0.700623
-0.407784 0.114074 0.605529
-0.207376 0.114021 0.696828
0.0637853 0.113969 0.823516
-0.153893 0.113928 0.705363
-0.183168 0.113876 0.681853
-0.307361 0.11385 0.609922
-0.137643 0.113797 0.685929
-0.0753237 0.113758 0.707756
-0.319621 0.113706 0.576776
-0.309666 0.113653 0.572934
-0.0901003 0.113627 0.672919
-0.234567 0.113589 0.591333
-0.396597 0.113536 0.501527
-0.209413 0.113484 0.586341
-0.129578 0.113457 0.616488
-0.204877 0.113421 0.569466
-0.125833 0.113368 0.600238
-0.189408 0.113315 0.559712
-0.0999301 0.11328 0.595052
-0.19128 0.113254 0.539641
-0.291982 0.113201 0.48058
-0.232305 0.113148 0.501721
-0.0631882 0.113095 0.577593
-0.300671 0.113061 0.449439
-0.265501 0.113035 0.457324
-0.182157 0.112982 0.490339
-0.15972 0.112929 0.492912
-0.154582 0.112896 0.486045
-0.253105 0.112869 0.427112
-0.197269 0.112816 0.446413
-0.228585 0.112763 0.422149
-0.244293 0.11271 0.405701
-0.190755 0.112657 0.423889
-0.295282 0.112652 0.36112
-0.136656 0.112599 0.431868
-0.240556 0.112545 0.371364
-0.312937 0.112492 0.326632
-0.118916 0.112439 0.415113
-0.257483 0.112412 0.336233
-0.34946 0.112382 0.28079
-0.15342 0.112329 0.370308
-0.139762 0.112275 0.368647
-0.173832 0.112248 0.342043
-0.196471 0.112195 0.322254
-0.162614 0.112141 0.330725
-0.285761 0.112112 0.259687
-0.22053 0.112059 0.283863
-0.0190303 0.112032 0.375081
-0.235768 0.111978 0.258294
-0.259605 0.111925 0.237969
-0.140695 0.111871 0.28903
-0.188732 0.111844 0.25551
-0.105108 0.11179 0.288948
-0.193614 0.111736 0.236333
-0.10904 0.111709 0.269163
-0.0724592 0.111682 0.27798
-0.327127 0.111628 0.142311
-0.157241 0.111574 0.218931
-0.152434 0.11152 0.213024
-0.0904184 0.111493 0.234589
-0.303711 0.111439 0.119652
-0.315458 0.111385 0.1055
-0.19148 0.111331 0.159222
-0.282898 0.111304 0.104101
-0.0887286 0.11125 0.192939
-0.172506 0.111195 0.142816
-0.157888 0.111141 0.141902
-0.215979 0.111087 0.104645
-0.178929 0.11106 0.113799
-0.161074 0.111005 0.114535
-0.278005 0.110979 0.0466629
-0.162524 0.110952 0.09505
-0.230018 0.110898 0.0531394
-0.28232 0.110843 0.018837
-0.244388 0.110789 0.029663
-0.107421 0.110762 0.0888238
-0.270153 0.110707 -0.000661484
-0.23784 0.110653 0.00738713
0.04052 0.110598 0.138471
-0.223292 0.110571 -0.00272642
-0.161033 0.110516 0.0203278
0.160355 0.135514 1.88487
-0.069191 0.134847 1.77429
-0.141773 0.134599 1.73238
-0.10623 0.134416 1.74301
0.011753 0.134235 1.79485
-0.137876 0.134055 1.7129
-0.106165 0.133876 1.7216
-0.169134 0.133761 1.68147
-0.126279 0.133612 1.69507
-0.0939815 0.133498 1.70258
-0.0350371 0.133326 1.72484
-0.229137 0.133214 1.61915
-0.0790808 0.133103 1.68554
-0.236344 0.132992 1.59827
-0.254743 0.132883 1.58043
-0.027984 0.132801 1.68449
-0.407647 0.132692 1.48601
-0.177635 0.132585 1.59237
-0.333805 0.132479 1.50563
-0.375748 0.132323 1.47727
-0.283756 0.132268 1.51334
-0.160864 0.132192 1.56542
-0.247196 0.132089 1.51358
-0.000818241 0.131988 1.62808
-0.263059 0.131887 1.48826
-0.323138 0.131787 1.44951
-0.195076 0.131733 1.5037
-0.227993 0.131662 1.47782
-0.194248 0.131564 1.48598
-0.237299 0.131468 1.45572
-0.280236 0.131373 1.4255
-0.258228 0.131318 1.42672
-0.141293 0.131252 1.47571
-0.306796 0.131159 1.38419
-0.245017 0.131104 1.40533
-0.189496 0.131013 1.42432
-0.137486 0.130958 1.4406
-0.299044 0.130895 1.35031
-0.301623 0.130807 1.34022
-0.190312 0.130719 1.38706
-0.0663932 0.130664 1.43934
-0.26618 0.130605 1.32987
-0.216708 0.13055 1.34495
-0.214066 0.130465 1.33743
-0.191212 0.130382 1.33999
-0.185425 0.130326 1.33327
-0.30523 0.130271 1.26376
-0.310404 0.130215 1.25157
-0.233671 0.130135 1.28102
-0.337343 0.130056 1.22027
-0.20059 0.13 1.27908
-0.133156 0.129945 1.30325
-0.243933 0.129889 1.23832
-0.263464 0.129818 1.21945
-0.2993 0.129762 1.19202
-0.278436 0.129687 1.19349
-0.264342 0.129632 1.19104
-0.331472 0.129576 1.14799
-0.341299 0.12953 1.13331
-0.22659 0.129458 1.18166
-0.408368 0.129387 1.08174
-0.204885 0.129346 1.17362
-0.292561 0.12929 1.12035
-0.257638 0.129234 1.12839
-0.176014 0.129178 1.15979
-0.15764 0.12911 1.15991
-0.328766 0.129054 1.06496
-0.283339 0.128997 1.0783
-0.342848 0.128959 1.03864
-0.142432 0.128895 1.12974
-0.190189 0.128838 1.09652
-0.282426 0.128782 1.04106
-0.119062 0.128725 1.11342
-0.331743 0.128669 0.997766
-0.253573 0.128629 1.02707
-0.305491 0.128568 0.991924
-0.258085 0.128512 1.00634
-0.136606 0.128459 1.0577
-0.161272 0.128402 1.03611
-0.142178 0.128368 1.03571
-0.308465 0.128311 0.943345
-0.313629 0.128254 0.93153
-0.183743 0.128198 0.987238
-0.28878 0.128141 0.925511
-0.23562 0.128112 0.94203
-0.316206 0.128055 0.892547
-0.313999 0.128 0.884434
-0.201225 0.127943 0.931654
-0.263731 0.127886 0.891244
-0.185852 0.12786 0.920059
-0.189683 0.127803 0.909005
-0.317319 0.127746 0.836061
-0.301592 0.127693 0.834667
-0.18339 0.127636 0.884663
-0.263316 0.127613 0.83451
-0.179885 0.127556 0.867138
-0.0482757 0.127499 0.923867
-0.285884 0.127449 0.795753
-0.277951 0.127392 0.790665
-0.171906 0.127363 0.833724
-0.240663 0.127315 0.790012
-0.137504 0.127257 0.832566
-0.0696226 0.1272 0.857493
-0.239234 0.127182 0.7624
-0.0846155 0.127124 0.830713
-0.391844 0.127067 0.668114
-0.0820979 0.127021 0.813606
-0.112944 0.126964 0.789219
-0.230357 0.126906 0.721561
-0.340059 0.126891 0.656355
-0.28737 0.126833 0.673764
-0.125969 0.126775 0.745542
-0.201995 0.126733 0.698098
-0.197156 0.126675 0.691614
-0.228928 0.126646 0.665871
-0.268886 0.126588 0.63701
-0.224023 0.126548 0.649991
-0.219532 0.12649 0.643375
-0.457764 0.126432 0.515408
-0.182116 0.126421 0.642776
-0.431143 0.126363 0.509428
-0.352719 0.126305 0.539818
-0.312303 0.126247 0.551216
-0.358511 0.126238 0.517623
-0.245359 0.12618 0.565406
-0.126286 0.126121 0.616161
-0.177455 0.126085 0.581051
-0.249026 0.126027 0.536504
-0.276989 0.125997 0.512764
-0.0590392 0.125939 0.612997
-0.242671 0.12588 0.512452
-0.155114 0.125846 0.546691
-0.159221 0.125787 0.535928
-0.37781 0.125758 0.416911
-0.398861 0.125699 0.397696
-0.137311 0.125665 0.518909
-0.170459 0.125607 0.493665
-0.199628 0.125548 0.470423
-0.321203 0.125519 0.399949
-0.19774 0.12546 0.453043
-0.120978 0.125428 0.481847
-0.377281 0.125369 0.345077
-0.20141 0.12531 0.424406
-0.267345 0.12528 0.381788
-0.323034 0.125221 0.345358
-0.289842 0.125191 0.352361
-0.00689842 0.125132 0.485266
-0.0790959 0.125073 0.440612
-0.200998 0.125043 0.370047
-0.173619 0.124984 0.375201
-0.220416 0.124925 0.34328
-0.232759 0.124895 0.327506
-0.379686 0.124866 0.244456
-0.0477141 0.124806 0.401946
-0.367734 0.124747 0.233453
-0.207112 0.124688 0.305292
-0.104209 0.124628 0.348284
-0.143113 0.124599 0.319284
-0.172244 0.124571 0.295111
-0.0360965 0.124511 0.354752
-0.199281 0.124452 0.264739
-0.0658984 0.124422 0.32191
-0.243655 0.124362 0.224632
-0.155428 0.124303 0.260356
-0.287055 0.124243 0.186166
-0.102462 0.124183 0.270098
-0.0610259 0.124187 0.280084
-0.0567295 0.124127 0.273883
-0.111709 0.124067 0.238056
-0.0865357 0.124007 0.242316
-0.125896 0.123977 0.213182
-0.229197 0.123918 0.153226
-0.261935 0.123858 0.128563
-0.189581 0.123798 0.156458
-0.0974075 0.123768 0.193122
-0.259384 0.123708 0.103872
-0.141524 0.123648 0.154552
-0.165169 0.123588 0.134492
-0.167444 0.123558 0.123962
0.0704464 0.123497 0.23469
-0.389183 0.123437 -0.00333087
-0.177001 0.123377 0.0945659
-0.149784 0.123347 0.098813
-0.162408 0.123287 0.0843274
-0.0830441 0.123261 0.114463
-0.0499906 0.123201 0.122835
-0.187122 0.123171 0.0449343
-0.301252 0.123111 -0.0202659
-0.217666 0.12305 0.0134038
-0.0735321 0.12299 0.0773594
-0.16939 0.12296 0.0201267
-0.0916865 0.122899 0.0508872
-0.0886656 0.149028 1.79587
-0.0307409 0.14861 1.82215
-0.0664824 0.148337 1.79858
-0.177875 0.147965 1.73934
-0.0293755 0.147836 1.80487
-0.0953585 0.147667 1.76404
-0.00811925 0.147471 1.80044
-0.185886 0.147277 1.70432
-0.123231 0.147151 1.72695
-0.0862284 0.146961 1.7382
-0.255158 0.146837 1.64504
-0.190673 0.146714 1.66859
-0.2986 0.14653 1.60731
-0.154836 0.14647 1.66913
-0.0648407 0.146319 1.70613
-0.205566 0.1462 1.62706
-0.292341 0.146082 1.57497
-0.230577 0.145965 1.59714
-0.154356 0.145849 1.62653
-0.0843255 0.145734 1.65283
-0.294565 0.14565 1.5383
-0.177042 0.145538 1.58833
-0.0469847 0.145426 1.64461
-0.284046 0.145315 1.51733
-0.266024 0.145256 1.51643
-0.232271 0.145176 1.52386
-0.114535 0.145068 1.57397
-0.409181 0.144961 1.41787
-0.13833 0.144855 1.54451
-0.230496 0.144795 1.48858
-0.294271 0.144691 1.4479
-0.114516 0.144618 1.52827
-0.0730939 0.144558 1.53917
-0.333768 0.144456 1.40002
-0.280326 0.144356 1.41792
-0.242377 0.144296 1.42712
-0.359379 0.144227 1.35907
-0.253816 0.144129 1.403
-0.259648 0.144033 1.39121
-0.244622 0.143973 1.389
-0.290283 0.143878 1.35729
-0.156482 0.143817 1.41449
-0.289764 0.143754 1.33823
-0.465904 0.143662 1.24124
-0.321917 0.143572 1.3043
-0.319766 0.143512 1.29572
-0.18948 0.143451 1.35122
-0.287782 0.14339 1.29244
-0.31054 0.143305 1.27204
-0.255965 0.143244 1.28972
-0.209728 0.143159 1.30386
-0.297536 0.143098 1.25037
-0.311335 0.143037 1.2339
-0.261478 0.142962 1.24962
-0.218022 0.142901 1.2618
-0.398868 0.14282 1.16234
-0.15485 0.142779 1.27431
-0.1532 0.14271 1.2658
-0.373074 0.142649 1.14635
-0.35889 0.142571 1.14437
-0.10242 0.14251 1.26312
-0.0279713 0.142448 1.29086
-0.293775 0.142387 1.1485
-0.276208 0.142328 1.14775
-0.187466 0.142267 1.18267
-0.380523 0.142194 1.07701
-0.147059 0.142133 1.18432
-0.300326 0.142083 1.09797
-0.331388 0.142031 1.07277
-0.21332 0.141961 1.12263
-0.257193 0.1419 1.0913
-0.280773 0.141838 1.07014
-0.294145 0.141776 1.05409
-0.32936 0.141714 1.02714
-0.14622 0.141673 1.10882
-0.0991556 0.141608 1.12309
-0.29293 0.141549 1.01681
-0.289619 0.141487 1.00916
-0.330343 0.141453 0.978751
-0.378746 0.141391 0.945256
-0.456936 0.141329 0.896881
-0.188402 0.141267 1.02188
-0.17984 0.141204 1.0169
-0.353849 0.141173 0.919792
-0.18651 0.141112 0.994197
-0.347389 0.14105 0.90453
-0.302305 0.14099 0.91778
-0.0932868 0.140928 1.01308
-0.407363 0.140901 0.84585
-0.189535 0.140838 0.945576
-0.195434 0.140776 0.93345
-0.377749 0.14072 0.832951
-0.389953 0.140657 0.817694
-0.369313 0.140634 0.817753
-0.168938 0.140571 0.908803
-0.280432 0.140508 0.84393
-0.264249 0.140455 0.842628
-0.216828 0.140393 0.857234
-0.260163 0.140361 0.825567
-0.154768 0.14031 0.868847
-0.227543 0.140247 0.823384
-0.351216 0.140197 0.752098
-0.0358458 0.140134 0.900728
-0.177097 0.140071 0.821059
-0.13766 0.140055 0.830384
-0.0911917 0.139992 0.844592
-0.119668 0.139929 0.821339
-0.248564 0.139882 0.747394
-0.215274 0.139819 0.755045
-0.260854 0.139787 0.722334
-0.315285 0.139743 0.685595
-0.286587 0.139679 0.690979
-0.279086 0.139616 0.685776
-0.245087 0.139573 0.693228
-0.241743 0.139541 0.685012
-0.0938553 0.139477 0.750031
-0.217551 0.139436 0.678609
-0.10198 0.139372 0.727489
-0.280545 0.139309 0.629313
-0.192956 0.139277 0.663257
-0.102093 0.139237 0.699094
-0.180959 0.139173 0.650796
-0.124082 0.139109 0.670381
-0.236095 0.139071 0.604755
-0.197331 0.139039 0.614319
-0.12667 0.138975 0.640824
-0.232407 0.138911 0.579142
-0.115518 0.138874 0.627946
-0.208491 0.13881 0.572666
-0.197183 0.138746 0.569538
-0.314195 0.138714 0.501259
-0.179871 0.138679 0.558759
-0.339232 0.138615 0.470324
-0.311874 0.138551 0.475261
-0.0234602 0.138519 0.609722
-0.221969 0.138485 0.500784
-0.230328 0.13842 0.48789
-0.168581 0.138356 0.510061
-0.168933 0.138292 0.501194
-0.281208 0.138291 0.434323
-0.173814 0.138227 0.479345
-0.15125 0.138163 0.481964
-0.153721 0.138098 0.472077
-0.294701 0.138066 0.391904
-0.152421 0.138035 0.453323
-0.194236 0.13797 0.423792
-0.271364 0.137906 0.376616
-0.26535 0.137841 0.371022
0.00734569 0.137809 0.497723
-0.118059 0.137779 0.425283
-0.21371 0.137714 0.368885
-0.241277 0.13765 0.346541
-0.130517 0.137585 0.393372
-0.174697 0.13752 0.362745
0.0121272 0.137524 0.445329
-0.132686 0.137459 0.3644
-0.179982 0.137394 0.332242
-0.147756 0.137329 0.339857
-0.102846 0.137264 0.353826
-0.128831 0.137232 0.331266
-0.181013 0.137166 0.296709
-0.0647691 0.13714 0.345074
-0.290724 0.137075 0.223649
-0.419472 0.137042 0.149734
-0.110031 0.136977 0.296027
-0.108529 0.136911 0.288363
-0.221841 0.136846 0.223303
-0.251229 0.13678 0.200218
-0.347066 0.136748 0.142798
-0.0729945 0.136715 0.270337
-0.105036 0.136657 0.245691
-0.114161 0.136591 0.232776
-0.263504 0.136559 0.148629
-0.19411 0.136493 0.174994
-0.0794015 0.136427 0.224027
-0.136744 0.136362 0.187047
-0.357243 0.136296 0.0684999
-0.246432 0.136263 0.11447
-0.116137 0.136197 0.17134
-0.33563 0.136131 0.0533284
-0.306001 0.136065 0.0598892
-0.115374 0.136032 0.145798
-0.151281 0.135966 0.119611
-0.124897 0.1359 0.124582
-0.0827821 0.135877 0.135924
-0.149312 0.135844 0.0932813
-0.180245 0.135778 0.0696198
-0.162379 0.135711 0.0703697
-0.276861 0.135645 0.0049573
-0.431173 0.135612 -0.0815459
-0.139705 0.135546 0.0560371
-0.220178 0.13548 0.00766114
-0.256699 0.135413 -0.0187273
-0.290033 0.13538 -0.0447108
-0.16732 0.135314 0.00853841
-0.0653416 0.16269 1.84007
-0.172774 0.162313 1.78205
-0.0863016 0.161937 1.82101
-0.058824 0.161718 1.82748
-0.224469 0.161424 1.73887
-0.180955 0.161209 1.75334
-0.123074 0.161071 1.77353
-0.107922 0.160859 1.77381
-0.180966 0.16065 1.72998
-0.0965034 0.160514 1.76346
-0.101361 0.16031 1.75368
-0.198263 0.160177 1.69648
-0.188115 0.160076 1.69216
-0.268143 0.159945 1.6434
-0.244571 0.159815 1.64644
-0.195135 0.159685 1.66241
-0.279931 0.159557 1.61126
-0.0460727 0.159367 1.72069
-0.168269 0.159303 1.64957
-0.162675 0.15921 1.64294
-0.281588 0.159086 1.57471
-0.33344 0.158963 1.54
-0.350311 0.158841 1.52278
-0.210706 0.158721 1.58379
-0.337405 0.158634 1.51095
-0.244885 0.158516 1.54839
-0.23415 0.158451 1.54384
-0.290912 0.158335 1.50665
-0.258295 0.15822 1.51412
-0.361767 0.158139 1.45285
-0.369401 0.158073 1.43917
-0.267582 0.157961 1.48123
-0.135759 0.15785 1.53828
-0.0401517 0.157741 1.57721
-0.295144 0.157676 1.43989
-0.275592 0.1576 1.44008
-0.339311 0.157494 1.39931
-0.118729 0.157389 1.50068
-0.129326 0.157324 1.48562
-0.197508 0.15722 1.44259
-0.240143 0.157155 1.41153
-0.270463 0.157086 1.38671
-0.267741 0.156986 1.37911
-0.238173 0.156888 1.38491
-0.114994 0.156822 1.4368
-0.0877505 0.156756 1.44073
-0.230297 0.15669 1.35978
-0.151999 0.156597 1.38987
-0.267209 0.156504 1.32323
-0.0772138 0.156438 1.40859
-0.331978 0.156372 1.27157
-0.49922 0.156306 1.17833
-0.326124 0.156223 1.25564
-0.187259 0.156135 1.31598
-0.15304 0.156069 1.3235
-0.109489 0.156003 1.3357
-0.147062 0.155936 1.30734
-0.0981488 0.155864 1.32237
-0.320728 0.155798 1.20153
-0.196448 0.155715 1.25452
-0.174017 0.155649 1.25621
-0.240758 0.155582 1.21333
-0.447853 0.155534 1.09984
-0.235338 0.155455 1.19691
-0.311698 0.155388 1.14924
-0.334753 0.155322 1.12824
-0.397408 0.155255 1.08745
-0.358312 0.155188 1.09755
-0.162576 0.155135 1.18565
-0.208972 0.155061 1.1532
-0.281008 0.154994 1.10776
-0.229616 0.154927 1.12405
-0.364169 0.15486 1.04737
0.00750114 0.154818 1.22321
-0.244942 0.154751 1.08761
-0.221675 0.154684 1.08987
-0.309754 0.154616 1.03647
-0.0399729 0.154549 1.16202
-0.0785666 0.154514 1.13259
-0.339736 0.154447 0.992674
-0.207093 0.15438 1.04967
-0.157882 0.154313 1.06496
-0.257909 0.154245 1.00566
-0.223617 0.154214 1.01261
-0.21653 0.154146 1.00687
-0.308233 0.154083 0.951645
-0.244001 0.154015 0.974506
-0.295692 0.153954 0.939256
-0.253624 0.15392 0.950192
-0.021743 0.153852 1.05691
-0.272806 0.153793 0.921949
-0.199862 0.153725 0.949216
-0.330027 0.153667 0.874679
-0.198971 0.153599 0.931023
-0.215006 0.153565 0.912951
-0.211224 0.153509 0.905364
-0.34829 0.153441 0.827676
-0.195232 0.153387 0.894698
-0.265158 0.153319 0.8506
-0.107335 0.153285 0.919493
-0.381042 0.153232 0.773107
-0.277452 0.153164 0.815797
-0.349765 0.153113 0.770077
-0.322068 0.153045 0.77484
-0.153879 0.153011 0.84895
-0.139159 0.152962 0.846722
-0.168188 0.152893 0.823151
-0.294364 0.152825 0.751018
-0.130258 0.152778 0.82346
-0.0734429 0.152743 0.841917
-0.368137 0.152675 0.685553
-0.417981 0.152629 0.650994
-0.247591 0.152561 0.727193
-0.283057 0.152492 0.700475
-0.276424 0.152482 0.693189
-0.207823 0.152414 0.718521
-0.0966778 0.152345 0.765137
-0.292072 0.152303 0.657752
-0.374449 0.152234 0.607627
-0.187337 0.152164 0.692258
-0.152709 0.152159 0.698899
-0.0305595 0.15209 0.751065
-0.275845 0.15202 0.619525
-0.156894 0.151982 0.669259
-0.246749 0.151912 0.615455
-0.323551 0.151878 0.567213
-0.0457758 0.151808 0.697243
-0.169973 0.151771 0.625383
-0.19305 0.151702 0.605007
-0.106484 0.151633 0.639464
-0.142704 0.151632 0.610576
-0.232286 0.151562 0.556975
-0.019901 0.151493 0.654369
-0.252955 0.151423 0.529056
-0.280409 0.151389 0.50552
-0.271605 0.151354 0.500149
-0.182569 0.151285 0.535909
-0.195443 0.151215 0.520724
-0.358675 0.151183 0.429278
-0.186587 0.151113 0.506594
-0.198685 0.151043 0.491829
-0.255723 0.151008 0.45358
-0.257914 0.150977 0.442632
-0.125327 0.150907 0.500237
-0.0528994 0.150837 0.527774
-0.104012 0.150767 0.493552
-0.224194 0.150773 0.42255
-0.0356307 0.150703 0.508182
-0.284332 0.150632 0.375193
-0.227393 0.150562 0.395037
-0.217414 0.150492 0.391411
-0.161253 0.150499 0.408549
-0.175969 0.150429 0.392593
-0.169906 0.150358 0.387037
-0.145821 0.150288 0.390504
-0.0352349 0.150217 0.437233
-0.256304 0.150182 0.317075
-0.323728 0.150156 0.273464
-0.17484 0.150085 0.339372
-0.282167 0.150015 0.277183
-0.301595 0.149944 0.258956
-0.109922 0.149908 0.345204
-0.134642 0.149837 0.324351
-0.0204265 0.149813 0.371551
-0.126651 0.149742 0.309964
-0.155952 0.149706 0.285751
-0.142689 0.149635 0.283929
-0.156019 0.149564 0.268821
-0.247658 0.149493 0.214571
-0.268939 0.149422 0.195512
-0.155713 0.149435 0.241098
-0.203066 0.149363 0.209018
-0.089887 0.149292 0.257215
-0.337453 0.149221 0.125052
-0.324234 0.149149 0.123293
-0.216344 0.149114 0.16775
-0.225186 0.149042 0.15498
-0.353393 0.148971 0.0825396
-0.247956 0.148899 0.126933
-0.134584 0.148864 0.174162
-0.240231 0.148792 0.113034
-0.3733 0.148756 0.0370562
-0.0191001 0.148699 0.205418
-0.0943082 0.148663 0.158383
-0.163371 0.148591 0.115585
-0.00573991 0.148519 0.186146
-0.168798 0.148448 0.096374
-0.0792451 0.148376 0.132919
-0.184259 0.14834 0.0710202
0.013648 0.148268 0.161763
-0.281085 0.148196 0.00619671
-0.232765 0.148124 0.0221688
-0.266842 0.148088 -0.00423057
-0.112442 0.148016 0.0648021
-0.230087 0.147944 -0.00217609
-0.313605 0.147872 -0.0520792
-0.0852291 0.147836 0.0527784
-0.0479999 0.147763 0.063269
-0.0544992 0.17637 1.87809
-0.128102 0.175961 1.8369
-0.0194981 0.175639 1.88534
-0.26643 0.175318 1.75601
-0.172882 0.175084 1.79545
-0.19786 0.174851 1.77561
-0.167177 0.17462 1.7836
-0.265399 0.174393 1.72711
-0.20084 0.174245 1.75059
-0.205683 0.174022 1.74077
-0.163075 0.173953 1.7519
-0.263391 0.173768 1.69369
-0.14438 0.173625 1.7444
-0.11154 0.173483 1.75202
-0.0565325 0.173271 1.77204
-0.0938234 0.173132 1.74458
-0.122977 0.172994 1.72119
-0.335405 0.172892 1.60551
-0.270961 0.172757 1.62891
-0.227607 0.172622 1.64175
-0.413105 0.172489 1.54017
-0.253351 0.172358 1.6112
-0.239767 0.172288 1.60799
-0.152031 0.172158 1.64302
-0.325643 0.172064 1.5467
-0.151725 0.171936 1.6248
-0.40174 0.17181 1.49092
-0.287529 0.171686 1.53914
-0.264311 0.171616 1.54082
-0.339219 0.171528 1.4938
-0.233737 0.171406 1.53764
-0.347814 0.171286 1.47169
-0.242702 0.171168 1.51531
-0.368311 0.171097 1.44265
-0.226514 0.171016 1.50392
-0.270862 0.170901 1.47279
-0.191558 0.170787 1.50347
-0.217861 0.170717 1.4805
-0.274491 0.170605 1.4432
-0.136392 0.170535 1.50246
-0.322602 0.17046 1.39966
-0.319774 0.170352 1.39206
-0.184651 0.170245 1.45059
-0.367069 0.170174 1.34963
-0.315333 0.170104 1.36576
-0.23745 0.170033 1.39498
-0.246686 0.169931 1.38127
-0.322612 0.16983 1.33423
-0.402385 0.169759 1.28465
-0.330351 0.169688 1.31099
-0.154749 0.169617 1.38912
-0.414393 0.169527 1.25003
-0.276378 0.169432 1.3099
-0.104131 0.16936 1.38639
-0.189276 0.169289 1.33419
-0.254312 0.169218 1.29206
-0.240272 0.169139 1.28962
-0.215094 0.16905 1.293
-0.324721 0.168978 1.22861
-0.398856 0.168907 1.18197
-0.0467003 0.168835 1.34848
-0.16441 0.168763 1.28008
-0.140319 0.168697 1.28247
-0.204731 0.168613 1.241
-0.24885 0.168541 1.20942
-0.230472 0.168469 1.2091
-0.250594 0.168397 1.18954
-0.194141 0.168325 1.20828
-0.273257 0.168271 1.15886
-0.300684 0.168193 1.13581
-0.227388 0.168127 1.16287
-0.181818 0.168055 1.17621
-0.265241 0.168008 1.12448
-0.18141 0.167934 1.15702
-0.188688 0.167862 1.14396
-0.130207 0.16779 1.16379
-0.110835 0.167717 1.16408
-0.314927 0.167645 1.05265
-0.210849 0.167609 1.09449
-0.172294 0.167536 1.10441
-0.289973 0.167466 1.03616
-0.329614 0.167393 1.007
-0.133805 0.167357 1.09474
-0.225609 0.167288 1.03941
-0.23258 0.167216 1.02661
-0.365673 0.167149 0.950613
-0.0824061 0.167076 1.08295
-0.255019 0.167012 0.987168
-0.157245 0.166975 1.02593
-0.274576 0.166913 0.957756
-0.174761 0.166839 0.998409
-0.247145 0.166779 0.952679
-0.318952 0.166706 0.907542
-0.126081 0.166632 0.994755
-0.272048 0.16661 0.911344
-0.149893 0.166537 0.963216
-0.248567 0.16648 0.904289
-0.314163 0.166407 0.862306
-0.195194 0.16637 0.911736
-0.228075 0.166315 0.885682
-0.253618 0.166242 0.863755
-0.254064 0.166189 0.853887
-0.150537 0.166115 0.896515
-0.228249 0.166041 0.848535
-0.15188 0.166027 0.876154
-0.039593 0.165954 0.92319
-0.137477 0.165904 0.864547
-0.20262 0.16583 0.822888
-0.253496 0.165757 0.788375
-0.0141748 0.165746 0.897398
-0.0499944 0.165672 0.870429
-0.326018 0.165598 0.72337
-0.233872 0.165553 0.759693
-0.464269 0.165478 0.635467
-0.234228 0.165441 0.740542
-0.197095 0.165398 0.749333
-0.15727 0.165323 0.760245
-0.176475 0.165249 0.741655
-0.359539 0.165207 0.640323
-0.191801 0.165133 0.715223
-0.0934892 0.165095 0.754474
-0.16277 0.165055 0.710006
-0.168867 0.164981 0.698017
-0.12737 0.164906 0.709837
-0.254993 0.164868 0.636173
-0.257307 0.164793 0.626106
-0.178477 0.164756 0.655658
-0.183816 0.164719 0.643108
-0.212492 0.164644 0.619888
-0.173108 0.164569 0.63071
-0.202097 0.164535 0.60631
-0.346671 0.164497 0.524191
-0.312618 0.164422 0.532375
-0.361579 0.164384 0.498076
-0.140298 0.164314 0.599778
-0.0318521 0.164239 0.645189
-0.231393 0.164163 0.536618
-0.160083 0.164169 0.561322
-0.292369 0.164094 0.486395
-0.113022 0.164019 0.567296
-0.0592213 0.163981 0.584425
-0.250495 0.163951 0.478813
-0.240001 0.163876 0.475315
-0.0120296 0.1638 0.580567
-0.199075 0.163762 0.477301
-0.201724 0.163696 0.467003
-0.136439 0.163621 0.490942
-0.156027 0.163583 0.471426
-0.106527 0.163507 0.487493
-0.225463 0.16348 0.41801
-0.183249 0.163404 0.430452
-0.336682 0.163328 0.345083
-0.198205 0.16329 0.404634
-0.114472 0.163252 0.436818
-0.168943 0.163189 0.400602
-0.20706 0.163113 0.37293
-0.170904 0.163037 0.382405
-0.201227 0.162999 0.357591
-0.151849 0.162961 0.372633
-0.239088 0.162899 0.320034
-0.148208 0.162823 0.35691
-0.267553 0.162746 0.288685
-0.144811 0.162708 0.340438
-0.190864 0.162632 0.30888
-0.112009 0.162609 0.338248
-0.163654 0.162533 0.303911
-0.127012 0.162456 0.31373
-0.183471 0.162418 0.275918
-0.0857527 0.162341 0.316295
-0.13365 0.162265 0.283876
-0.155861 0.162244 0.262703
-0.272448 0.162167 0.195958
-0.0740469 0.162129 0.285609
-0.258109 0.162052 0.185146
-0.0870154 0.161975 0.262273
-0.171798 0.161898 0.211473
-0.300922 0.161821 0.138515
-0.124878 0.161782 0.217027
-0.286104 0.161744 0.126909
-0.25625 0.161686 0.132904
-0.098359 0.161609 0.203491
-0.0583594 0.16157 0.214007
-0.0108849 0.161493 0.229406
-0.191244 0.161416 0.1309
-0.170636 0.161338 0.132889
-0.227372 0.161261 0.0962181
-0.303302 0.161222 0.0488085
-0.231883 0.161145 0.076235
-0.163686 0.161067 0.102062
-0.19578 0.160989 0.0777553
-0.133219 0.160951 0.0996218
-0.150675 0.160873 0.082654
-0.10284 0.160795 0.0983436
-0.257305 0.160717 0.0128951
-0.15753 0.16064 0.0545784
-0.0795659 0.160601 0.0841854
-0.157171 0.160523 0.0371984
-0.235308 0.160445 -0.0100427
-0.288122 0.160367 -0.0446108
-0.232138 0.160328 -0.0259631
-0.270669 0.16025 -0.0533693
0.00896316 0.190469 1.93601
-0.115423 0.189718 1.87434
0.0429797 0.18928 1.94908
0.115944 0.189026 1.97815
-0.194398 0.188774 1.81557
-0.101011 0.188523 1.85486
-0.0337966 0.188275 1.88105
-0.313055 0.18803 1.73398
-0.201101 0.187909 1.7805
-0.129414 0.187751 1.80751
-0.224789 0.187512 1.75235
-0.208549 0.187358 1.75163
-0.173319 0.187204 1.7604
-0.175069 0.186973 1.75199
-0.268296 0.186823 1.69653
-0.297053 0.186673 1.67329
-0.159001 0.186562 1.73282
-0.237808 0.186415 1.68456
-0.193036 0.18627 1.69807
-0.339433 0.186125 1.616
-0.253274 0.185982 1.6502
-0.143203 0.185841 1.69635
-0.295189 0.185738 1.61081
-0.377029 0.185599 1.56098
-0.248585 0.185462 1.61629
-0.233024 0.185327 1.61514
-0.319717 0.185252 1.56181
-0.187705 0.185118 1.61889
-0.166509 0.185023 1.61988
-0.13036 0.184892 1.62901
-0.314505 0.184763 1.52796
-0.206233 0.184688 1.57218
-0.395794 0.184561 1.46843
-0.14571 0.184473 1.5838
-0.00445048 0.184349 1.64543
-0.29283 0.184274 1.49136
-0.0559764 0.184152 1.60078
-0.100758 0.184031 1.56936
-0.207215 0.183956 1.50629
-0.271813 0.183875 1.46425
-0.278648 0.183759 1.45178
-0.405652 0.183644 1.37919
-0.321612 0.183569 1.41142
-0.172377 0.183493 1.47625
-0.0118349 0.183417 1.54676
-0.193978 0.183307 1.44656
-0.373029 0.183199 1.3479
-0.192901 0.183123 1.42823
-0.25759 0.183047 1.38616
-0.0101382 0.182949 1.50058
-0.197437 0.182873 1.39722
-0.331175 0.18277 1.32117
-0.269097 0.182694 1.34252
-0.409546 0.182618 1.26263
-0.277388 0.182533 1.31921
-0.32263 0.182456 1.28694
-0.356155 0.18236 1.26093
-0.196595 0.182283 1.33108
-0.252015 0.182207 1.29375
-0.18525 0.18213 1.31752
-0.132429 0.182058 1.33424
-0.142602 0.181968 1.31984
-0.258226 0.181891 1.25245
-0.166453 0.181814 1.28877
-0.224801 0.181737 1.25004
-0.217511 0.18166 1.24414
-0.235118 0.181601 1.22544
-0.288102 0.181517 1.18957
-0.184097 0.18144 1.23205
-0.265049 0.181363 1.18207
-0.357376 0.181286 1.12642
-0.307641 0.181208 1.1418
-0.198113 0.181162 1.18645
-0.320791 0.181084 1.11566
-0.379705 0.181007 1.07675
-0.148004 0.18093 1.18315
-0.131751 0.180891 1.18104
-0.205409 0.180813 1.13479
-0.335968 0.180737 1.06006
-0.167849 0.18066 1.13472
-0.17311 0.180586 1.12261
-0.0967797 0.180508 1.15139
-0.176234 0.180476 1.10134
-0.4414 0.180398 0.959391
-0.276503 0.180328 1.0323
-0.220499 0.18025 1.05096
-0.328831 0.180183 0.987237
-0.334764 0.180144 0.974111
-0.138929 0.180066 1.06272
-0.123429 0.180001 1.06088
-0.18814 0.179922 1.01923
-0.159551 0.179859 1.02392
-0.244616 0.179781 0.972114
-0.166964 0.179759 1.00045
-0.243976 0.17968 0.952684
-0.275859 0.179621 0.927071
-0.206756 0.179543 0.952388
-0.266156 0.179464 0.913464
-0.142879 0.179446 0.964541
-0.328422 0.179368 0.862563
-0.27325 0.179313 0.880424
-0.0959748 0.179234 0.959876
-0.0800989 0.179181 0.958058
-0.195219 0.179142 0.890448
-0.188211 0.179063 0.884794
-0.303208 0.179012 0.817515
-0.165753 0.178933 0.877104
-0.179096 0.178884 0.860622
-0.256607 0.178804 0.812748
-0.139026 0.178765 0.861529
-0.230424 0.178718 0.805994
-0.017341 0.178638 0.903445
-0.301513 0.178559 0.75228
-0.221774 0.178514 0.78229
-0.198097 0.178434 0.785069
-0.258806 0.178395 0.744747
-0.102116 0.178352 0.813205
-0.214496 0.178272 0.747984
-0.284186 0.178231 0.703221
-0.204162 0.178151 0.734221
-0.429509 0.178071 0.612547
-0.316354 0.178072 0.658245
-0.220029 0.177992 0.697422
-0.149034 0.177912 0.723947
-0.25284 0.177874 0.662076
-0.301252 0.177794 0.628916
-0.136501 0.177754 0.701395
-0.280475 0.177718 0.619413
-0.144283 0.177638 0.678582
-0.339634 0.177558 0.571992
-0.118576 0.177524 0.672501
-0.156557 0.177484 0.643646
-0.11301 0.177403 0.656532
-0.16124 0.177371 0.62237
-0.190207 0.177291 0.599018
0.0242784 0.17721 0.697404
-0.252425 0.17718 0.548981
-0.128133 0.17714 0.601301
-0.126305 0.177059 0.593386
-0.100851 0.177018 0.596301
-0.146992 0.176949 0.564133
-0.160581 0.176868 0.548539
