ply
format ascii 1.0
comment Created by Open3D
element vertex 1682
property double x
property double y
property double z
end_header
0.339292 -0.804093 0.77315
0.274546 -0.805178 1.19654
0.218788 -0.801727 1.17394
0.302003 -0.799651 1.21416
0.23256 -0.797961 1.1762
0.156743 -0.796231 1.13531
0.2218 -0.794736 1.16373
0.121779 -0.793695 1.1074
0.218309 -0.792594 1.14967
0.0495866 -0.791608 1.05877
0.0993158 -0.790341 1.07855
0.114137 -0.789516 1.07867
0.196375 -0.788922 1.11136
0.122926 -0.788141 1.06717
0.119109 -0.787384 1.05769
0.102153 -0.786652 1.04154
0.0606352 -0.785948 1.013
0.136444 -0.785271 1.04299
0.166823 -0.784622 1.05014
0.177847 -0.784206 1.04644
0.113488 -0.783618 1.00594
0.0935476 -0.783259 0.986484
0.1148 -0.782894 0.98767
0.0622762 -0.782385 0.952721
0.0519872 -0.782106 0.93771
0.0424001 -0.781664 0.923908
0.0617839 -0.781448 0.923414
0.100587 -0.781162 0.93301
0.155884 -0.780996 0.950223
0.111487 -0.780675 0.918415
0.110992 -0.780577 0.907387
0.0872814 -0.780511 0.88458
0.0742429 -0.780478 0.866933
0.165684 -0.780298 0.902319
0.0943646 -0.780311 0.855288
0.0814583 -0.780363 0.837258
0.098922 -0.780448 0.834234
0.145546 -0.780565 0.84561
0.137436 -0.780714 0.82944
0.236392 -0.78117 0.865134
0.20462 -0.781398 0.836693
0.0676658 -0.781964 0.753802
0.221206 -0.782267 0.817585
0.278899 -0.78294 0.831401
0.273737 -0.783878 0.812308
0.134911 -0.785077 0.724915
0.376055 -0.786368 0.826958
0.33108 -0.788906 0.77897
0.221995 -0.79168 1.16952
0.338058 -0.788079 1.23387
0.214524 -0.785826 1.17178
0.161406 -0.78395 1.14307
0.206712 -0.782452 1.16172
0.192395 -0.781188 1.14942
0.147291 -0.779736 1.12272
0.247297 -0.778857 1.16571
0.100156 -0.777673 1.0867
0.109134 -0.776834 1.08402
0.151076 -0.775926 1.0982
0.135658 -0.775138 1.08312
0.0984464 -0.774165 1.05811
0.10437 -0.773423 1.0535
0.0968321 -0.772912 1.04099
0.0977699 -0.772221 1.03367
0.120095 -0.77176 1.03586
0.0897463 -0.771124 1.01265
0.121295 -0.770516 1.02025
0.0148071 -0.769926 0.958757
0.0139777 -0.769566 0.948903
0.116526 -0.769037 0.991635
0.117768 -0.768687 0.982786
0.156146 -0.768403 0.992163
0.119276 -0.767956 0.964792
0.0150941 -0.767735 0.902574
0.183348 -0.767355 0.977429
0.126728 -0.767198 0.93866
0.14698 -0.766944 0.938854
0.0855238 -0.766837 0.897409
0.107359 -0.766762 0.897438
0.082176 -0.766537 0.874776
0.00559778 -0.766528 0.825243
0.264819 -0.766536 0.94352
0.163893 -0.766576 0.881547
0.170938 -0.766648 0.873382
0.185962 -0.766752 0.869026
0.159061 -0.766889 0.84353
0.154945 -0.767152 0.828716
0.140094 -0.767367 0.808799
0.175221 -0.767912 0.812022
0.240889 -0.768201 0.831933
0.217784 -0.768852 0.805424
0.227721 -0.769758 0.79398
0.341807 -0.770545 0.835258
0.204809 -0.771781 0.748436
0.31135 -0.773796 0.778941
0.327213 -0.778314 1.2207
0.320083 -0.774427 1.22521
0.254598 -0.772212 1.19215
0.195191 -0.770364 1.16032
0.143645 -0.768751 1.13127
0.15865 -0.767509 1.13363
0.167323 -0.766204 1.1332
0.146093 -0.765009 1.11727
0.179078 -0.764161 1.1267
0.0693808 -0.763025 1.0663
0.0496313 -0.762014 1.05027
0.165834 -0.761232 1.10104
0.136106 -0.760471 1.07876
0.161701 -0.759734 1.08403
0.119626 -0.759225 1.05429
0.134396 -0.758537 1.05394
0.0831113 -0.757875 1.02044
0.0567714 -0.757241 0.999286
0.135465 -0.756834 1.02945
0.130945 -0.756443 1.01794
0.10602 -0.755882 0.997155
0.0651074 -0.755351 0.968224
0.141582 -0.754852 0.997833
0.125258 -0.754579 0.979836
0.0921401 -0.754261 0.953694
0.169576 -0.754034 0.982342
0.102191 -0.753648 0.939452
0.0935604 -0.753484 0.924738
0.0760158 -0.753165 0.906422
0.0985223 -0.753111 0.906682
0.0426658 -0.752844 0.868942
0.0995183 -0.752793 0.886364
0.115222 -0.752774 0.883037
0.134505 -0.752609 0.882318
0.128901 -0.752628 0.868129
0.124423 -0.75269 0.854262
0.112775 -0.752784 0.836632
0.167498 -0.752908 0.852008
0.1656 -0.753154 0.838391
0.188273 -0.753356 0.837299
0.146659 -0.753881 0.802223
0.17853 -0.754156 0.805299
0.221507 -0.754785 0.811904
0.227523 -0.755472 0.799676
0.303318 -0.756423 0.820803
0.206618 -0.757626 0.754211
0.241798 -0.759173 0.751539
0.368001 -0.763374 0.77902
0.243054 -0.764793 1.17792
0.26934 -0.760772 1.20019
0.229685 -0.758456 1.18078
0.306174 -0.75664 1.2169
0.174504 -0.754978 1.14819
0.208861 -0.753754 1.16026
0.124697 -0.752553 1.11298
0.199421 -0.751281 1.14555
0.237498 -0.750341 1.15809
0.149167 -0.749318 1.10789
0.143262 -0.748522 1.09774
0.139381 -0.747745 1.08851
0.0438076 -0.746926 1.03369
0.0857956 -0.746203 1.04717
0.169633 -0.745545 1.08123
0.0930492 -0.74486 1.03526
0.0111646 -0.7442 0.986513
0.0646124 -0.743567 1.00531
0.114016 -0.742962 1.02196
0.112245 -0.742583 1.0118
0.044797 -0.742207 0.9688
0.0917737 -0.741675 0.983881
0.107316 -0.741368 0.982025
0.0623242 -0.740896 0.950815
0.150758 -0.740577 0.985495
0.0468863 -0.740345 0.923545
0.0309685 -0.739954 0.906463
0.0466962 -0.739783 0.903987
-0.0431703 -0.739458 0.849586
0.145741 -0.73935 0.933363
0.0639989 -0.739125 0.882479
0.0746196 -0.739065 0.876848
0.0524626 -0.738857 0.855672
0.106706 -0.738855 0.871531
0.103094 -0.738875 0.858341
0.138038 -0.738926 0.864251
0.190078 -0.739007 0.878532
0.200071 -0.73912 0.871611
0.162528 -0.739346 0.840269
0.164702 -0.739534 0.828995
0.138571 -0.739751 0.803392
0.141733 -0.740132 0.791485
0.132664 -0.74074 0.772139
0.189201 -0.741404 0.785243
0.19626 -0.741967 0.774182
0.235209 -0.743117 0.775621
0.295134 -0.744597 0.785572
0.307061 -0.747056 0.765737
0.308639 -0.747323 1.21913
0.295465 -0.744768 1.21442
0.23831 -0.742979 1.18376
0.163182 -0.741416 1.14296
0.158458 -0.74 1.13662
0.090108 -0.738816 1.09728
0.155514 -0.737764 1.12414
0.0903838 -0.736629 1.08622
0.160404 -0.735822 1.11414
0.0989138 -0.734952 1.07667
0.151365 -0.733986 1.09671
0.122794 -0.733245 1.07505
0.161278 -0.732526 1.08682
0.120197 -0.731831 1.05871
0.0872572 -0.73116 1.03455
0.112991 -0.730713 1.03852
0.159546 -0.730092 1.05386
0.133195 -0.729496 1.03264
0.0626911 -0.728919 0.989263
0.103265 -0.72837 1.00128
0.0546622 -0.728045 0.967476
0.0968037 -0.7277 0.979169
0.122325 -0.727226 0.983284
0.051161 -0.726783 0.938896
0.0344109 -0.726561 0.920484
0.0625143 -0.726273 0.924879
0.0886522 -0.726096 0.927667
0.0278608 -0.725765 0.887878
0.121446 -0.725466 0.925099
0.135099 -0.725383 0.921133
0.0358185 -0.72533 0.860528
0.0976171 -0.725136 0.881278
0.148992 -0.725129 0.89574
0.0419989 -0.724979 0.831848
0.156849 -0.725004 0.877869
0.16101 -0.725076 0.868269
0.0950412 -0.725178 0.823427
0.0925166 -0.72531 0.810129
0.136294 -0.725563 0.819267
0.134738 -0.725769 0.806012
0.160561 -0.726003 0.806272
0.128509 -0.726569 0.775626
0.188626 -0.727033 0.791657
0.0998428 -0.727714 0.73193
0.186736 -0.728653 0.758487
0.222461 -0.729836 0.757976
0.251693 -0.731759 0.749756
0.291901 -0.733995 1.20937
0.182311 -0.731357 1.15715
0.109845 -0.72939 1.11996
0.179472 -0.727645 1.15267
0.0617733 -0.726457 1.08876
0.145729 -0.725082 1.12673
0.105302 -0.724145 1.10015
0.119905 -0.72292 1.10271
0.164632 -0.722122 1.11801
0.12708 -0.721263 1.09254
0.139302 -0.720305 1.09253
0.148452 -0.71957 1.08978
0.154857 -0.718857 1.08556
0.0773753 -0.718166 1.03929
0.13238 -0.717498 1.05916
0.101167 -0.716855 1.03581
0.0740404 -0.716435 1.01326
0.0254315 -0.715841 0.98097
0.0962484 -0.715264 1.00831
0.0688777 -0.714716 0.986415
0.141146 -0.714389 1.0131
0.125682 -0.714043 0.996033
0.134949 -0.713567 0.992089
0.054076 -0.713122 0.942915
0.0940183 -0.712895 0.952904
0.0793687 -0.712605 0.93597
0.013225 -0.712423 0.892675
0.0936961 -0.712086 0.923592
0.0339849 -0.711781 0.88424
0.060935 -0.711691 0.886983
0.129091 -0.711476 0.911055
0.0715138 -0.711431 0.871271
-0.013516 -0.711239 0.818628
0.0569184 -0.711244 0.842566
0.10155 -0.711275 0.853443
0.13673 -0.711337 0.859418
0.0521781 -0.711256 0.806369
0.0762106 -0.711377 0.806409
0.192633 -0.711528 0.852467
0.149607 -0.711808 0.818024
0.213174 -0.712029 0.837216
0.0748878 -0.712576 0.753522
0.173335 -0.713019 0.788803
0.118804 -0.713347 0.748275
0.181455 -0.71439 0.761993
0.272332 -0.715366 0.790202
0.177301 -0.716817 0.722527
0.339188 -0.71992 0.773184
0.230053 -0.720526 1.17777
0.159607 -0.717735 1.14623
0.203748 -0.7158 1.16736
0.146194 -0.714083 1.13651
0.255498 -0.7128 1.18675
0.203429 -0.711557 1.15612
0.133457 -0.710429 1.11593
0.182293 -0.709421 1.13452
0.126043 -0.708548 1.09985
0.0968021 -0.707579 1.07924
0.11693 -0.706629 1.08324
0.119976 -0.705902 1.07748
0.0946014 -0.705194 1.05742
0.0848324 -0.704508 1.04506
0.0807837 -0.703845 1.03545
0.0692562 -0.703205 1.02199
0.0158849 -0.702787 0.986365
0.0446788 -0.702196 0.99282
0.0253655 -0.701814 0.974044
0.143341 -0.701265 1.02489
0.0875659 -0.700744 0.988714
0.0433833 -0.700398 0.957333
0.0674446 -0.70011 0.959747
0.100499 -0.699661 0.96761
0.0644185 -0.699242 0.940743
0.079486 -0.698951 0.938714
0.000701111 -0.698764 0.889155
0.0458835 -0.698422 0.9025
0.0537535 -0.698112 0.897013
0.154201 -0.698014 0.936565
0.105243 -0.697796 0.902129
0.131964 -0.697743 0.904557
0.0704651 -0.697543 0.863757
0.0808617 -0.697543 0.857712
0.0348252 -0.697413 0.82423
0.0918774 -0.697443 0.841334
0.0550915 -0.697525 0.811207
0.142185 -0.697635 0.842843
0.136801 -0.697606 0.829084
0.0694123 -0.697774 0.783119
0.0922081 -0.698078 0.781409
0.102894 -0.698478 0.773052
0.050157 -0.698881 0.732946
0.17218 -0.699343 0.77985
0.158146 -0.700017 0.757398
0.232496 -0.700942 0.777563
0.265918 -0.702104 0.775768
0.218274 -0.703984 0.728927
0.300893 -0.707167 1.21187
0.30737 -0.704314 1.21943
0.191296 -0.702209 1.16161
0.183942 -0.700521 1.15589
0.0996253 -0.699166 1.10986
0.243868 -0.698032 1.1769
0.106403 -0.69692 1.103
-0.0120309 -0.695835 1.0385
0.131914 -0.69486 1.1046
0.090415 -0.693902 1.07792
0.107286 -0.693162 1.07919
0.110553 -0.69244 1.07359
0.109017 -0.691738 1.06549
0.0657384 -0.691057 1.03643
0.0812329 -0.690397 1.03665
0.187756 -0.68976 1.08227
0.106768 -0.689148 1.03402
0.0274421 -0.68856 0.986469
0.0802084 -0.688179 1.00377
0.0101994 -0.687631 0.960686
0.0563319 -0.68711 0.975528
0.00597589 -0.686806 0.940859
0.00435846 -0.686475 0.930729
0.0811073 -0.686024 0.960506
0.109507 -0.685603 0.965947
0.0227374 -0.685396 0.912536
0.0901913 -0.685119 0.936662
0.031253 -0.684773 0.898019
0.0310344 -0.684458 0.888561
0.0390346 -0.684353 0.881949
0.0552683 -0.684133 0.880158
0.125324 -0.684072 0.904314
0.092729 -0.683865 0.878042
0.118531 -0.683689 0.880783
0.0658829 -0.6837 0.843161
0.0621451 -0.683742 0.829799
0.106916 -0.683643 0.841562
0.0899466 -0.683743 0.821224
0.13962 -0.683872 0.834031
0.108116 -0.684028 0.806074
0.0071726 -0.684212 0.743222
0.204504 -0.684537 0.828614
0.169426 -0.684787 0.798263
0.165526 -0.68521 0.782407
0.13085 -0.685845 0.749815
0.233543 -0.686376 0.786544
0.196812 -0.687677 0.748676
0.224664 -0.689097 0.742296
0.329363 -0.691706 0.766739
0.278082 -0.693987 1.19808
0.174885 -0.691002 1.15186
0.175012 -0.688819 1.15282
0.217696 -0.68716 1.17213
0.182627 -0.685624 1.15191
0.153764 -0.684509 1.13242
0.128855 -0.683212 1.11599
0.0633951 -0.682342 1.07686
0.0973975 -0.681378 1.08804
0.0887235 -0.68043 1.07781
0.101272 -0.679697 1.07697
0.0194048 -0.678928 1.02916
0.094231 -0.67824 1.05925
0.0878172 -0.677573 1.04861
0.0384508 -0.676927 1.0164
0.093826 -0.676127 1.03749
0.0690099 -0.675518 1.01738
0.0271573 -0.675126 0.987476
0.0421766 -0.674565 0.987032
0.102499 -0.674199 1.00809
0.072332 -0.673677 0.984846
0.0851788 -0.673183 0.982965
0.0287301 -0.672852 0.945463
0.0789495 -0.672401 0.962041
0.132534 -0.671977 0.980143
-0.0448313 -0.671767 0.881488
0.160175 -0.671489 0.974437
0.0214038 -0.671139 0.895948
0.0575639 -0.670819 0.904751
0.103403 -0.670708 0.917118
0.0487771 -0.670486 0.879945
0.133289 -0.670242 0.912481
0.0872556 -0.670204 0.878474
-0.00477704 -0.67002 0.822374
0.0535058 -0.670026 0.840254
0.0991731 -0.669889 0.852726
0.0442824 -0.669916 0.813885
0.0627183 -0.670041 0.811096
0.0276454 -0.669929 0.78304
0.111983 -0.670138 0.812664
0.0731568 -0.670311 0.780928
0.100463 -0.67051 0.782084
0.0736417 -0.670858 0.755224
0.113885 -0.671121 0.762422
0.159963 -0.671562 0.771389
0.0793623 -0.672211 0.715665
0.132183 -0.6731 0.725084
0.292946 -0.674069 0.787921
0.163937 -0.675497 0.702873
0.18121 -0.677673 1.15375
0.16736 -0.675333 1.14888
0.106495 -0.673595 1.11706
0.153256 -0.672284 1.13662
0.154009 -0.670986 1.13314
0.0837587 -0.669708 1.09408
0.130277 -0.668851 1.11097
0.152154 -0.667899 1.11612
0.132935 -0.666961 1.10067
0.0515261 -0.666175 1.05326
0.0595258 -0.665475 1.05006
0.0675255 -0.664599 1.04794
0.111385 -0.663938 1.0625
0.154676 -0.663298 1.07666
0.183054 -0.662697 1.08315
0.0975163 -0.662091 1.03273
-0.00795377 -0.661508 0.972229
0.0107156 -0.661131 0.972562
0.119903 -0.660586 1.0192
0.058192 -0.660066 0.980243
0.0563051 -0.659572 0.971057
0.105673 -0.65929 0.986208
0.0583293 -0.658975 0.953225
0.0605182 -0.658549 0.945701
0.0596714 -0.658152 0.936496
0.0689023 -0.657873 0.931603
0.000803417 -0.65752 0.888521
0.129389 -0.657196 0.943608
0.0526565 -0.65708 0.894747
0.0409707 -0.656855 0.879092
0.029699 -0.656606 0.863809
0.0707874 -0.65656 0.873425
0.0656714 -0.656375 0.860826
0.0524138 -0.65637 0.843014
0.13497 -0.65621 0.874099
0.0761039 -0.656249 0.833202
0.0566814 -0.656148 0.812927
0.112652 -0.656243 0.82909
0.107927 -0.656272 0.81533
0.0973662 -0.65635 0.798331
0.12939 -0.656525 0.801989
0.0153135 -0.656837 0.731705
0.103598 -0.657076 0.763064
0.183649 -0.65748 0.789216
0.146791 -0.657938 0.75655
0.0901775 -0.658599 0.712653
0.240421 -0.659501 0.770574
0.187158 -0.660479 0.726203
0.279273 -0.66293 0.744727
0.277119 -0.664524 1.19931
0.247601 -0.661932 1.18837
0.166761 -0.660331 1.14596
0.247824 -0.658741 1.18448
0.0632098 -0.657465 1.08835
0.185371 -0.656403 1.14435
0.265618 -0.655248 1.18
0.152709 -0.654226 1.1183
0.0858152 -0.653496 1.07788
0.0743017 -0.652585 1.06627
0.0355422 -0.651834 1.0401
0.069491 -0.651159 1.04983
0.090669 -0.650504 1.05309
0.145807 -0.649868 1.07323
0.150492 -0.649254 1.06804
0.00378858 -0.64848 0.988151
0.137545 -0.647902 1.04731
0.0507322 -0.647534 0.994899
-0.0458007 -0.647172 0.937607
0.103009 -0.646652 1.00398
0.0343138 -0.646159 0.961454
0.102078 -0.645691 0.987013
0.0185885 -0.645376 0.936
0.0754918 -0.64495 0.955898
0.0473559 -0.644551 0.933116
0.0126417 -0.644272 0.906295
0.0349712 -0.643916 0.908496
0.108574 -0.643767 0.93503
0.00613302 -0.643525 0.874134
0.030484 -0.643241 0.876915
0.0738495 -0.642987 0.889024
0.0451321 -0.642934 0.863797
0.0174397 -0.642747 0.839958
0.0341354 -0.642566 0.838277
0.0822855 -0.642571 0.851115
0.00358564 -0.642433 0.801459
0.0455441 -0.642492 0.810854
0.0128401 -0.642412 0.783825
0.127348 -0.642525 0.829137
-0.00737245 -0.642581 0.750204
0.103148 -0.642667 0.793691
0.0735793 -0.642857 0.766435
0.0850917 -0.643073 0.759548
0.0701436 -0.643441 0.7384
0.192611 -0.643863 0.785591
0.10594 -0.644487 0.72684
0.167551 -0.645007 0.742909
0.101221 -0.64592 0.692339
0.23839 -0.647272 0.74052
0.239736 -0.651641 1.1765
0.219009 -0.648524 1.17346
0.206533 -0.64676 1.16642
0.189545 -0.645295 1.15536
0.173647 -0.643945 1.14419
0.129163 -0.6429 1.1169
0.150535 -0.641761 1.12316
0.140776 -0.640948 1.11188
0.0776208 -0.639841 1.07575
0.0985879 -0.639135 1.07923
0.0606324 -0.638392 1.05351
0.0349007 -0.637725 1.03345
0.108059 -0.637075 1.06275
0.0607862 -0.636284 1.03274
0.0376927 -0.635666 1.01376
0.0335057 -0.635069 1.00413
0.0247395 -0.634494 0.992088
0.0655651 -0.634121 1.00358
0.0501401 -0.63358 0.988021
0.0529431 -0.633064 0.981447
-0.0300151 -0.632572 0.931852
0.0198497 -0.632244 0.947632
0.0649983 -0.631791 0.961872
-0.0358252 -0.631365 0.902971
-0.0144302 -0.631144 0.903863
0.0768117 -0.630864 0.940064
0.062648 -0.630505 0.924093
-0.0628164 -0.630174 0.852301
0.0310899 -0.629932 0.889625
0.0431222 -0.629645 0.886318
0.00844426 -0.629558 0.858345
0.025718 -0.629353 0.85713
0.0417277 -0.629137 0.855364
0.137964 -0.628949 0.893527
0.0217192 -0.628951 0.824203
0.00665656 -0.628791 0.806541
0.00508601 -0.628828 0.79432
0.113612 -0.628726 0.838074
0.00695066 -0.628708 0.773674
0.173236 -0.628769 0.845212
0.0704038 -0.628911 0.781646
0.115741 -0.62892 0.793064
0.140336 -0.629218 0.792141
0.0863324 -0.629446 0.752382
0.0743423 -0.629833 0.732541
0.115618 -0.630119 0.740008
0.131778 -0.630589 0.733642
0.149099 -0.631437 0.725239
0.198572 -0.632359 0.732371
0.227873 -0.634311 0.722251
0.218088 -0.638715 1.16167
0.317012 -0.635495 1.21948
0.222709 -0.633383 1.17391
0.175088 -0.631944 1.14755
0.229221 -0.630618 1.17142
0.150386 -0.629399 1.12819
0.0834162 -0.628277 1.09032
0.116673 -0.627477 1.10057
0.0869235 -0.626576 1.07999
0.119935 -0.625688 1.09074
0.0911569 -0.624954 1.06965
0.140498 -0.624295 1.08717
0.0119493 -0.623465 1.01686
0.125268 -0.622841 1.06618
0.0121062 -0.622237 1.00216
0.0810414 -0.621664 1.02902
0.0596551 -0.621093 1.01072
0.0148955 -0.620543 0.980622
0.104125 -0.620185 1.01629
-0.0411844 -0.61967 0.935719
0.013279 -0.619179 0.954899
0.0245978 -0.618713 0.952363
0.0399975 -0.6184 0.950879
0.0291628 -0.617972 0.937041
0.0744315 -0.617679 0.95038
0.0246682 -0.617292 0.916841
0.0263036 -0.616932 0.908837
0.0680852 -0.616674 0.92023
0.0278222 -0.616356 0.891021
0.0241243 -0.616236 0.878767
0.00662228 -0.615972 0.860592
0.0690914 -0.615766 0.882022
0.0577306 -0.615545 0.866643
0.0536358 -0.615361 0.854654
0.0903743 -0.615349 0.861916
0.0411916 -0.615188 0.827242
0.00917334 -0.615076 0.800813
0.027569 -0.615107 0.798621
0.0219658 -0.615026 0.785196
0.0411473 -0.615132 0.782873
0.0282494 -0.615036 0.765909
0.0882197 -0.615262 0.783145
0.0829347 -0.615288 0.769142
-0.0103323 -0.615494 0.709888
0.0993777 -0.615724 0.751954
0.116801 -0.61611 0.746768
0.129163 -0.616546 0.738692
0.0545069 -0.617029 0.68676
0.164986 -0.617888 0.724727
0.160967 -0.619166 0.702449
0.21273 -0.62114 0.703078
0.185688 -0.622345 1.15147
0.0822441 -0.620092 1.1025
0.173044 -0.618589 1.14595
0.197871 -0.617184 1.15585
0.179207 -0.615982 1.14276
0.130574 -0.614985 1.11341
0.153532 -0.614009 1.11976
0.161491 -0.613121 1.11808
0.109835 -0.612245 1.08654
0.0196261 -0.611384 1.03566
0.0706211 -0.610726 1.05409
0.117346 -0.610049 1.07054
0.0549168 -0.609432 1.03204
0.0552657 -0.608834 1.02483
-0.0238953 -0.608083 0.978891
-0.0196982 -0.6077 0.972228
-0.0148516 -0.60715 0.967009
0.0502711 -0.606616 0.991842
0.0408563 -0.606105 0.979277
0.0658052 -0.605768 0.982749
0.104515 -0.605292 0.994042
0.116561 -0.604841 0.991859
0.0969356 -0.604536 0.972869
-0.0192132 -0.604123 0.906362
0.0695986 -0.603735 0.942175
0.0420556 -0.603547 0.91847
-0.0221715 -0.603116 0.878081
-0.0128668 -0.602796 0.873725
0.0496337 -0.602672 0.894626
0.08263 -0.60245 0.901456
0.0276619 -0.602197 0.864527
0.0541776 -0.601997 0.867983
0.0566466 -0.601786 0.859498
0.088208 -0.601603 0.865375
-0.0221335 -0.601604 0.799026
0.00498861 -0.601461 0.802407
0.0840788 -0.601347 0.831585
0.0578745 -0.60138 0.807081
0.00844357 -0.601306 0.771719
0.0406428 -0.601417 0.77587
0.0295439 -0.601395 0.759303
0.0883531 -0.601555 0.776405
0.0869681 -0.601685 0.763611
0.0874643 -0.601792 0.751924
0.0445617 -0.602145 0.71677
0.0903489 -0.602548 0.725597
0.156139 -0.602842 0.745185
0.107362 -0.603322 0.706145
0.162985 -0.604171 0.716613
0.260084 -0.605641 0.743298
0.145384 -0.608219 0.655975
0.285846 -0.609443 1.19748
0.12583 -0.607062 1.12136
0.174163 -0.605315 1.14538
0.172171 -0.603851 1.14246
0.188498 -0.60267 1.14689
0.149787 -0.601504 1.12375
0.12336 -0.600545 1.10544
0.0673956 -0.599669 1.07184
0.101213 -0.598806 1.08308
0.0562467 -0.598143 1.05364
-0.0125003 -0.597308 1.01347
0.0737987 -0.596639 1.04975
0.0469741 -0.595874 1.03014
0.0215045 -0.595275 1.01012
-0.00134795 -0.594694 0.991304
0.0503095 -0.594314 1.00841
-0.026402 -0.59377 0.962463
0.0097981 -0.59324 0.972892
0.0767812 -0.592732 0.998585
0.0410561 -0.592246 0.972791
-0.0393614 -0.591923 0.923551
0.0610868 -0.591472 0.965633
0.125158 -0.591046 0.989379
0.0688182 -0.590755 0.951998
0.0205989 -0.590366 0.919366
0.0759276 -0.590096 0.937704
0.0212495 -0.589746 0.901598
0.0126022 -0.589422 0.888339
0.000865945 -0.589186 0.872936
-0.00834905 -0.588903 0.859132
-0.00297757 -0.588688 0.852153
0.0932077 -0.588446 0.89078
0.121135 -0.58823 0.895096
0.060088 -0.588205 0.853584
0.0256658 -0.58804 0.826385
-0.0656992 -0.587881 0.770668
0.0379391 -0.58777 0.812119
0.0470989 -0.587799 0.805333
0.0686644 -0.587676 0.805842
0.0572086 -0.587663 0.789052
0.120602 -0.587723 0.809157
-0.0252466 -0.587707 0.725191
0.0886444 -0.587869 0.769799
0.0576925 -0.588005 0.742177
0.126073 -0.588224 0.763599
0.0432575 -0.588465 0.709257
0.0829401 -0.588866 0.71498
0.110902 -0.589313 0.714492
0.180049 -0.589803 0.734259
0.202608 -0.59066 0.727992
0.178697 -0.592133 0.693891
0.235291 -0.597198 1.16361
0.159604 -0.593922 1.13592
0.269415 -0.592031 1.1919
0.125801 -0.590594 1.11819
0.255487 -0.589432 1.17935
0.115762 -0.588282 1.10577
0.111248 -0.587334 1.09848
0.0376246 -0.586283 1.05736
0.189202 -0.585555 1.1267
-0.0198256 -0.584718 1.0165
0.0971113 -0.583895 1.06923
0.113638 -0.58327 1.07042
0.00499602 -0.582661 1.00896
0.0106522 -0.582068 1.00455
0.139768 -0.581492 1.06177
0.100274 -0.580935 1.03458
0.0428903 -0.580397 0.998339
-0.0096372 -0.579694 0.965694
0.0517185 -0.579367 0.987399
-0.0251053 -0.578859 0.94129
0.139322 -0.578388 1.01556
0.0397696 -0.578114 0.956484
0.0305391 -0.577638 0.943994
0.0171636 -0.577226 0.929002
0.0275183 -0.576944 0.924975
0.0578648 -0.576569 0.93161
-0.0460788 -0.576219 0.870937
0.0472424 -0.575969 0.908193
0.0307611 -0.575658 0.890998
0.0860588 -0.575539 0.908329
0.0392252 -0.575158 0.876482
0.0509365 -0.575076 0.871759
-0.0330384 -0.574856 0.820201
-0.0361104 -0.574675 0.808817
-0.0240284 -0.574495 0.80501
0.0509306 -0.574335 0.832502
0.0293659 -0.574196 0.811588
0.00841518 -0.574083 0.790794
0.0120641 -0.574114 0.78124
-0.0561013 -0.57404 0.736559
0.00887603 -0.573991 0.75826
0.118527 -0.574053 0.801482
0.0921591 -0.574042 0.777233
0.0146775 -0.574207 0.72612
-0.0140471 -0.574347 0.699564
0.17953 -0.574567 0.783552
0.0954163 -0.574808 0.728528
0.179345 -0.575207 0.756322
0.158639 -0.575651 0.731451
0.0743541 -0.576136 0.674455
0.131549 -0.576983 0.685436
0.16295 -0.578093 0.681484
0.231423 -0.580763 1.16953
0.192119 -0.578916 1.15092
0.166785 -0.577327 1.13762
0.0834557 -0.576111 1.09282
0.0980392 -0.574983 1.09642
0.0627912 -0.573871 1.07504
0.141819 -0.573019 1.10904
0.000969685 -0.572122 1.03345
0.0958387 -0.571298 1.07525
0.0953033 -0.570667 1.06803
0.0923324 -0.569871 1.06077
1.65122e-06 -0.56927 1.0075
0.0392442 -0.568684 1.01993
0.074071 -0.568115 1.03006
0.0691249 -0.567564 1.02019
0.0916734 -0.566857 1.02521
0.095854 -0.566512 1.01849
-0.00896269 -0.565997 0.958501
-0.00226818 -0.565508 0.954101
0.101598 -0.56504 0.998154
-0.00724149 -0.564728 0.93475
0.0665483 -0.564294 0.963556
0.0393578 -0.563883 0.941723
-0.0118666 -0.563602 0.906948
0.0441418 -0.563227 0.926483
-0.119522 -0.562876 0.83602
0.063924 -0.562626 0.918383
-0.0196901 -0.562313 0.867694
-0.0246343 -0.562084 0.855735
0.0180237 -0.561809 0.867922
0.0460384 -0.5616 0.872311
0.0932357 -0.561365 0.886498
0.0229412 -0.561155 0.841758
-0.0145821 -0.56098 0.813149
-0.0585481 -0.560809 0.781293
-0.0148745 -0.560655 0.793142
-0.020942 -0.560665 0.778898
0.0785841 -0.560546 0.818415
0.0322432 -0.560453 0.78481
-0.0364435 -0.560386 0.739843
0.0327353 -0.560494 0.762473
0.0421265 -0.560407 0.7567
-0.0181739 -0.560482 0.714844
0.0456007 -0.560568 0.734939
0.00675278 -0.560609 0.70406
0.0632602 -0.560932 0.718693
0.0828276 -0.561158 0.715593
0.0554854 -0.561429 0.688677
0.0842115 -0.561871 0.688461
0.127551 -0.562491 0.694147
0.097476 -0.563191 0.662482
0.208886 -0.564623 0.695817
0.147878 -0.568752 1.11736
0.20946 -0.565859 1.15676
0.0826838 -0.56423 1.09326
0.079066 -0.562859 1.0896
0.171205 -0.56175 1.13202
0.111742 -0.560654 1.0986
0.0119905 -0.559633 1.04455
0.118261 -0.558747 1.09259
0.0800402 -0.558109 1.06666
0.0855806 -0.557262 1.06412
0.0273 -0.556654 1.028
0.10647 -0.555885 1.06178
0.0202272 -0.555307 1.01152
0.0139986 -0.554746 1.00116
0.00936057 -0.554036 0.992696
0.0158426 -0.553676 0.987282
0.0450224 -0.553156 0.994394
0.0503622 -0.552652 0.989498
-0.0301755 -0.552166 0.94154
0.139403 -0.551702 1.01851
0.0354245 -0.551223 0.958824
-0.103794 -0.550961 0.87994
0.0392687 -0.550501 0.943668
-0.00240693 -0.550104 0.914578
-0.0276772 -0.549831 0.892786
-0.0205458 -0.54947 0.887865
-0.0887676 -0.549132 0.845105
0.0162282 -0.548891 0.888246
-0.0263838 -0.54859 0.858038
0.00512477 -0.548368 0.864308
0.0349384 -0.548105 0.870051
-0.0552913 -0.547903 0.81532
-0.00290972 -0.547678 0.832076
0.00366944 -0.547478 0.825748
-0.111839 -0.54731 0.758147
-0.0106447 -0.547149 0.798846
0.0911664 -0.547155 0.838575
0.0462803 -0.547013 0.806097
0.0632006 -0.546902 0.804286
0.0365029 -0.546817 0.780476
0.035181 -0.546756 0.769165
0.0521569 -0.546868 0.765657
-0.0418119 -0.546785 0.708202
0.0265973 -0.546784 0.731289
0.0273391 -0.546952 0.719217
0.0123051 -0.546997 0.70022
0.131014 -0.547297 0.746085
0.0923733 -0.54742 0.714658
0.0632206 -0.547817 0.685794
0.0869529 -0.548256 0.68303
0.14001 -0.548733 0.694601
0.169649 -0.54956 0.691649
0.13067 -0.550638 0.652335
0.155635 -0.553125 1.12457
0.215385 -0.551116 1.15732
0.202111 -0.549598 1.15011
0.166333 -0.54851 1.12862
0.0712364 -0.547431 1.07744
0.0867711 -0.546367 1.08151
0.132548 -0.545497 1.09935
0.156165 -0.544695 1.10564
0.0439504 -0.543904 1.04396
0.0537084 -0.543264 1.0422
0.104758 -0.542536 1.06176
0.097982 -0.541961 1.05132
0.0127668 -0.541383 1.00169
-0.00836495 -0.540855 0.983757
0.032341 -0.540327 0.996768
0.0801661 -0.539814 1.01325
0.086743 -0.539315 1.00902
0.0954113 -0.538834 1.00573
0.0401996 -0.538349 0.970541
0.0188274 -0.5379 0.952025
0.0125197 -0.5376 0.939934
-0.00644024 -0.537183 0.922415
-0.0147261 -0.536787 0.910086
-0.0410795 -0.536516 0.887793
0.0731144 -0.536155 0.936472
-0.0359804 -0.535902 0.872693
0.0235213 -0.535576 0.893782
-0.0455929 -0.535274 0.850395
-0.0988167 -0.534893 0.815575
0.0716954 -0.534786 0.89051
-0.00212595 -0.534427 0.845251
0.00257122 -0.534356 0.837017
-0.0169927 -0.534173 0.817528
0.0163846 -0.533982 0.824582
-0.0238274 -0.533816 0.794655
0.0126766 -0.533663 0.802988
0.0270979 -0.533523 0.800186
-0.0582191 -0.533386 0.747491
-0.0477143 -0.533284 0.742445
0.0481664 -0.533205 0.779897
0.0486287 -0.533151 0.769451
0.0300649 -0.533206 0.748619
0.0123167 -0.533187 0.728788
0.0326739 -0.533191 0.727823
0.00671726 -0.533311 0.702764
0.0558546 -0.53341 0.715427
-0.0303689 -0.533593 0.659711
0.122808 -0.533834 0.723226
0.0725834 -0.534229 0.683772
0.0959693 -0.534663 0.680784
0.0938604 -0.535135 0.664724
0.198284 -0.535643 0.701621
0.0719948 -0.53669 0.618698
0.226283 -0.540175 1.15593
0.211012 -0.538052 1.15236
0.176383 -0.536502 1.13498
0.152281 -0.535262 1.12063
0.217364 -0.534141 1.15004
0.0873892 -0.533098 1.0814
0.14555 -0.532297 1.10506
0.0924032 -0.531457 1.0734
0.2035 -0.53068 1.12342
-0.0226196 -0.529915 1.00478
0.0530003 -0.529334 1.03565
0.0548156 -0.528767 1.02954
0.0368105 -0.528044 1.01473
-0.0404731 -0.527507 0.968892
0.0752748 -0.526986 1.01947
0.0233043 -0.52648 0.986097
-0.0113972 -0.525986 0.961289
0.0803639 -0.525497 0.999702
0.0126939 -0.525032 0.958227
0.0469757 -0.524724 0.966533
-0.0544508 -0.524289 0.907984
-0.00195413 -0.523875 0.926256
-0.0799097 -0.523594 0.878277
0.0166949 -0.523051 0.919646
0.00369254 -0.522788 0.904034
0.0317564 -0.522441 0.90963
0.0131309 -0.522196 0.891089
0.0254869 -0.521883 0.888586
-0.0529253 -0.521656 0.840029
0.0435768 -0.521379 0.879343
0.0315571 -0.521125 0.86422
-0.0490958 -0.52093 0.814323
-0.0665251 -0.520712 0.796225
-0.0336292 -0.520536 0.802965
-0.0685194 -0.520355 0.775859
-0.0040147 -0.520198 0.798263
-0.000701473 -0.520048 0.790025
-0.0536417 -0.519917 0.753516
-0.0486082 -0.519809 0.745804
0.00146068 -0.519691 0.760701
-0.0328026 -0.519619 0.733054
0.0238673 -0.519572 0.750683
-0.0631823 -0.519628 0.695595
-2.64136e-05 -0.519614 0.716189
0.0545793 -0.519623 0.732319
0.0911 -0.519748 0.738448
-0.0194855 -0.519846 0.671238
0.0480043 -0.51992 0.693269
0.0852391 -0.520272 0.697838
0.0188505 -0.520395 0.652505
0.0986864 -0.520814 0.677787
0.0502033 -0.521271 0.638584
0.0450232 -0.521761 0.620722
0.109852 -0.522777 0.6334
0.151528 -0.525132 1.11861
0.0693348 -0.523453 1.0787
0.22341 -0.521943 1.15572
0.151077 -0.520908 1.11598
0.114364 -0.519883 1.09403
0.0674883 -0.519094 1.06523
0.0839833 -0.518265 1.06847
-0.0454185 -0.517497 0.998316
0.11461 -0.516704 1.07312
0.0589342 -0.515996 1.03943
0.0256941 -0.515407 1.01608
-0.0241558 -0.514862 0.984098
0.0846289 -0.51418 1.03253
-0.0708721 -0.513659 0.947589
-0.0425131 -0.513155 0.954473
0.00830123 -0.512662 0.972515
-0.0217711 -0.512184 0.950016
0.0406795 -0.51187 0.972503
0.0168574 -0.51142 0.952948
-0.0393365 -0.510989 0.917074
0.0657358 -0.510578 0.961697
-0.0301608 -0.51014 0.906064
-0.0636496 -0.509868 0.880325
-0.0385396 -0.509501 0.884668
-0.0504418 -0.509154 0.870349
0.013434 -0.508911 0.893101
0.0168899 -0.508598 0.886218
-0.00714799 -0.508217 0.866151
-0.114861 -0.508093 0.802169
-0.00589596 -0.507733 0.848467
-0.114053 -0.507642 0.784007
-0.0100856 -0.507302 0.827665
-0.0483 -0.507245 0.797913
-0.0404278 -0.506926 0.793376
-0.0207768 -0.506755 0.793515
-0.0300506 -0.506604 0.779028
0.0580398 -0.506469 0.813102
-0.00367961 -0.506337 0.772248
0.0317728 -0.506237 0.779717
0.0114901 -0.506161 0.759129
-0.00532599 -0.50606 0.740483
-0.0156086 -0.506018 0.724607
-0.0302769 -0.505999 0.706349
0.00998241 -0.506068 0.714813
0.0507804 -0.506081 0.724011
0.063084 -0.506116 0.718777
0.0464685 -0.506276 0.698016
-0.00788343 -0.506384 0.658824
-0.0136296 -0.50648 0.644034
0.051473 -0.506728 0.663355
0.116664 -0.507132 0.681369
0.0783023 -0.507725 0.645946
0.0821141 -0.508209 0.632533
0.10791 -0.508901 0.628275
0.192372 -0.511859 0.633572
0.233243 -0.512565 1.15252
0.16002 -0.51032 1.1218
0.173162 -0.509075 1.12658
0.201992 -0.507835 1.13923
0.154658 -0.506662 1.11332
0.100751 -0.505835 1.08146
0.0252161 -0.50507 1.03834
0.0811762 -0.504271 1.06128
0.123316 -0.503528 1.07689
0.0602727 -0.502797 1.03985
-0.0759278 -0.502243 0.964852
0.0488794 -0.501538 1.02159
0.0358408 -0.50101 1.00802
0.0903133 -0.500497 1.02811
-0.00254394 -0.499999 0.974442
0.0490132 -0.499514 0.992895
0.0660832 -0.499033 0.994087
-0.0660907 -0.498571 0.920534
-0.00217292 -0.498126 0.944905
0.0401361 -0.497699 0.958342
-0.024496 -0.497256 0.918465
0.0246964 -0.496977 0.934176
-0.109374 -0.496591 0.859143
-0.00890283 -0.496225 0.901231
-0.0490998 -0.495972 0.872067
-0.011778 -0.495638 0.882348
-0.105282 -0.495249 0.827691
-0.10184 -0.495101 0.81951
0.0446681 -0.494731 0.884728
-0.0814396 -0.494465 0.812786
-0.0882544 -0.494265 0.799943
-0.0033415 -0.494033 0.833246
0.0451289 -0.493851 0.847911
-0.0349842 -0.493653 0.798427
-0.0213342 -0.493343 0.796788
-0.0372495 -0.493327 0.777878
-0.128646 -0.493037 0.723564
0.00229872 -0.493043 0.777902
-0.0639799 -0.492784 0.7359
-0.0327949 -0.492692 0.741207
-0.0249389 -0.492725 0.733774
0.0155099 -0.492526 0.74464
-0.0240685 -0.492491 0.714086
-0.0450126 -0.49255 0.692025
-0.0158052 -0.492477 0.696192
0.0531408 -0.492485 0.719524
0.0408956 -0.492514 0.702074
0.000652225 -0.492663 0.669572
0.0185435 -0.492766 0.66653
0.0616964 -0.492855 0.676244
0.0423484 -0.493218 0.652273
0.0540644 -0.493352 0.645854
0.0459213 -0.493776 0.626913
0.0420578 -0.494393 0.608376
0.186173 -0.495063 0.663321
0.0697891 -0.496904 0.577486
0.140741 -0.497773 1.10513
0.266529 -0.496016 1.17057
0.121051 -0.494584 1.09785
0.175538 -0.4936 1.12158
0.124184 -0.492625 1.09237
0.0508535 -0.491873 1.0504
0.123309 -0.491085 1.08166
0.0846521 -0.490353 1.05694
0.068795 -0.489598 1.04385
0.0132332 -0.488892 1.01053
0.0447142 -0.488361 1.01934
0.101805 -0.487698 1.04205
0.0887066 -0.487187 1.02845
0.0141051 -0.486691 0.984007
-0.0104222 -0.486209 0.964497
0.0754248 -0.485737 1.00012
0.0294196 -0.485281 0.969705
0.0149999 -0.484841 0.954962
-0.0214453 -0.484394 0.929295
-0.013543 -0.484108 0.924464
-0.0171075 -0.483707 0.914887
-0.0124122 -0.483324 0.909299
0.0405327 -0.483063 0.926821
0.0459387 -0.482711 0.921367
-0.0108342 -0.482314 0.885213
-0.0224621 -0.481994 0.871
-0.0604173 -0.481766 0.842843
-0.0204603 -0.481478 0.854175
0.0332942 -0.481119 0.873028
-0.0237612 -0.481012 0.834316
-0.0187429 -0.480672 0.828662
-0.0873161 -0.480485 0.784895
0.0076729 -0.480276 0.823119
-0.0243175 -0.480107 0.797507
-0.0042817 -0.479931 0.797976
-0.106209 -0.479781 0.737254
-0.0829131 -0.479636 0.739097
-0.016988 -0.479506 0.762131
-0.0900315 -0.479379 0.715659
0.049932 -0.479259 0.775642
-0.0353875 -0.479174 0.722667
-0.0592847 -0.479111 0.700213
-0.0284666 -0.47902 0.705377
-0.0416934 -0.47899 0.687969
-0.0168149 -0.478982 0.689424
0.00424965 -0.478919 0.689465
0.0421579 -0.479027 0.696381
-0.0401605 -0.47908 0.643681
0.103949 -0.479153 0.704015
0.1151 -0.479361 0.696631
0.0609528 -0.479482 0.657389
0.0597787 -0.479868 0.642206
0.102532 -0.480019 0.651116
0.0547481 -0.480461 0.61208
0.0621545 -0.481096 0.598832
0.231638 -0.48256 0.658948
0.165622 -0.485006 1.11195
0.217396 -0.483094 1.14203
0.121239 -0.4817 1.09397
0.121571 -0.480524 1.09241
0.220492 -0.479569 1.13838
0.148329 -0.478625 1.09876
0.0401345 -0.477897 1.03937
0.0284388 -0.477138 1.02852
0.0534706 -0.476431 1.03564
-0.0113388 -0.475734 0.997779
0.0375796 -0.475207 1.01539
0.0751248 -0.474534 1.02857
0.0719314 -0.474032 1.01996
0.0138315 -0.473543 0.983817
-0.0553992 -0.473069 0.942007
-0.056196 -0.472602 0.934368
0.00886912 -0.472145 0.9596
-0.0529247 -0.471704 0.921287
0.00969776 -0.47128 0.945062
-0.0271285 -0.470845 0.919222
-0.0553236 -0.470448 0.89739
-0.00916903 -0.47018 0.911625
-0.0163895 -0.469811 0.90007
0.064412 -0.469409 0.932836
-0.0258409 -0.46907 0.879535
-0.0532218 -0.468834 0.856786
-0.0904795 -0.468526 0.829745
-0.0369723 -0.468159 0.848619
-0.0189334 -0.468029 0.84768
-0.02881 -0.467681 0.834728
-0.101809 -0.467484 0.788882
-0.0165585 -0.467251 0.822489
-0.0583736 -0.467071 0.792102
-0.0542853 -0.466871 0.784856
-0.0547012 -0.466567 0.776301
-0.0698039 -0.466542 0.757911
-0.0633865 -0.466257 0.75262
0.007627 -0.466119 0.778317
-0.050228 -0.465997 0.739432
-0.0501703 -0.465876 0.729505
-0.00561801 -0.465761 0.741778
0.0111765 -0.465684 0.739829
0.0478999 -0.465586 0.748039
0.000244683 -0.465541 0.713575
-0.0595082 -0.46546 0.673398
-0.0311753 -0.465447 0.676639
-0.0242408 -0.465454 0.668993
-0.00103746 -0.465482 0.669294
-0.0540266 -0.465529 0.631314
-0.0230252 -0.465595 0.635149
0.0403482 -0.46568 0.654991
0.0727959 -0.465907 0.658024
0.023739 -0.466027 0.621315
0.0686827 -0.466421 0.629006
-0.0111761 -0.466726 0.575123
0.0763323 -0.467182 0.603469
0.10852 -0.468292 0.597916
0.189995 -0.470296 1.12308
0.0967993 -0.468789 1.07777
0.0954191 -0.467485 1.07671
0.197512 -0.466345 1.12607
0.101439 -0.46542 1.07454
0.137484 -0.464705 1.08733
0.0390239 -0.463959 1.03317
0.0544009 -0.463263 1.03553
0.0301785 -0.462547 1.01829
0.0247521 -0.462056 1.00855
-0.0439478 -0.461371 0.968872
0.0641353 -0.460892 1.01582
-0.0396718 -0.460406 0.956918
0.00543015 -0.459781 0.973711
0.0381589 -0.459321 0.982891
-0.0523791 -0.458872 0.930371
-0.024451 -0.458437 0.936973
0.0648645 -0.458 0.974314
-0.0686173 -0.457718 0.898896
0.035715 -0.457318 0.943454
0.0318456 -0.456936 0.933777
-0.0960707 -0.456529 0.862309
-0.0667298 -0.456174 0.86902
-0.0377608 -0.455931 0.874563
-0.0294301 -0.455605 0.870542
-0.0356326 -0.455232 0.8597
-0.0401151 -0.45501 0.848365
-0.0906482 -0.454725 0.814583
-0.0830443 -0.454519 0.809169
-0.0816829 -0.454265 0.801079
0.0213151 -0.453934 0.844529
0.0124869 -0.453852 0.829782
0.0503648 -0.45354 0.840529
-0.0226152 -0.453373 0.794512
-0.0545189 -0.453194 0.769149
-0.0273655 -0.453044 0.773058
-0.129229 -0.452898 0.712432
-0.0280099 -0.45263 0.754497
-0.0146165 -0.452638 0.750067
-0.0420239 -0.452401 0.727541
-0.002568 -0.452291 0.737259
-0.0222552 -0.452221 0.717038
-0.074915 -0.452128 0.68055
0.0281335 -0.45209 0.721405
-0.038369 -0.452013 0.677847
0.00208312 -0.452005 0.687115
-0.0102424 -0.451945 0.670497
0.0605016 -0.451967 0.694624
0.0330306 -0.452009 0.669459
-0.00687313 -0.452069 0.637895
-0.00870798 -0.452147 0.625186
-0.040307 -0.452243 0.597419
0.0638843 -0.452477 0.6362
-0.0564913 -0.452736 0.562446
0.00710967 -0.453029 0.580338
0.00717474 -0.45332 0.566465
0.0692652 -0.453938 0.580382
0.0810104 -0.455058 0.564154
0.25436 -0.458043 1.14497
0.174919 -0.455848 1.11288
0.0436517 -0.454379 1.04864
0.0692146 -0.453267 1.05975
0.0677419 -0.452363 1.05558
0.0720941 -0.451469 1.05427
0.147094 -0.450778 1.08654
0.0949369 -0.450095 1.0552
0.0960918 -0.449389 1.05074
0.061259 -0.448879 1.02658
0.0331712 -0.448228 1.00708
0.0509087 -0.447739 1.00907
-0.0445005 -0.447112 0.955757
-0.0140385 -0.446648 0.963939
0.0171935 -0.446198 0.972406
-0.000474479 -0.445752 0.956409
0.0608527 -0.445318 0.97982
0.0291583 -0.444898 0.956608
0.00264849 -0.444474 0.936055
-0.0596605 -0.44408 0.897348
0.0191217 -0.44367 0.929349
-0.108314 -0.443447 0.856539
0.0630923 -0.443052 0.934748
0.00605804 -0.442711 0.898261
-0.0468343 -0.442333 0.864208
-0.0151578 -0.442163 0.870517
-0.0259581 -0.441801 0.857388
-0.0768087 -0.441587 0.822872
-0.0259054 -0.441314 0.839793
-0.0196698 -0.440975 0.83501
-0.00121338 -0.440783 0.83498
-0.0837906 -0.440551 0.784807
-0.0573767 -0.440374 0.788624
-0.100104 -0.440174 0.758105
-0.0396034 -0.439878 0.780122
0.000571699 -0.439844 0.789483
-0.0497331 -0.439566 0.755945
-0.069261 -0.439428 0.736462
-0.0238451 -0.439296 0.749403
-0.0391627 -0.43917 0.731929
-0.0191699 -0.439065 0.731907
0.00671041 -0.438851 0.735898
-0.0258363 -0.438752 0.70956
-0.0604861 -0.438699 0.681724
-0.0146099 -0.438617 0.694448
-0.0405631 -0.438594 0.67067
-0.0871346 -0.438528 0.63702
0.03718 -0.438535 0.688087
-0.0568832 -0.438484 0.630543
-0.0486302 -0.438484 0.623653
0.0110388 -0.438547 0.641835
0.0107017 -0.438629 0.629835
0.0315974 -0.438736 0.628192
0.00105391 -0.438842 0.600831
-0.00825353 -0.43909 0.582658
0.000898602 -0.439351 0.573569
0.0259801 -0.43951 0.573467
0.114366 -0.440096 0.600686
0.0980139 -0.440725 0.575062
0.182688 -0.443408 1.10808
0.091154 -0.441452 1.06845
0.064305 -0.440371 1.05337
-0.0129091 -0.439338 1.01272
0.057189 -0.438461 1.04436
0.071441 -0.437744 1.04667
0.137209 -0.43689 1.07603
0.0696394 -0.436231 1.03697
0.0404496 -0.435728 1.0157
0.0599947 -0.435087 1.0201
0.0541154 -0.434604 1.01037
-0.0190869 -0.433985 0.968253
0.025548 -0.433524 0.983613
-0.0100935 -0.433076 0.958745
-0.0429449 -0.432639 0.935196
-0.0706344 -0.432206 0.914205
0.0930452 -0.431788 0.988791
-0.00898419 -0.431367 0.930559
0.0708653 -0.430972 0.963052
-0.0313744 -0.430592 0.904374
-0.0131612 -0.430195 0.906107
0.0359154 -0.429945 0.92189
0.0046079 -0.4296 0.898402
-0.0356911 -0.429272 0.870271
-0.062443 -0.428906 0.849301
-0.0319649 -0.428684 0.85557
-0.034835 -0.428394 0.845836
-0.0299001 -0.42805 0.840546
-0.0522602 -0.427849 0.820237
-0.0657555 -0.427599 0.804849
-0.0394694 -0.427413 0.808735
-0.0720061 -0.427192 0.783563
-0.0105767 -0.426888 0.806199
-0.0869023 -0.426724 0.758598
-0.066503 -0.426545 0.759521
-0.10984 -0.426397 0.728275
-0.0286692 -0.426247 0.759302
-0.04318 -0.425985 0.743615
-0.0677386 -0.425859 0.721563
-0.0168582 -0.425739 0.737182
0.0240052 -0.425624 0.747743
0.000177957 -0.425538 0.725679
-0.120375 -0.425345 0.656325
-0.0906989 -0.425257 0.661041
-0.0971857 -0.425221 0.647153
-0.047859 -0.425148 0.661544
-0.105488 -0.425081 0.622407
-0.042828 -0.425084 0.642702
0.000320733 -0.425032 0.653804
-0.0590899 -0.425026 0.613161
-0.0240641 -0.425084 0.619073
0.0291631 -0.425159 0.633905
0.0130968 -0.425251 0.613915
-0.0178815 -0.425359 0.586297
-0.0218612 -0.425477 0.572078
0.013405 -0.425607 0.577336
0.0131349 -0.425887 0.563266
0.0672924 -0.426307 0.574927
0.0630725 -0.426905 0.55551
0.0276235 -0.427542 0.520038
0.16648 -0.429018 1.09735
0.141566 -0.427449 1.08806
0.0422347 -0.426255 1.03814
0.141015 -0.4254 1.08416
0.0764521 -0.424553 1.04848
0.108873 -0.423898 1.05953
0.0119113 -0.423217 1.00617
-0.025826 -0.422578 0.98206
0.0778433 -0.421947 1.0286
0.0862884 -0.421471 1.0261
0.116355 -0.420861 1.03572
0.0578069 -0.420405 0.999572
-0.0040241 -0.419961 0.961702
-0.000249295 -0.41953 0.956533
0.0869709 -0.419102 0.993072
-0.00236448 -0.418685 0.941258
0.0230481 -0.418282 0.946708
0.031594 -0.417875 0.943782
-0.0691652 -0.417494 0.885966
-0.00388546 -0.417128 0.911041
-0.0707312 -0.416744 0.870259
0.0681992 -0.416404 0.931951
0.0241302 -0.416171 0.901096
-0.0277064 -0.415807 0.867678
-0.0731012 -0.415502 0.836906
0.0503162 -0.415288 0.889647
-0.171744 -0.415011 0.770304
-0.0782111 -0.414678 0.809323
-0.101564 -0.414484 0.788517
-0.0667785 -0.414245 0.797253
-0.0133952 -0.414067 0.814687
-0.0749406 -0.413762 0.775941
-0.0788747 -0.413562 0.764953
-0.0646646 -0.413405 0.762618
-0.0397249 -0.413234 0.76579
-0.0270193 -0.413092 0.762563
-0.11477 -0.412828 0.710364
-0.0102931 -0.412698 0.752925
-0.109842 -0.412572 0.693424
-0.0169583 -0.412338 0.731274
-0.0738037 -0.412229 0.692974
-0.083586 -0.412125 0.678156
-0.0930074 -0.412056 0.663161
0.00197784 -0.411967 0.700576
-0.0139284 -0.411806 0.683311
-0.0327077 -0.411734 0.66369
0.0531994 -0.411723 0.695763
-0.0798236 -0.411665 0.61887
-0.00879761 -0.411612 0.643952
-0.0776657 -0.4116 0.598658
-0.012058 -0.411653 0.619911
-0.035962 -0.411628 0.597232
0.0376301 -0.411706 0.622203
0.0443315 -0.411801 0.613552
0.040651 -0.411911 0.59954
-0.00958873 -0.412035 0.562082
0.0073003 -0.412284 0.556841
-0.0307748 -0.412436 0.525156
0.0196718 -0.412993 0.533335
0.0233275 -0.413331 0.520464
0.0402057 -0.414386 0.506377
0.176199 -0.416507 1.09362
0.193886 -0.41468 1.10855
0.176645 -0.41334 1.10144
0.0214163 -0.412326 1.02223
0.0336142 -0.411501 1.02498
0.10513 -0.410684 1.05734
0.0405953 -0.410052 1.01992
0.0912748 -0.409426 1.04008
-0.0973535 -0.408784 0.940781
0.00318552 -0.40834 0.98416
0.0184076 -0.407724 0.986597
0.0419001 -0.40729 0.991399
0.00636826 -0.40685 0.966767
0.0156409 -0.406422 0.964453
0.000432004 -0.405866 0.951196
0.0444924 -0.405457 0.966128
-0.0196537 -0.405051 0.926954
0.0238387 -0.404664 0.941437
-0.00464527 -0.404407 0.918635
-0.029467 -0.404041 0.898782
-0.00602053 -0.40366 0.903233
-0.108527 -0.403317 0.844336
-0.0170417 -0.402991 0.882296
-0.0928628 -0.402767 0.835569
-0.0660252 -0.402414 0.8415
-0.0306581 -0.402122 0.851096
-0.0736731 -0.401917 0.820624
-0.0434016 -0.401585 0.828111
-0.0515336 -0.40133 0.815627
-0.0508317 -0.401144 0.80685
-0.116055 -0.400834 0.766413
-0.0807989 -0.400658 0.774827
-0.0301432 -0.40045 0.791294
-0.082838 -0.400162 0.756932
0.00373449 -0.400007 0.790823
-0.0195124 -0.399838 0.769961
-0.0313532 -0.399698 0.754504
-0.0726043 -0.399557 0.724357
-0.0127615 -0.399309 0.745907
-0.0670467 -0.39919 0.709031
-0.123931 -0.399076 0.670807
-0.168672 -0.398967 0.638605
-0.0256772 -0.398765 0.701278
0.00781219 -0.398672 0.708037
-0.064739 -0.398584 0.661726
-0.0592338 -0.398501 0.654393
0.017274 -0.398399 0.682764
-0.0883154 -0.398336 0.619679
-0.0889023 -0.398278 0.609044
-0.0953336 -0.398225 0.595436
-0.0652932 -0.398207 0.599673
-0.0482153 -0.398172 0.597619
0.00810562 -0.398229 0.614183
0.00587795 -0.398208 0.602331
-0.00772975 -0.398289 0.583655
-0.0307169 -0.398385 0.560115
-0.068994 -0.398384 0.530005
-0.0281245 -0.398622 0.536812
0.00661681 -0.398761 0.541641
0.0519374 -0.399046 0.550109
-0.0524888 -0.399462 0.482227
-0.0679524 -0.400049 0.45687
0.147703 -0.401254 0.540059
0.241231 -0.402178 1.12354
0.229187 -0.400713 1.12066
0.0630517 -0.399415 1.03916
0.111486 -0.398611 1.06006
0.0615712 -0.397813 1.03178
0.00967393 -0.397023 1.00246
0.0743219 -0.396412 1.02966
0.126248 -0.395807 1.05047
0.0546827 -0.395188 1.0097
0.0283135 -0.394757 0.989654
-0.0131907 -0.394164 0.963727
-0.00840785 -0.393744 0.959198
-0.00408284 -0.393321 0.954499
-0.0377231 -0.392773 0.93212
-0.0596944 -0.39237 0.914123
0.00749673 -0.391977 0.940619
-0.145568 -0.391584 0.857005
-0.0575898 -0.391211 0.893727
-0.00568017 -0.390964 0.91113
-0.0463098 -0.390612 0.883367
0.0477885 -0.390244 0.923158
-0.0247316 -0.389916 0.879246
-0.0357161 -0.389561 0.866392
-0.0755985 -0.389342 0.837678
-0.0433153 -0.389047 0.845873
-0.0200871 -0.388712 0.849974
-0.0576421 -0.388511 0.822275
-0.0717343 -0.38825 0.80696
-0.0962453 -0.387935 0.787023
-0.075606 -0.387753 0.788258
-0.0503688 -0.387528 0.792262
-0.0417354 -0.38736 0.787364
-0.131842 -0.387072 0.734401
-0.130059 -0.387008 0.724971
-0.0385205 -0.386736 0.762682
-0.136548 -0.386576 0.704409
-0.0867765 -0.386442 0.719754
-0.0333098 -0.386192 0.738224
-0.0946763 -0.386069 0.697902
-0.0190247 -0.385951 0.72604
-0.0601817 -0.385729 0.696923
-0.0697112 -0.385626 0.682318
-0.0503676 -0.385528 0.6821
-0.113901 -0.385435 0.640393
-0.0634811 -0.385264 0.656541
-0.0328411 -0.385186 0.661765
-0.0659347 -0.385113 0.635072
-0.0978425 -0.384982 0.609634
0.00254205 -0.384923 0.649524
-0.0375298 -0.384932 0.618424
-0.127611 -0.384887 0.56293
-0.00512588 -0.384812 0.614074
-0.00932501 -0.384781 0.601369
-0.0752626 -0.384841 0.556756
-0.0263617 -0.384823 0.570455
-0.00151894 -0.3849 0.571025
-0.0420363 -0.385004 0.538605
0.00781356 -0.385117 0.551267
-0.0615561 -0.385243 0.504155
0.0248989 -0.385382 0.534796
-0.0125135 -0.385664 0.501825
0.0211208 -0.385833 0.505692
0.0600962 -0.386548 0.505825
0.0673373 -0.387725 0.484621
0.197709 -0.3879 1.09931
0.0679741 -0.386478 1.03772
0.190142 -0.385698 1.09551
0.0966227 -0.384786 1.04687
0.0749819 -0.384015 1.03275
0.0330002 -0.383388 1.00701
0.0329063 -0.382638 1.00354
0.0833212 -0.382212 1.02194
0.0371026 -0.381617 0.993858
-0.0157529 -0.381052 0.96216
-0.0224992 -0.380629 0.952044
-0.00189079 -0.380223 0.955451
-0.0146721 -0.379816 0.942203
-0.0343791 -0.379289 0.926802
0.0169439 -0.378899 0.945472
-0.031815 -0.378521 0.913991
-0.0508753 -0.378142 0.897397
-0.0555097 -0.377896 0.886593
-0.108388 -0.377546 0.852825
-0.0659263 -0.377182 0.866882
0.0243715 -0.376853 0.904507
-0.0167696 -0.376538 0.876275
-0.128519 -0.376323 0.811665
-0.038874 -0.375986 0.849104
-0.0136341 -0.375704 0.853765
-0.0800872 -0.375506 0.811657
-0.0938241 -0.375188 0.797247
-0.0766757 -0.374938 0.797536
-0.0909975 -0.374759 0.781334
-0.134192 -0.374461 0.75202
-0.0910102 -0.374291 0.764485
-0.101635 -0.374085 0.750449
-0.136355 -0.373809 0.725185
-0.11323 -0.373657 0.72744
-0.11081 -0.373489 0.719553
-0.0798649 -0.373351 0.725579
-0.161895 -0.373101 0.676409
-0.0562722 -0.372857 0.721013
-0.0837313 -0.372736 0.697687
-0.153972 -0.372619 0.652921
-0.14077 -0.372508 0.649827
-0.0207076 -0.372299 0.701287
-0.0740735 -0.372202 0.664755
-0.149062 -0.37211 0.617362
-0.0586765 -0.371941 0.65356
-0.0854572 -0.371863 0.630114
-0.118118 -0.37179 0.603677
-0.0318048 -0.371659 0.637415
-0.107864 -0.37171 0.587837
-0.0156393 -0.371606 0.624223
-0.123001 -0.371561 0.560127
-0.270984 -0.371484 0.476096
-0.0683593 -0.371453 0.56684
-0.0633256 -0.371425 0.558738
-0.185064 -0.371489 0.486175
-0.030901 -0.371463 0.552621
0.0108079 -0.371556 0.561417
-0.0568431 -0.371557 0.516638
-0.0197469 -0.371671 0.522867
-0.0682747 -0.371798 0.486122
0.000865616 -0.371938 0.508053
-0.0386976 -0.372089 0.475481
-0.00213739 -0.372522 0.477548
0.0610906 -0.372943 0.493067
0.0395347 -0.374236 0.455527
0.0696276 -0.375773 1.02193
0.177658 -0.373971 1.08378
0.0633774 -0.37276 1.02824
0.181902 -0.371876 1.08565
0.0884916 -0.371095 1.03603
0.0127273 -0.370353 0.99486
0.0493786 -0.369778 1.00814
-0.00019973 -0.369055 0.979943
-0.0351573 -0.368644 0.955691
-0.0556746 -0.368071 0.940459
0.0400065 -0.367527 0.983047
-0.00313962 -0.36712 0.954737
-0.0117186 -0.366729 0.943573
-0.0433723 -0.366337 0.920891
0.040362 -0.365955 0.955832
-0.0154689 -0.36546 0.922257
0.00777942 -0.365207 0.925554
-0.061834 -0.364851 0.883593
-0.0410799 -0.364489 0.8869
0.000777644 -0.364153 0.900494
-0.0156914 -0.363803 0.8851
-0.0901462 -0.363488 0.840341
-0.0722173 -0.363274 0.840644
-0.0778617 -0.362941 0.830529
-0.0105478 -0.362656 0.856365
-0.0209866 -0.362336 0.843737
-0.0486619 -0.362143 0.821061
-0.0937056 -0.36189 0.790402
-0.155697 -0.361709 0.750448
-0.115656 -0.361413 0.762853
0.0419289 -0.361193 0.833166
