ply
format ascii 1.0
comment Created by Open3D
element vertex 1704
property double x
property double y
property double z
end_header
-0.134582 0.0254847 0.632728
-0.13719 0.0254667 0.623579
-0.137934 0.0254535 0.614559
-0.14256 0.0254304 0.60531
-0.145194 0.0254124 0.596197
-0.145783 0.0253997 0.587219
-0.150201 0.0253771 0.578026
-0.15286 0.0253591 0.568949
-0.15329 0.0253468 0.560013
-0.157497 0.0253249 0.550873
-0.16018 0.0253068 0.541833
-0.160448 0.025295 0.532936
-0.164437 0.0252737 0.523849
-0.166438 0.0252574 0.514882
-0.167248 0.0252443 0.505987
-0.170516 0.0252248 0.496977
-0.170477 0.0252139 0.488145
-0.173682 0.0251946 0.479162
-0.176379 0.0251767 0.470217
-0.176639 0.025165 0.461399
-0.179742 0.025146 0.452459
-0.179132 0.0251366 0.443699
-0.182181 0.0251178 0.434784
-0.185193 0.0250991 0.425884
-0.184763 0.0250893 0.417142
-0.187707 0.0250708 0.408268
-0.187024 0.0250616 0.399554
-0.189912 0.0250433 0.390704
-0.192761 0.0250251 0.381869
-0.192108 0.0250159 0.373179
-0.194888 0.0249979 0.364368
-0.194129 0.0249889 0.355698
-0.196851 0.0249711 0.346911
-0.1995 0.0249535 0.33814
-0.198727 0.0249446 0.329495
-0.20135 0.0249271 0.320745
-0.200517 0.0249184 0.312118
-0.20308 0.0249011 0.303391
-0.202219 0.0248924 0.29478
-0.204721 0.0248753 0.286076
-0.207182 0.0248582 0.277385
-0.206273 0.0248498 0.268799
-0.208672 0.0248329 0.260131
-0.207576 0.0248249 0.251564
-0.209901 0.0248083 0.242917
-0.208928 0.0248 0.234361
-0.211189 0.0247836 0.225737
-0.213407 0.0247672 0.217124
-0.212385 0.0247591 0.208592
-0.214539 0.024743 0.200001
-0.213486 0.024735 0.191483
-0.215574 0.024719 0.182913
-0.214146 0.024712 0.174416
-0.216158 0.0246962 0.165865
-0.215037 0.0246884 0.157376
-0.216983 0.0246728 0.148846
-0.218883 0.0246574 0.140326
-0.21771 0.0246498 0.131859
-0.219543 0.0246345 0.12336
-0.218339 0.024627 0.114906
-0.220104 0.0246119 0.106425
-0.218867 0.0246045 0.0979849
-0.220563 0.0245896 0.0895229
-0.219293 0.0245823 0.0810956
-0.22092 0.0245676 0.0726518
-0.219618 0.0245604 0.0642374
-0.221175 0.0245459 0.0558116
-0.219839 0.0245388 0.0474097
-0.221325 0.0245245 0.0390015
-0.219956 0.0245174 0.0306119
-0.221371 0.0245034 0.0222209
-0.222738 0.0244895 0.0138395
-0.221311 0.0244826 0.00546925
0.307078 0.0410062 1.22991
0.275765 0.0408631 1.21631
0.248947 0.040738 1.2033
0.225105 0.0406249 1.1907
0.209146 0.0405431 1.17907
0.193203 0.0404615 1.16748
0.180382 0.0403923 1.15628
0.164517 0.0403112 1.14477
0.148733 0.0402304 1.13332
0.140791 0.0401808 1.12276
0.128141 0.0401126 1.11172
0.120272 0.0400633 1.10123
0.104812 0.0399841 1.08994
0.0970655 0.0399354 1.07952
0.0893673 0.039887 1.06912
0.084528 0.0398499 1.05905
0.06946 0.0397725 1.04793
0.0619407 0.0397249 1.03762
0.0571615 0.0396882 1.02762
0.0497239 0.039641 1.01737
0.0423541 0.0395942 1.00715
0.0350556 0.0395476 0.996955
0.0278317 0.0395014 0.986791
0.0231518 0.0394653 0.976898
0.0160286 0.0394196 0.966785
0.00898762 0.0393742 0.956702
0.00203233 0.0393292 0.94665
-0.00255579 0.0392936 0.93684
-0.00939663 0.0392491 0.926838
-0.0161445 0.0392051 0.916866
-0.0206579 0.0391698 0.907118
-0.0272819 0.0391263 0.897197
-0.0338057 0.0390833 0.887306
-0.0382391 0.0390484 0.877619
-0.0426483 0.0390137 0.867951
-0.044602 0.0389887 0.858512
-0.0508729 0.0389467 0.848715
-0.0552104 0.0389124 0.839102
-0.0613388 0.0388711 0.829356
-0.0673533 0.0388303 0.819639
-0.0698723 0.0388032 0.810226
-0.0715045 0.0387795 0.800898
-0.0773533 0.0387394 0.791245
-0.0830812 0.0386999 0.78162
-0.0872201 0.0386665 0.772137
-0.0870779 0.0386499 0.763
-0.0926303 0.0386111 0.753438
-0.0966929 0.0385781 0.744006
-0.102081 0.0385401 0.734492
-0.101888 0.0385237 0.725404
-0.107129 0.0384863 0.715931
-0.111074 0.0384539 0.706568
-0.114989 0.0384216 0.697222
-0.115896 0.0384011 0.688101
-0.119759 0.0383691 0.678787
-0.124631 0.0383332 0.669419
-0.124348 0.0383174 0.660413
-0.128126 0.0382858 0.651146
-0.132798 0.0382508 0.641836
-0.135586 0.0382231 0.632664
-0.136986 0.0382008 0.623592
-0.140633 0.0381699 0.614391
-0.14345 0.0381421 0.605255
-0.144572 0.038121 0.596235
-0.148128 0.0380904 0.58708
-0.150973 0.0380627 0.57798
-0.151812 0.0380427 0.56901
-0.155275 0.0380126 0.5599
-0.158147 0.0379848 0.550837
-0.158698 0.037966 0.541914
-0.162065 0.0379363 0.532848
-0.161576 0.0379215 0.524002
-0.164892 0.0378921 0.514963
-0.168173 0.0378629 0.505939
-0.167956 0.0378471 0.497106
-0.171173 0.0378181 0.48811
-0.174355 0.0377893 0.479129
-0.173964 0.0377743 0.470333
-0.17708 0.0377458 0.461379
-0.176475 0.0377316 0.452609
-0.179591 0.0377031 0.443678
-0.182562 0.0376752 0.434767
-0.18195 0.0376611 0.426024
-0.184908 0.0376333 0.417136
-0.187818 0.0376058 0.408263
-0.187132 0.037592 0.399549
-0.190004 0.0375646 0.3907
-0.189289 0.0375509 0.382004
-0.192081 0.0375239 0.37318
-0.194849 0.037497 0.36437
-0.194083 0.0374836 0.3557
-0.196793 0.0374569 0.346914
-0.196 0.0374436 0.33826
-0.198473 0.0374179 0.329503
-0.197647 0.0374048 0.320866
-0.200226 0.0373787 0.312127
-0.202765 0.0373528 0.303401
-0.201892 0.0373399 0.29479
-0.204038 0.0373155 0.286096
-0.203131 0.0373028 0.2775
-0.205535 0.0372775 0.268819
-0.207898 0.0372523 0.260151
-0.206943 0.0372398 0.25158
-0.209243 0.037215 0.242934
-0.208259 0.0372026 0.234377
-0.210496 0.037178 0.225753
-0.20897 0.0371677 0.217223
-0.211131 0.0371434 0.208619
-0.210081 0.0371314 0.200092
-0.212179 0.0371074 0.191509
-0.214232 0.0370836 0.182938
-0.213131 0.0370718 0.174434
-0.215119 0.0370483 0.165883
-0.213987 0.0370366 0.157393
-0.215909 0.0370133 0.148862
-0.214746 0.0370018 0.140386
-0.216602 0.0369788 0.131874
-0.218412 0.0369561 0.123374
-0.21646 0.0369476 0.114928
-0.21819 0.0369251 0.106446
-0.216936 0.036914 0.0980042
-0.218598 0.0368919 0.0895408
-0.217311 0.0368809 0.081112
-0.218904 0.0368591 0.0726668
-0.217585 0.0368482 0.0642507
-0.219108 0.0368267 0.0558234
-0.217756 0.036816 0.0474198
-0.219209 0.0367947 0.0390099
-0.217823 0.0367842 0.0306186
-0.219206 0.0367632 0.0222258
-0.22054 0.0367425 0.0138426
-0.219097 0.0367322 0.00547049
0.31095 0.0547451 1.25019
0.276519 0.0545376 1.23613
0.252733 0.0543867 1.22342
0.231966 0.0542519 1.21112
0.216014 0.0541428 1.19943
0.200082 0.0540339 1.18779
0.184195 0.0539254 1.17619
0.168377 0.0538173 1.16464
0.160406 0.0537508 1.15401
0.147688 0.0536592 1.14288
0.132094 0.0535526 1.13146
0.124258 0.053487 1.12093
0.116465 0.0534217 1.11044
0.103986 0.0533318 1.09945
0.0962967 0.0532672 1.08902
0.08866 0.0532029 1.07862
0.0810799 0.053139 1.06824
0.0688781 0.0530508 1.0574
0.0614333 0.0529877 1.04709
0.054056 0.052925 1.03681
0.0467496 0.0528628 1.02656
0.0419911 0.052814 1.01659
0.0347802 0.0527524 1.00639
0.0276478 0.0526912 0.996219
0.0205975 0.0526306 0.98608
0.015925 0.0525824 0.976193
0.00898403 0.0525224 0.966105
0.00213243 0.052463 0.956047
-0.00246958 0.0524153 0.946223
-0.00920233 0.0523566 0.936217
-0.0158385 0.0522984 0.926241
-0.0203647 0.0522513 0.916479
-0.0268728 0.0521939 0.906553
-0.0332774 0.0521371 0.896658
-0.0357989 0.0521006 0.887129
-0.0402265 0.0520542 0.877444
-0.0439667 0.0520114 0.867836
-0.0501106 0.0519561 0.858037
-0.0561412 0.0519015 0.848266
-0.0604569 0.0518558 0.83866
-0.0647473 0.0518104 0.829072
-0.0662573 0.0517794 0.819729
-0.0720034 0.0517264 0.810052
-0.076214 0.0516815 0.800518
-0.0818016 0.0516294 0.79089
-0.0845556 0.0515921 0.781504
-0.0858112 0.0515627 0.772247
-0.0912196 0.0515117 0.762682
-0.0964984 0.0514614 0.753144
-0.0993356 0.0514238 0.743808
-0.100343 0.0513958 0.73462
-0.105434 0.0513466 0.725144
-0.109388 0.0513033 0.715767
-0.112236 0.0512658 0.706484
-0.11406 0.0512337 0.697287
-0.117931 0.0511909 0.687959
-0.121773 0.0511484 0.678648
-0.122368 0.0511227 0.669572
-0.126924 0.0510765 0.66024
-0.130668 0.0510346 0.650979
-0.130349 0.0510137 0.641996
-0.134699 0.0509687 0.632721
-0.138354 0.0509274 0.623506
-0.141351 0.0508894 0.614346
-0.142133 0.050863 0.605336
-0.145698 0.0508222 0.596167
-0.148725 0.0507842 0.587044
-0.149219 0.0507593 0.578083
-0.152691 0.0507191 0.568959
-0.152248 0.050699 0.560072
-0.155949 0.0506577 0.55096
-0.159325 0.0506181 0.54188
-0.158839 0.0505983 0.533023
-0.162316 0.0505583 0.523962
-0.165456 0.0505199 0.514933
-0.165062 0.0504998 0.506099
-0.16829 0.0504611 0.497089
-0.171481 0.0504226 0.488095
-0.170912 0.0504034 0.479297
-0.17405 0.0503653 0.470329
-0.177153 0.0503273 0.461375
-0.176541 0.0503084 0.452606
-0.179546 0.0502711 0.44368
-0.178904 0.0502524 0.434929
-0.181886 0.0502152 0.426027
-0.18483 0.0501782 0.41714
-0.184146 0.0501598 0.408416
-0.186838 0.0501241 0.399561
-0.186121 0.0501059 0.390855
-0.188941 0.0500697 0.382017
-0.191722 0.0500337 0.373194
-0.190962 0.0500158 0.364514
-0.193334 0.0499819 0.355727
-0.19254 0.0499642 0.347064
-0.195193 0.0499289 0.338288
-0.197806 0.0498939 0.329526
-0.196967 0.0498765 0.320889
-0.199013 0.0498444 0.312166
-0.19814 0.0498272 0.303544
-0.200621 0.049793 0.294828
-0.203061 0.049759 0.286125
-0.20214 0.0497421 0.277528
-0.204519 0.0497084 0.268847
-0.20357 0.0496917 0.260266
-0.205203 0.0496619 0.251625
-0.204218 0.0496454 0.243058
-0.206461 0.0496126 0.234421
-0.20866 0.04958 0.225795
-0.207626 0.0495638 0.217253
-0.209763 0.0495315 0.208648
-0.208699 0.0495155 0.20012
-0.210772 0.0494836 0.191537
-0.209678 0.0494678 0.183023
-0.210803 0.0494408 0.174475
-0.212754 0.0494096 0.165923
-0.211602 0.0493941 0.157431
-0.213487 0.0493633 0.148899
-0.212305 0.049348 0.140421
-0.214124 0.0493176 0.131908
-0.21291 0.0493025 0.123443
-0.214662 0.0492725 0.114949
-0.216368 0.0492427 0.106466
-0.215101 0.0492279 0.0980226
-0.216739 0.0491985 0.0895579
-0.215439 0.0491839 0.0811275
-0.217009 0.0491549 0.0726809
-0.215677 0.0491405 0.0642633
-0.217177 0.0491119 0.0558344
-0.215812 0.0490977 0.0474292
-0.217242 0.0490695 0.0390177
-0.215844 0.0490555 0.0306248
-0.217203 0.0490277 0.0222304
-0.215771 0.0490139 0.0138494
-0.21706 0.0489865 0.00547163
0.31494 0.06852 1.27054
0.280467 0.0682601 1.25639
0.259704 0.0680913 1.24398
0.240722 0.0679345 1.23183
0.219946 0.067766 1.21951
0.204043 0.0676299 1.20782
0.188198 0.0674943 1.19617
0.180202 0.0674108 1.18547
0.167423 0.0672957 1.17425
0.151778 0.0671618 1.16273
0.143904 0.0670793 1.15214
0.131294 0.0669657 1.14103
0.123509 0.066884 1.1305
0.115769 0.0668027 1.11999
0.100623 0.0666726 1.1087
0.0957128 0.0666102 1.09855
0.0881438 0.0665302 1.08814
0.0806354 0.0664507 1.07776
0.0731913 0.0663718 1.06741
0.061136 0.0662625 1.05659
0.0538431 0.0661847 1.0463
0.0466251 0.0661074 1.03605
0.0394854 0.0660307 1.02582
0.0347344 0.0659698 1.01585
0.027699 0.065894 1.00568
0.0207493 0.0658188 0.995534
0.0138885 0.0657442 0.985419
0.00922859 0.0656841 0.975541
0.00248569 0.0656104 0.965478
-0.00416114 0.0655375 0.955446
-0.00874733 0.065478 0.945629
-0.0152671 0.065406 0.935649
-0.0216839 0.0653347 0.925698
-0.0243175 0.0652883 0.916116
-0.028809 0.0652297 0.906377
-0.0324747 0.0651766 0.89673
-0.0386328 0.0651072 0.886876
-0.043046 0.0650493 0.877196
-0.049059 0.064981 0.867393
-0.0549556 0.0649135 0.857619
-0.0577481 0.0648664 0.848129
-0.0606659 0.0648184 0.838642
-0.0649445 0.0647617 0.829055
-0.0705501 0.0646963 0.819375
-0.0747678 0.06464 0.809827
-0.0776266 0.0645927 0.800404
-0.0800867 0.0645479 0.791027
-0.0853856 0.0644848 0.781438
-0.0894917 0.0644294 0.771961
-0.0935705 0.0643743 0.762501
-0.0944458 0.06434 0.7533
-0.098474 0.0642853 0.743872
-0.103412 0.0642248 0.734393
-0.106446 0.0641766 0.72507
-0.107984 0.0641382 0.715869
-0.111891 0.0640845 0.706509
-0.115769 0.064031 0.697167
-0.118818 0.0639829 0.687897
-0.120049 0.0639466 0.678767
-0.124445 0.0638899 0.669431
-0.127604 0.0638413 0.660195
-0.127878 0.0638113 0.651163
-0.132065 0.0637561 0.641884
-0.135258 0.0637073 0.632685
-0.135739 0.0636761 0.623671
-0.139342 0.0636248 0.614471
-0.142913 0.0635737 0.605288
-0.142759 0.0635467 0.596345
-0.14627 0.0634961 0.58719
-0.149748 0.0634457 0.578052
-0.149423 0.0634199 0.569148
-0.152839 0.06337 0.560038
-0.156133 0.0633209 0.550949
-0.155738 0.0632957 0.542077
-0.159071 0.0632464 0.533011
-0.16237 0.0631975 0.523959
-0.161848 0.0631731 0.515122
-0.165097 0.0631245 0.506097
-0.168311 0.0630762 0.497088
-0.167667 0.0630527 0.488284
-0.170815 0.0630049 0.479302
-0.173927 0.0629574 0.470334
-0.173319 0.0629337 0.461555
-0.17615 0.0628881 0.452624
-0.175511 0.0628647 0.443863
-0.178503 0.062818 0.434947
-0.181458 0.0627717 0.426046
-0.180407 0.062751 0.417328
-0.183293 0.0627052 0.408452
-0.18258 0.0626824 0.399735
-0.185411 0.0626369 0.390883
-0.187684 0.0625951 0.382066
-0.186921 0.0625727 0.373376
-0.189643 0.0625281 0.364563
-0.192326 0.0624838 0.355764
-0.191518 0.0624617 0.3471
-0.193466 0.0624222 0.338348
-0.192624 0.0624004 0.3297
-0.195177 0.062357 0.320947
-0.19769 0.062314 0.312208
-0.196802 0.0622925 0.303586
-0.199256 0.0622499 0.294869
-0.19834 0.0622287 0.286262
-0.199875 0.062192 0.277592
-0.198925 0.062171 0.269001
-0.201243 0.0621294 0.260328
-0.20352 0.0620881 0.251668
-0.202522 0.0620675 0.2431
-0.204737 0.0620266 0.234462
-0.203709 0.0620063 0.225909
-0.204822 0.0619724 0.217315
-0.206917 0.0619324 0.208709
-0.205833 0.0619125 0.200179
-0.207865 0.0618729 0.191593
-0.206751 0.0618532 0.183078
-0.208719 0.0618141 0.174512
-0.207575 0.0617947 0.166011
-0.209478 0.0617561 0.157465
-0.211336 0.0617177 0.148931
-0.21014 0.0616987 0.140452
-0.211933 0.0616608 0.131937
-0.209443 0.06165 0.123487
-0.211156 0.0616127 0.11499
-0.20989 0.0615941 0.106536
-0.211536 0.0615573 0.0980583
-0.213135 0.0615208 0.0895908
-0.211816 0.0615027 0.0811576
-0.213347 0.0614667 0.0727081
-0.211996 0.0614488 0.0642874
-0.213458 0.0614132 0.0558556
-0.212074 0.0613956 0.0474473
-0.213466 0.0613606 0.0390328
-0.212049 0.0613432 0.0306367
-0.213372 0.0613086 0.0222391
-0.211921 0.0612914 0.0138548
-0.213173 0.0612574 0.00547381
0.365592 0.0827405 1.3068
0.323902 0.0823703 1.29157
0.292405 0.0820817 1.27769
0.271623 0.0818788 1.26521
0.247816 0.0816519 1.2524
0.231888 0.081488 1.24061
0.215995 0.0813246 1.22885
0.200163 0.0811617 1.21715
0.18733 0.0810229 1.20584
0.171641 0.0808615 1.19422
0.163732 0.0807621 1.18356
0.151052 0.0806248 1.17236
0.143225 0.0805262 1.16175
0.127907 0.0803683 1.15032
0.120214 0.080271 1.13978
0.115249 0.0801953 1.12958
0.100244 0.0800402 1.11827
0.0927317 0.0799446 1.10783
0.0852836 0.0798496 1.09742
0.0803915 0.0797749 1.08731
0.073029 0.0796807 1.07695
0.0657382 0.0795872 1.06662
0.053849 0.0794574 1.05583
0.0467248 0.0793654 1.04556
0.0396827 0.0792741 1.03533
0.0349209 0.0792009 1.02535
0.0279876 0.0791106 1.01517
0.0211435 0.0790211 1.00502
0.014392 0.0789324 0.994902
0.0097232 0.0788602 0.985009
0.00309378 0.0787726 0.974943
-0.00152804 0.0787009 0.965091
-0.00803023 0.0786145 0.955076
-0.0126031 0.0785433 0.945264
-0.0171544 0.0784724 0.935472
-0.0207487 0.078409 0.925785
-0.0269195 0.0783255 0.915877
-0.0313936 0.0782553 0.906143
-0.0374205 0.0781731 0.896285
-0.0433316 0.0780918 0.886458
-0.0462356 0.0780342 0.876915
-0.0506077 0.0779651 0.867258
-0.0534258 0.0779082 0.857751
-0.059048 0.0778295 0.848018
-0.0633313 0.0777613 0.838417
-0.0675897 0.0776933 0.828835
-0.0718228 0.0776256 0.81927
-0.074014 0.0775739 0.809888
-0.0781884 0.0775068 0.800359
-0.0833378 0.0774321 0.790767
-0.0864583 0.0773734 0.781354
-0.0881908 0.0773255 0.772062
-0.0922503 0.0772595 0.762602
-0.0970733 0.0771876 0.7531
-0.100287 0.0771283 0.743736
-0.100856 0.0770897 0.734582
-0.105481 0.0770195 0.72514
-0.109391 0.0769549 0.715767
-0.112626 0.0768957 0.706457
-0.113567 0.0768543 0.697322
-0.117394 0.0767906 0.687997
-0.121191 0.0767271 0.678688
-0.121325 0.0766921 0.669643
-0.125392 0.0766267 0.660343
-0.128775 0.0765666 0.651103
-0.128745 0.076533 0.6421
-0.132597 0.0764694 0.632856
-0.136204 0.0764077 0.623642
-0.139607 0.0763477 0.614455
-0.139454 0.0763152 0.6055
-0.142968 0.0762544 0.596332
-0.146407 0.0761942 0.587182
-0.146011 0.0761637 0.578271
-0.149446 0.0761037 0.569147
-0.152848 0.0760439 0.560038
-0.152371 0.0760142 0.55116
-0.155725 0.0759549 0.542078
-0.158921 0.0758969 0.533019
-0.158401 0.0758676 0.524171
-0.161656 0.0758092 0.515132
-0.160865 0.075782 0.506315
-0.164055 0.0757242 0.497303
-0.16721 0.0756668 0.488307
-0.16662 0.0756382 0.479506
-0.169327 0.0755842 0.470555
-0.17238 0.0755277 0.461599
-0.171743 0.0754995 0.452827
-0.174743 0.0754435 0.443897
-0.17716 0.0753919 0.435006
-0.176474 0.0753643 0.426262
-0.179369 0.0753092 0.417372
-0.178658 0.0752817 0.408644
-0.180808 0.0752324 0.399807
-0.183595 0.0751782 0.390956
-0.182834 0.0751513 0.382255
-0.185566 0.0750976 0.373428
-0.184779 0.0750709 0.364744
-0.186604 0.0750243 0.355971
-0.189225 0.0749716 0.347181
-0.188386 0.0749454 0.338523
-0.19095 0.0748932 0.329756
-0.193473 0.0748414 0.321003
-0.191578 0.0748234 0.312402
-0.194029 0.0747722 0.303672
-0.19311 0.0747467 0.295054
-0.195501 0.0746961 0.286345
-0.197851 0.0746458 0.27765
-0.196885 0.0746208 0.269057
-0.197987 0.0745801 0.260414
-0.196986 0.0745554 0.251836
-0.199199 0.0745063 0.243183
-0.201371 0.0744575 0.234542
-0.200321 0.0744333 0.225987
-0.202431 0.0743851 0.217368
-0.201352 0.0743611 0.208827
-0.203399 0.0743135 0.200229
-0.205403 0.0742662 0.191642
-0.20288 0.0742532 0.18315
-0.204805 0.0742066 0.174582
-0.203639 0.0741834 0.166078
-0.2055 0.0741374 0.157529
-0.204303 0.0741145 0.149038
-0.206099 0.074069 0.14051
-0.20785 0.0740238 0.131992
-0.206602 0.0740014 0.123523
-0.208287 0.0739569 0.115024
-0.207007 0.0739347 0.106568
-0.208625 0.0738907 0.0980875
-0.207313 0.0738689 0.0896441
-0.208864 0.0738255 0.0811821
-0.210368 0.0737824 0.0727302
-0.209003 0.0737611 0.0643071
-0.210439 0.0737186 0.0558728
-0.209041 0.0736975 0.047462
-0.210407 0.0736557 0.039045
-0.208976 0.0736349 0.0306463
-0.210273 0.0735936 0.0222461
-0.208809 0.0735731 0.0138593
-0.210035 0.0735324 0.00547556
0.377596 0.0967303 1.32839
0.328142 0.0962256 1.31207
0.299576 0.0959158 1.29848
0.275806 0.095651 1.28555
0.259875 0.0954593 1.27366
0.236125 0.0951951 1.26084
0.228076 0.0950771 1.24999
0.215175 0.0949141 1.23858
0.199402 0.0947246 1.22686
0.183729 0.0945361 1.21519
0.175822 0.09442 1.20448
0.163121 0.0942594 1.19322
0.147735 0.0940741 1.18169
0.139996 0.0939598 1.17108
0.134981 0.0938709 1.16081
0.119888 0.0936888 1.14941
0.112319 0.0935764 1.1389
0.10481 0.0934647 1.12841
0.0951152 0.0933329 1.11771
0.0852549 0.0931996 1.10701
0.0779605 0.0930902 1.09662
0.0730762 0.0930032 1.08652
0.0658764 0.0928948 1.07618
0.0587555 0.0927873 1.06588
0.0517166 0.0926806 1.0556
0.0444627 0.0925721 1.04533
0.0374828 0.0924662 1.0351
0.0305903 0.0923611 1.02491
0.0258574 0.0922761 1.01496
0.0190806 0.0921723 1.00481
0.0123984 0.0920695 0.994704
0.00773606 0.0919853 0.984814
0.00388491 0.0919087 0.97502
-0.00251205 0.0918087 0.964996
-0.00880298 0.0917098 0.955002
-0.0133644 0.0916269 0.945192
-0.0195162 0.0915295 0.935251
-0.0255555 0.0914331 0.925339
-0.0300334 0.0913512 0.915591
-0.0344889 0.0912696 0.905861
-0.0389218 0.0911882 0.89615
-0.0416721 0.0911223 0.886606
-0.0473097 0.09103 0.87682
-0.0516548 0.0909497 0.867166
-0.0559761 0.0908696 0.857531
-0.0602731 0.0907899 0.847914
-0.0645456 0.0907104 0.838315
-0.0666366 0.0906509 0.828914
-0.0718052 0.0905634 0.819272
-0.0759813 0.090485 0.809728
-0.0792013 0.0904154 0.800277
-0.0808323 0.0903603 0.790967
-0.0856768 0.090276 0.781415
-0.0897376 0.090199 0.771941
-0.0930536 0.0901287 0.76254
-0.0942053 0.0900783 0.753318
-0.0981868 0.0900021 0.743894
-0.102141 0.0899263 0.734487
-0.106066 0.0898507 0.725098
-0.106721 0.089805 0.71596
-0.110578 0.0897302 0.706603
-0.114407 0.0896557 0.697263
-0.117844 0.0895849 0.687965
-0.118173 0.0895423 0.678895
-0.121915 0.0894688 0.669603
-0.121745 0.0894308 0.660587
-0.125429 0.089358 0.651324
-0.129115 0.0892852 0.642076
-0.132706 0.0892133 0.632849
-0.132338 0.0891773 0.623886
-0.135907 0.0891057 0.614685
-0.139433 0.0890346 0.605502
-0.139015 0.0889991 0.596571
-0.1425 0.0889285 0.587415
-0.145802 0.0888596 0.578284
-0.145341 0.0888246 0.569384
-0.148731 0.088755 0.560272
-0.151806 0.0886883 0.551192
-0.1513 0.0886539 0.542322
-0.154594 0.0885853 0.533253
-0.157437 0.0885208 0.524222
-0.156886 0.0884869 0.515382
-0.160081 0.0884194 0.506356
-0.162689 0.0883572 0.497373
-0.162092 0.0883239 0.488561
-0.165185 0.0882574 0.479576
-0.168243 0.0881913 0.470607
-0.167607 0.0881584 0.461824
-0.169901 0.0880993 0.452912
-0.169233 0.0880667 0.444146
-0.172171 0.0880019 0.435227
-0.174223 0.0879451 0.42636
-0.173506 0.0879131 0.417621
-0.176337 0.0878494 0.408741
-0.179131 0.0877861 0.399875
-0.178372 0.0877546 0.391164
-0.180101 0.0877009 0.382362
-0.179308 0.0876698 0.373666
-0.181975 0.0876078 0.364848
-0.184604 0.0875462 0.356044
-0.183768 0.0875155 0.347374
-0.185167 0.087465 0.338634
-0.187684 0.0874045 0.329866
-0.186795 0.0873745 0.321222
-0.189254 0.0873146 0.312477
-0.191674 0.0872552 0.303744
-0.189404 0.0872375 0.295165
-0.191748 0.0871788 0.286455
-0.190778 0.0871496 0.27785
-0.193063 0.0870915 0.269162
-0.195307 0.0870339 0.260486
-0.19429 0.0870052 0.251905
-0.196473 0.0869482 0.243251
-0.195428 0.0869198 0.234685
-0.196011 0.086877 0.226087
-0.194929 0.086849 0.217534
-0.196974 0.0867934 0.208921
-0.198976 0.0867382 0.200319
-0.197844 0.0867107 0.191789
-0.199783 0.0866562 0.183208
-0.198622 0.086629 0.174692
-0.200497 0.0865751 0.166131
-0.202328 0.0865216 0.15758
-0.199369 0.0865104 0.149114
-0.201121 0.0864577 0.140581
-0.199871 0.0864315 0.1321
-0.201557 0.0863795 0.123586
-0.203199 0.0863278 0.115084
-0.201897 0.0863022 0.106623
-0.203472 0.0862512 0.0981391
-0.202138 0.0862259 0.0896915
-0.203646 0.0861756 0.0812253
-0.20228 0.0861506 0.0727903
-0.203721 0.086101 0.0643418
-0.205116 0.0860518 0.0559032
-0.203696 0.0860274 0.0474879
-0.205021 0.0859789 0.0390665
-0.203569 0.0859548 0.0306632
-0.204825 0.085907 0.0222585
-0.203339 0.0858833 0.013867
-0.204526 0.0858361 0.00547864
0.389705 0.110779 1.35008
0.340298 0.110202 1.33364
0.311725 0.109847 1.31996
0.287971 0.109544 1.30696
0.27205 0.109325 1.29501
0.256143 0.109106 1.28309
0.235384 0.108836 1.27062
0.219586 0.108619 1.2588
0.211598 0.108484 1.24798
0.198767 0.108299 1.23659
0.183181 0.108084 1.22491
0.17532 0.107952 1.21418
0.162661 0.107769 1.20292
0.154891 0.107638 1.19226
0.139719 0.107428 1.18076
0.132097 0.107299 1.17017
0.124532 0.10717 1.15961
0.112249 0.106992 1.14854
0.10482 0.106865 1.13805
0.0974587 0.106739 1.12759
0.092518 0.106639 1.11742
0.080518 0.106464 1.10649
0.0733352 0.10634 1.09612
0.0662318 0.106217 1.08578
0.0592109 0.106095 1.07547
0.0522756 0.105974 1.06519
0.0454292 0.105854 1.05494
0.0406431 0.105756 1.04493
0.0339134 0.105638 1.03473
0.0272795 0.105521 1.02457
0.0225623 0.105424 1.01462
0.0160541 0.105308 1.00451
0.00964847 0.105193 0.994431
0.00334823 0.10508 0.984382
-0.00126574 0.104984 0.974518
-0.00742795 0.104873 0.964521
-0.0119915 0.104778 0.954697
-0.0165342 0.104683 0.944892
-0.0210557 0.104589 0.935106
-0.0239254 0.104512 0.92549
-0.0296978 0.104405 0.915622
-0.0341347 0.104312 0.905893
-0.0397525 0.104206 0.896076
-0.0441327 0.104114 0.886387
-0.0484898 0.104022 0.876716
-0.0528235 0.10393 0.867064
-0.0548508 0.103863 0.857628
-0.0600373 0.103762 0.847934
-0.0642755 0.103672 0.838338
-0.0676038 0.103591 0.828833
-0.069172 0.103528 0.819489
-0.074037 0.103432 0.809886
-0.0781626 0.103343 0.800361
-0.0822625 0.103254 0.790853
-0.0826798 0.103204 0.781651
-0.0872102 0.103111 0.772138
-0.0912176 0.103023 0.762682
-0.0951982 0.102936 0.753243
-0.0987126 0.102854 0.743855
-0.0992666 0.102803 0.7347
-0.103407 0.102714 0.725292
-0.107036 0.102631 0.715937
-0.10712 0.102585 0.70685
-0.11092 0.1025 0.697509
-0.114691 0.102415 0.688185
-0.118348 0.102332 0.678883
-0.118108 0.102289 0.669861
-0.121807 0.102206 0.660583
-0.125476 0.102123 0.651321
-0.125067 0.102082 0.642339
-0.128677 0.102 0.633107
-0.132081 0.10192 0.623902
-0.131675 0.101879 0.614949
-0.135193 0.101798 0.605762
-0.138373 0.10172 0.59661
-0.137925 0.10168 0.587688
-0.14135 0.1016 0.578545
-0.144302 0.101525 0.569444
-0.14381 0.101485 0.560552
-0.147139 0.101406 0.551453
-0.14986 0.101334 0.542401
-0.149323 0.101295 0.533539
-0.152554 0.101217 0.524482
-0.155751 0.10114 0.515441
-0.154458 0.101108 0.506645
-0.157589 0.101032 0.49763
-0.160685 0.100956 0.488631
-0.159209 0.100927 0.479868
-0.162238 0.100852 0.470894
-0.165231 0.100777 0.461935
-0.164563 0.10074 0.453158
-0.166495 0.100676 0.44427
-0.169383 0.100602 0.435351
-0.168666 0.100566 0.426601
-0.171501 0.100493 0.417706
-0.169604 0.100468 0.409021
-0.172369 0.100396 0.400151
-0.175097 0.100324 0.391294
-0.174305 0.100289 0.382587
-0.176977 0.100218 0.373755
-0.178284 0.100161 0.364985
-0.177441 0.100126 0.356304
-0.180003 0.100056 0.347508
-0.182527 0.0999869 0.338725
-0.181639 0.0999524 0.330069
-0.182614 0.0998991 0.321359
-0.181691 0.0998651 0.312717
-0.184083 0.0997974 0.30398
-0.186435 0.0997301 0.295255
-0.185467 0.0996967 0.286638
-0.186105 0.099647 0.277982
-0.188342 0.0995811 0.269291
-0.187318 0.0995483 0.260698
-0.189495 0.0994831 0.252028
-0.188444 0.0994507 0.24345
-0.190561 0.0993862 0.234801
-0.192635 0.0993222 0.226165
-0.191536 0.0992904 0.21761
-0.191689 0.0992459 0.209033
-0.190552 0.0992145 0.200491
-0.192487 0.0991521 0.191894
-0.19438 0.0990902 0.183309
-0.193194 0.0990594 0.174789
-0.195023 0.0989982 0.166224
-0.193807 0.0989678 0.157718
-0.195572 0.0989074 0.149171
-0.197294 0.0988474 0.140636
-0.196027 0.0988176 0.132152
-0.197684 0.0987584 0.123635
-0.196386 0.098729 0.115164
-0.195866 0.0986918 0.106689
-0.197397 0.098634 0.0982
-0.196039 0.0986052 0.0897474
-0.197503 0.0985482 0.0812762
-0.196114 0.0985198 0.0728361
-0.197511 0.0984635 0.0643826
-0.198862 0.0984077 0.0559389
-0.197419 0.09838 0.0475184
-0.198701 0.098325 0.0390917
-0.197226 0.0982977 0.0306831
-0.19844 0.0982434 0.022273
-0.196931 0.0982165 0.0138761
-0.198076 0.098163 0.00548225
0.409539 0.124978 1.37287
0.360341 0.124331 1.35632
0.331803 0.123932 1.34256
0.300242 0.123497 1.32847
0.284332 0.12325 1.31645
0.268438 0.123003 1.30448
0.247676 0.122699 1.29193
0.231894 0.122454 1.28006
0.223909 0.122303 1.26919
0.211062 0.122094 1.25775
0.195495 0.121853 1.24601
0.182773 0.121645 1.23465
0.174964 0.121497 1.22392
0.159719 0.12126 1.21232
0.152049 0.121113 1.20166
0.144432 0.120968 1.19103
0.132062 0.120766 1.17987
0.124575 0.120622 1.1693
0.117151 0.120479 1.15877
0.105023 0.12028 1.14772
0.0977513 0.120139 1.13725
0.0905544 0.119999 1.12682
0.0856267 0.119887 1.11666
0.0785287 0.119748 1.10627
0.0711033 0.119606 1.09588
0.0619464 0.119443 1.08532
0.0550532 0.119308 1.07502
0.0482501 0.119173 1.06476
0.0415402 0.11904 1.05453
0.0367688 0.11893 1.04453
0.0301809 0.118799 1.03435
0.0236928 0.118668 1.0242
0.0189925 0.118559 1.01426
0.0126353 0.118431 1.00417
0.00798202 0.118323 0.994266
0.00479193 0.118232 0.984524
-0.00284385 0.118089 0.974364
-0.00583082 0.118001 0.964675
-0.0117327 0.117878 0.954722
-0.0175172 0.117757 0.944799
-0.0220076 0.117651 0.935017
-0.0264767 0.117546 0.925254
-0.0309241 0.117441 0.915509
-0.0353495 0.117336 0.905783
-0.0375135 0.117259 0.896277
-0.0428453 0.117143 0.886501
-0.0480485 0.11703 0.876755
-0.0514884 0.116937 0.867181
-0.0557748 0.116835 0.857548
-0.0572838 0.116765 0.848169
-0.0621681 0.116656 0.838515
-0.0663547 0.116554 0.828938
-0.0705166 0.116454 0.819378
-0.0709183 0.116397 0.810141
-0.0754708 0.116292 0.800578
-0.0795419 0.116193 0.79107
-0.0835872 0.116094 0.78158
-0.0837148 0.116041 0.77241
-0.0879234 0.11594 0.762935
-0.0918736 0.115842 0.753496
-0.0957969 0.115745 0.744074
-0.0995236 0.11565 0.734681
-0.0995096 0.115599 0.725578
-0.10335 0.115503 0.716204
-0.107162 0.115407 0.706847
-0.106868 0.11536 0.697795
-0.110639 0.115265 0.688467
-0.114294 0.115171 0.679162
-0.117992 0.115077 0.669869
-0.117645 0.11503 0.660861
-0.121082 0.114939 0.651611
-0.12469 0.114847 0.642364
-0.12397 0.114804 0.633409
-0.127517 0.114712 0.624191
-0.131034 0.114621 0.614989
-0.130139 0.114581 0.606072
-0.133594 0.11449 0.596899
-0.137017 0.1144 0.587742
-0.135945 0.114362 0.578862
-0.139305 0.114273 0.569732
-0.142633 0.114184 0.560619
-0.141382 0.114149 0.551775
-0.144645 0.114061 0.542688
-0.147875 0.113973 0.533617
-0.146442 0.11394 0.524808
-0.149607 0.113853 0.515763
-0.152738 0.113767 0.506733
-0.151121 0.113736 0.497957
-0.154185 0.113651 0.488954
-0.157214 0.113566 0.479965
-0.156561 0.113524 0.471166
-0.158374 0.113453 0.462257
-0.1613 0.11337 0.453308
-0.160598 0.113328 0.444536
-0.162168 0.113261 0.43567
-0.164989 0.113179 0.42676
-0.164237 0.113138 0.418015
-0.167005 0.113057 0.409129
-0.168276 0.112993 0.400317
-0.167475 0.112953 0.391598
-0.170134 0.112873 0.38275
-0.172756 0.112793 0.373915
-0.171912 0.112754 0.365222
-0.172854 0.112694 0.35647
-0.171975 0.112655 0.347792
-0.174469 0.112578 0.339003
-0.176923 0.112501 0.330228
-0.176001 0.112462 0.321575
-0.176609 0.112406 0.312879
-0.178951 0.112331 0.304139
-0.177975 0.112293 0.295509
-0.180258 0.112218 0.28679
-0.182502 0.112144 0.278084
-0.18148 0.112107 0.269479
-0.181693 0.112056 0.260847
-0.180635 0.11202 0.252256
-0.182743 0.111947 0.243591
-0.18481 0.111875 0.234939
-0.183704 0.111839 0.226371
-0.18571 0.111768 0.217739
-0.187674 0.111697 0.209119
-0.186521 0.111662 0.200574
-0.186246 0.111617 0.192016
-0.185055 0.111583 0.183483
-0.186878 0.111514 0.174902
-0.188659 0.111445 0.166331
-0.187418 0.111411 0.15782
-0.189135 0.111344 0.149269
-0.187864 0.11131 0.140771
-0.189518 0.111244 0.132239
-0.191127 0.111178 0.123718
-0.189805 0.111145 0.115241
-0.191349 0.111079 0.106738
-0.192848 0.111015 0.0982456
-0.191474 0.110983 0.0897891
-0.190463 0.110946 0.0813346
-0.18905 0.110915 0.0728886
-0.190401 0.110852 0.0644293
-0.188955 0.110821 0.0559955
-0.190239 0.110759 0.0475532
-0.191477 0.110697 0.0391205
-0.189977 0.110667 0.0307058
-0.191147 0.110606 0.0222896
-0.189615 0.110576 0.0138864
-0.190715 0.110516 0.00548637
0.426744 0.139221 1.39543
0.375515 0.138474 1.37847
0.344142 0.137992 1.36425
0.32044 0.137613 1.3511
0.299602 0.137273 1.33837
0.28371 0.136998 1.32634
0.260071 0.136621 1.31335
0.252049 0.136452 1.3024
0.239132 0.136218 1.29086
0.223467 0.135948 1.279
0.20792 0.13568 1.26721
0.195185 0.135449 1.25579
0.187383 0.135284 1.24502
0.17476 0.135055 1.23368
0.167057 0.134892 1.22297
0.152046 0.134631 1.21141
0.144504 0.134471 1.20077
0.137023 0.134311 1.19016
0.124802 0.134088 1.17902
0.117465 0.13393 1.16848
0.1102 0.133773 1.15797
0.10522 0.133647 1.14774
0.0954967 0.133458 1.137
0.0862161 0.133275 1.12633
0.0792203 0.133123 1.11595
0.0723106 0.132971 1.10559
0.0654899 0.132821 1.09527
0.0587613 0.132673 1.08497
0.0539371 0.132549 1.0749
0.0473288 0.132403 1.06467
0.0408195 0.132257 1.05446
0.0344118 0.132114 1.04428
0.0296833 0.131992 1.0343
0.0234083 0.13185 1.02418
0.0172414 0.13171 1.01408
0.0125885 0.131589 1.00416
0.00656249 0.131451 0.994125
0.00195901 0.131332 0.984245
-0.00262492 0.131213 0.974385
-0.00847379 0.131077 0.96442
-0.0130058 0.130959 0.9546
-0.0153377 0.13087 0.945006
-0.0208441 0.130739 0.935126
-0.0252879 0.130622 0.925364
-0.0306344 0.130494 0.915536
-0.0350214 0.130378 0.905813
-0.0393863 0.130263 0.896108
-0.0437288 0.130148 0.886423
-0.045182 0.130071 0.877008
-0.0500845 0.129949 0.867303
-0.0543282 0.129835 0.857673
-0.0579572 0.12973 0.848111
-0.0589352 0.129659 0.838788
-0.0635087 0.129542 0.829175
-0.0676396 0.129431 0.819615
-0.0717458 0.129319 0.810073
-0.0758269 0.129209 0.800549
-0.0760927 0.129148 0.791345
-0.0801054 0.129038 0.781854
-0.0840923 0.128929 0.772381
-0.0839253 0.128874 0.763243
-0.0878581 0.128766 0.753801
-0.0917643 0.128658 0.744377
-0.0956434 0.12855 0.734969
-0.0994953 0.128443 0.725579
-0.0991064 0.128392 0.716511
-0.102902 0.128285 0.707151
-0.106436 0.128183 0.697825
-0.106111 0.12813 0.688782
-0.10982 0.128026 0.679469
-0.113136 0.127926 0.670198
-0.11677 0.127823 0.660919
-0.116393 0.127771 0.65192
-0.119486 0.127675 0.642702
-0.12303 0.127573 0.633469
-0.121997 0.12753 0.62454
-0.125479 0.127428 0.615335
-0.128931 0.127328 0.606147
-0.12772 0.127287 0.597254
-0.131109 0.127187 0.588094
-0.134466 0.127088 0.578949
-0.133076 0.12705 0.570092
-0.136369 0.126952 0.560975
-0.13963 0.126854 0.551873
-0.138059 0.126819 0.543051
-0.141255 0.126722 0.533976
-0.144417 0.126626 0.524916
-0.142663 0.126593 0.516127
-0.145759 0.126497 0.507093
-0.148821 0.126403 0.498074
-0.148181 0.126355 0.489252
-0.149877 0.126278 0.480323
-0.152837 0.126185 0.471344
-0.152149 0.126139 0.46255
-0.153604 0.126065 0.453663
-0.15646 0.125973 0.444723
-0.15928 0.125882 0.435798
-0.158527 0.125837 0.427041
-0.159684 0.125767 0.418208
-0.158898 0.125722 0.409467
-0.161595 0.125633 0.400589
-0.162506 0.125566 0.391796
-0.161669 0.125522 0.383079
-0.164257 0.125434 0.374239
-0.166808 0.125347 0.365412
-0.165929 0.125304 0.356721
-0.16651 0.125242 0.347985
-0.168951 0.125156 0.339194
-0.168018 0.125114 0.330527
-0.170402 0.125029 0.321758
-0.172748 0.124945 0.313002
-0.169692 0.12493 0.304425
-0.171962 0.124847 0.29569
-0.17095 0.124805 0.287062
-0.173163 0.124723 0.278349
-0.175335 0.124641 0.269648
-0.174278 0.124601 0.261044
-0.17413 0.124549 0.252423
-0.176186 0.124469 0.243754
-0.175072 0.124429 0.235172
-0.177068 0.12435 0.226524
-0.179023 0.124271 0.217887
-0.177862 0.124232 0.209328
-0.179756 0.124155 0.200712
-0.181608 0.124078 0.192107
-0.177931 0.124071 0.183616
-0.179704 0.123995 0.17503
-0.178457 0.123957 0.166504
-0.180167 0.123882 0.157937
-0.181835 0.123807 0.14938
-0.180538 0.12377 0.140877
-0.182142 0.123697 0.132339
-0.180814 0.12366 0.123848
-0.182354 0.123588 0.115329
-0.18385 0.123516 0.10682
-0.182472 0.12348 0.0983495
-0.183902 0.123409 0.0898585
-0.185288 0.123339 0.0813775
-0.183857 0.123304 0.0729272
-0.185177 0.123234 0.0644636
-0.180953 0.123234 0.0560411
-0.18219 0.123166 0.0475922
-0.183381 0.123098 0.0391528
-0.181857 0.123065 0.0307312
-0.18298 0.122998 0.0223081
-0.181424 0.122965 0.013898
-0.182479 0.122899 0.00549097
0.395662 0.152756 1.40139
0.364372 0.152227 1.38708
0.332888 0.151695 1.37281
0.317 0.151393 1.36067
0.296171 0.151018 1.34792
0.28033 0.150717 1.33587
0.267358 0.150459 1.32423
0.251617 0.15016 1.31227
0.235972 0.149862 1.30036
0.223148 0.149606 1.28884
0.207702 0.149313 1.27703
0.199907 0.149131 1.26621
0.187273 0.148878 1.25482
0.179578 0.148698 1.24406
0.164591 0.148412 1.23245
0.159495 0.14827 1.22206
0.14957 0.148059 1.21111
0.137352 0.147813 1.19992
0.130023 0.14764 1.18934
0.124997 0.147499 1.17905
0.112971 0.147258 1.16796
0.10582 0.147087 1.15747
0.0987485 0.146918 1.14701
0.0917601 0.14675 1.13658
0.0848577 0.146583 1.12618
0.0780442 0.146418 1.11582
0.0703541 0.14624 1.10538
0.0636016 0.146076 1.09506
0.0569433 0.145914 1.08478
0.050382 0.145753 1.07452
0.0455924 0.145618 1.06448
0.0391578 0.145459 1.05428
0.0328268 0.145302 1.04412
0.0281087 0.145168 1.03414
0.0219127 0.145013 1.02402
0.0190552 0.144907 1.01427
0.0111852 0.144728 1.00402
0.00853773 0.144625 0.994321
0.00277819 0.144477 0.984326
-0.00286193 0.14433 0.974362
-0.0073878 0.1442 0.964525
-0.0118937 0.144071 0.954707
-0.0163792 0.143942 0.944907
-0.0182191 0.143851 0.935372
-0.0262256 0.143671 0.925277
-0.0278293 0.143584 0.915793
-0.032881 0.143447 0.906007
-0.0372155 0.14332 0.896304
-0.0415278 0.143194 0.886619
-0.0458176 0.143069 0.876952
-0.0467447 0.142991 0.867594
-0.0513382 0.142862 0.857931
-0.055174 0.142743 0.848349
-0.0593534 0.142619 0.838753
-0.0597902 0.14255 0.829485
-0.0640457 0.142425 0.819912
-0.0681171 0.142303 0.810369
-0.0721638 0.142182 0.800845
-0.071986 0.142121 0.791673
-0.075981 0.142001 0.782179
-0.0799661 0.141881 0.772702
-0.0838901 0.141762 0.763246
-0.0836503 0.141702 0.754121
-0.0874074 0.141586 0.744704
-0.0912679 0.141468 0.735294
-0.0948319 0.141354 0.725921
-0.0986206 0.141238 0.716546
-0.0979278 0.141185 0.707507
-0.101659 0.141069 0.698162
-0.101323 0.141012 0.689115
-0.104497 0.140904 0.679835
-0.108141 0.14079 0.670537
-0.111114 0.140685 0.661298
-0.114681 0.140572 0.652033
-0.114272 0.140516 0.643041
-0.117019 0.140415 0.633855
-0.120496 0.140304 0.624635
-0.11915 0.140261 0.61573
-0.122564 0.140151 0.606538
-0.125948 0.140041 0.597362
-0.124422 0.140001 0.588492
-0.127742 0.139892 0.579344
-0.131031 0.139784 0.570211
-0.129324 0.139747 0.561376
-0.132548 0.13964 0.552269
-0.135739 0.139533 0.543179
-0.133851 0.139499 0.534377
-0.136976 0.139393 0.525312
-0.140068 0.139288 0.516262
-0.137996 0.139257 0.507492
-0.141021 0.139153 0.498468
-0.144012 0.13905 0.489459
-0.141755 0.139021 0.480719
-0.144677 0.138919 0.471735
-0.147566 0.138817 0.462765
-0.146842 0.138767 0.453974
-0.147942 0.13869 0.445108
-0.150726 0.138591 0.436177
-0.153474 0.138491 0.42726
-0.15081 0.138468 0.418585
-0.153487 0.13837 0.409692
-0.156129 0.138273 0.400812
-0.155289 0.138224 0.392083
-0.155846 0.138156 0.383306
-0.154971 0.138108 0.374592
-0.157487 0.138013 0.365758
-0.159966 0.137918 0.356938
-0.15905 0.137871 0.348249
-0.159277 0.137808 0.339527
-0.161644 0.137714 0.330742
-0.160675 0.137668 0.322077
-0.162986 0.137576 0.313313
-0.162908 0.137517 0.304635
-0.161885 0.137472 0.295993
-0.164083 0.137382 0.287263
-0.166241 0.137292 0.278545
-0.165173 0.137247 0.269927
-0.167274 0.137159 0.26123
-0.166802 0.137106 0.252611
-0.165679 0.137062 0.244015
-0.167662 0.136975 0.235349
-0.169605 0.136889 0.226696
-0.168435 0.136846 0.218122
-0.170318 0.13676 0.209489
-0.172159 0.136676 0.200867
-0.170942 0.136634 0.192316
-0.169984 0.136588 0.183765
-0.168729 0.136547 0.175225
-0.17043 0.136464 0.166641
-0.172089 0.136382 0.158067
-0.170785 0.136341 0.149548
-0.172381 0.136261 0.140994
-0.173934 0.13618 0.132449
-0.17258 0.136141 0.123952
-0.174069 0.136061 0.115426
-0.175515 0.135983 0.10691
-0.17411 0.135944 0.0984333
-0.175491 0.135866 0.0899354
-0.174056 0.135828 0.0814707
-0.17261 0.13579 0.0730107
-0.173617 0.135717 0.0645395
-0.17212 0.13568 0.0560915
-0.173309 0.135605 0.0476352
-0.174452 0.135531 0.0391884
-0.172902 0.135495 0.0307592
-0.173978 0.135422 0.0223286
-0.172396 0.135386 0.0139108
-0.173405 0.135314 0.00549605
0.42081 0.167199 1.42511
0.384655 0.166543 1.41004
0.353227 0.165963 1.39567
0.332386 0.165553 1.3828
0.316515 0.165223 1.37064
0.295708 0.164815 1.35786
0.279914 0.164487 1.34579
0.264193 0.164161 1.33377
0.251294 0.16388 1.32216
0.235737 0.163557 1.31023
0.227873 0.163357 1.29933
0.215135 0.163079 1.28783
0.199887 0.162762 1.27605
0.1922 0.162565 1.26525
0.179688 0.162292 1.25388
0.172117 0.162098 1.24315
0.16215 0.161865 1.23215
0.152313 0.161635 1.22119
0.14494 0.161445 1.21056
0.135062 0.161214 1.19965
0.125602 0.160991 1.18882
0.118459 0.160805 1.17828
0.111397 0.16062 1.16778
0.10371 0.160425 1.15723
0.0967003 0.160241 1.14678
0.0878497 0.160028 1.13614
0.0810813 0.159849 1.12576
0.0744061 0.159671 1.11541
0.0678269 0.159495 1.1051
0.0613466 0.15932 1.09481
0.0565351 0.159172 1.08473
0.0501832 0.159 1.0745
0.0439366 0.15883 1.06431
0.039196 0.158683 1.05429
0.0330861 0.158515 1.04414
0.0270875 0.158349 1.03403
0.0224229 0.158204 1.02407
0.0177762 0.15806 1.01414
0.0119533 0.157897 1.0041
0.00735629 0.157754 0.994203
0.0042288 0.157634 0.984469
-0.000300257 0.157492 0.974612
-0.00565752 0.157337 0.964692
-0.0101327 0.157196 0.954875
-0.0145879 0.157055 0.945076
-0.0190226 0.156915 0.935297
-0.0241469 0.156765 0.92547
-0.0285247 0.156626 0.915729
-0.0296132 0.156539 0.906304
-0.0343613 0.156394 0.896561
-0.0386392 0.156257 0.886876
-0.0428949 0.156121 0.877209
-0.047128 0.155985 0.867561
-0.0475193 0.155909 0.85826
-0.0516863 0.155774 0.848646
-0.0558299 0.15564 0.83905
-0.0599498 0.155506 0.829472
-0.0598548 0.155438 0.820258
-0.0639232 0.155306 0.810712
-0.0679151 0.155174 0.801187
-0.0719166 0.155043 0.791678
-0.0717012 0.154977 0.782517
-0.0754853 0.154849 0.773052
-0.0794073 0.154719 0.763591
-0.0830001 0.154595 0.754171
-0.0827289 0.15453 0.745055
-0.086152 0.154408 0.735674
-0.0899472 0.154281 0.726279
-0.0931745 0.154162 0.71694
-0.0928448 0.154099 0.70787
-0.0958988 0.153983 0.698568
-0.0995624 0.153858 0.689238
-0.0991938 0.153796 0.680199
-0.102026 0.153684 0.670951
-0.105601 0.153561 0.661666
-0.108231 0.153452 0.652458
-0.107799 0.153391 0.643462
-0.111285 0.153269 0.634222
-0.113687 0.153164 0.625065
-0.117094 0.153044 0.615858
-0.115436 0.153002 0.606975
-0.11878 0.152883 0.597795
-0.122092 0.152764 0.588631
-0.120255 0.152726 0.579783
-0.123503 0.152608 0.570646
-0.122943 0.15255 0.561738
-0.124701 0.152456 0.552709
-0.127852 0.15234 0.543613
-0.129398 0.152249 0.534618
-0.128769 0.152192 0.525749
-0.131821 0.152078 0.516694
-0.133131 0.151991 0.507742
-0.132455 0.151935 0.498901
-0.135407 0.151823 0.489886
-0.136478 0.15174 0.480976
-0.135755 0.151685 0.472162
-0.138604 0.151575 0.463186
-0.141419 0.151465 0.454224
-0.138663 0.151441 0.445527
-0.141408 0.151333 0.43659
-0.144118 0.151225 0.427666
-0.143307 0.151171 0.418904
-0.143816 0.151098 0.410094
-0.146419 0.150992 0.401207
-0.148986 0.150887 0.392334
-0.145823 0.150869 0.383696
-0.148318 0.150765 0.374845
-0.150777 0.150662 0.366007
-0.149847 0.150611 0.357305
-0.149812 0.150546 0.348576
-0.148848 0.150495 0.339887
-0.151179 0.150394 0.331093
-0.153471 0.150293 0.322312
-0.155726 0.150194 0.313544
-0.152099 0.150184 0.30497
-0.154279 0.150085 0.296222
-0.15642 0.149988 0.287487
-0.155341 0.149939 0.278854
-0.157426 0.149842 0.27014
-0.15632 0.149794 0.261521
-0.155564 0.149741 0.2529
-0.157532 0.149646 0.244217
-0.15946 0.149552 0.235546
-0.158281 0.149505 0.226957
-0.16015 0.149412 0.218306
-0.161978 0.14932 0.209667
-0.157792 0.149319 0.201161
-0.159542 0.149228 0.192539
-0.158277 0.149183 0.183984
-0.159967 0.149093 0.175381
-0.161615 0.149003 0.16679
-0.160302 0.148959 0.158256
-0.161888 0.148871 0.149684
-0.163432 0.148783 0.141122
-0.16207 0.14874 0.132609
-0.163551 0.148653 0.124066
-0.162159 0.148611 0.115566
-0.160371 0.148574 0.107075
-0.161728 0.148489 0.0985573
-0.163041 0.148406 0.0900494
-0.161569 0.148364 0.0815742
-0.162818 0.148282 0.0730835
-0.164023 0.1482 0.0646025
-0.162499 0.148159 0.0561465
-0.163638 0.148079 0.0476821
-0.164732 0.147999 0.0392272
-0.163155 0.147959 0.0307897
-0.164183 0.14788 0.0223508
-0.162574 0.147841 0.0139247
-0.163535 0.147763 0.00550157
0.441048 0.18165 1.44829
0.404981 0.180939 1.43311
0.373619 0.180312 1.41866
0.352784 0.179867 1.40571
0.329126 0.179374 1.39243
0.313297 0.179018 1.38025
0.300294 0.178711 1.36848
0.284553 0.178356 1.35639
0.268899 0.178003 1.34435
0.256027 0.177699 1.33271
0.240558 0.177351 1.32077
0.227815 0.177049 1.30922
0.220047 0.176834 1.29833
0.204914 0.176492 1.28654
0.192396 0.176196 1.27512
0.184836 0.175985 1.26434
0.17483 0.175732 1.25329
0.165036 0.175483 1.24229
0.157673 0.175277 1.23161
0.147754 0.175026 1.22065
0.138337 0.174785 1.20977
0.131204 0.174582 1.19919
0.124151 0.174382 1.18865
0.116385 0.174169 1.17804
0.107428 0.173936 1.16732
0.100579 0.17374 1.15687
0.0938192 0.173545 1.14645
0.0871525 0.173352 1.13606
0.0805817 0.173161 1.1257
0.0741096 0.172972 1.11538
0.0677389 0.172784 1.10509
0.0629249 0.172624 1.09499
0.0566856 0.172439 1.08475
0.0505538 0.172256 1.07454
0.0445322 0.172076 1.06437
0.0398188 0.171917 1.05435
0.0339399 0.171739 1.04423
0.0292736 0.171582 1.03426
0.0235417 0.171407 1.02419
0.0189242 0.171251 1.01425
0.0133436 0.171079 1.00424
0.00877689 0.170924 0.994345
0.00705213 0.170818 0.984747
-0.00116259 0.170601 0.974528
-0.00265165 0.1705 0.964982
-0.00771633 0.170337 0.955106
-0.0121367 0.170185 0.945308
-0.0165369 0.170034 0.93553
-0.0209167 0.169883 0.925769
-0.0217329 0.169793 0.916353
-0.0263458 0.169639 0.906601
-0.0306245 0.169491 0.896897
-0.0348815 0.169343 0.88721
-0.0391165 0.169195 0.877542
-0.0392286 0.169118 0.868249
-0.0433967 0.168971 0.858616
-0.047542 0.168826 0.849
-0.0516643 0.168681 0.839402
-0.0556801 0.168537 0.829828
-0.0597371 0.168394 0.820267
-0.0593501 0.168325 0.811085
-0.0633543 0.168183 0.801555
-0.0670184 0.168046 0.792069
-0.0709546 0.167904 0.782576
-0.0707073 0.167834 0.773424
-0.0741599 0.167701 0.763995
-0.0774634 0.167571 0.754592
-0.0771704 0.167502 0.745473
-0.0809697 0.167363 0.736058
-0.0840565 0.167237 0.726711
-0.0877833 0.1671 0.717331
-0.0866398 0.167045 0.708313
-0.0903082 0.166909 0.698963
-0.0930223 0.16679 0.689693
-0.0966156 0.166656 0.680377
-0.0962123 0.166589 0.671345
-0.0987023 0.166473 0.662128
-0.102207 0.166341 0.652856
-0.100583 0.166295 0.643932
-0.104026 0.166163 0.634688
-0.106134 0.166055 0.625543
-0.109498 0.165925 0.616331
-0.108988 0.16586 0.607371
-0.110866 0.165756 0.598274
-0.114136 0.165628 0.589105
-0.113584 0.165564 0.580174
-0.11523 0.165464 0.571124
-0.118404 0.165338 0.561997
-0.116111 0.165304 0.553189
-0.11922 0.165179 0.544088
-0.122297 0.165055 0.535002
-0.119821 0.165024 0.526226
-0.122831 0.164901 0.517165
-0.125809 0.164779 0.508119
-0.123151 0.164751 0.499372
-0.126061 0.164631 0.49035
-0.128937 0.164511 0.481344
-0.129665 0.164427 0.472453
-0.128904 0.164367 0.463641
-0.131677 0.164249 0.454673
-0.132166 0.164169 0.445821
-0.131356 0.164111 0.437035
-0.134025 0.163995 0.428104
-0.134275 0.163919 0.419288
-0.133415 0.163862 0.410527
-0.135978 0.163748 0.401632
-0.138506 0.163634 0.392751
-0.135078 0.16362 0.384115
-0.137533 0.163508 0.375255
-0.139952 0.163397 0.36641
-0.139001 0.163341 0.357698
-0.138686 0.163275 0.34897
-0.140995 0.163166 0.340158
-0.143267 0.163058 0.331359
-0.142247 0.163003 0.32268
-0.141633 0.162943 0.313993
-0.143793 0.162836 0.305227
-0.142719 0.162783 0.29657
-0.144823 0.162678 0.287825
-0.146889 0.162573 0.279093
-0.142781 0.162571 0.270542
-0.144771 0.162467 0.261828
-0.146722 0.162365 0.253127
-0.145549 0.162314 0.244514
-0.147442 0.162213 0.235833
-0.146243 0.162162 0.227234
-0.144912 0.162114 0.218644
-0.146687 0.162015 0.209992
-0.148423 0.161916 0.201352
-0.147148 0.161867 0.192781
-0.148824 0.16177 0.184161
-0.150458 0.161673 0.175551
-0.149136 0.161625 0.167002
-0.147354 0.161585 0.158465
-0.148868 0.16149 0.149882
-0.147487 0.161443 0.141351
-0.14894 0.16135 0.132786
-0.15035 0.161257 0.124232
-0.14892 0.161211 0.115721
-0.150268 0.16112 0.107185
-0.151572 0.161029 0.098659
-0.150092 0.160984 0.090168
-0.151333 0.160895 0.0816591
-0.152531 0.160806 0.0731599
-0.151 0.160762 0.0646881
-0.152133 0.160675 0.0562056
-0.153221 0.160588 0.0477326
-0.151639 0.160545 0.0392794
-0.152661 0.16046 0.0308226
-0.153639 0.160375 0.0223748
-0.152004 0.160333 0.0139397
-0.152915 0.16025 0.00550751
0.47655 0.196468 1.47373
0.433072 0.195563 1.45739
0.394052 0.194742 1.44177
0.373231 0.194263 1.42874
0.34959 0.193732 1.41537
0.333762 0.193347 1.40313
0.31299 0.192871 1.39025
0.297271 0.192489 1.3781
0.284335 0.192159 1.36636
0.268765 0.191781 1.35431
0.255935 0.191454 1.34265
0.248098 0.191221 1.33168
0.232817 0.190849 1.31977
0.220184 0.190526 1.30824
0.212529 0.190297 1.29738
0.197641 0.189933 1.28563
0.190151 0.189707 1.27484
0.177848 0.189392 1.26347
0.170497 0.18917 1.25275
0.162765 0.18894 1.24201
0.151167 0.188639 1.23082
0.144045 0.188421 1.2202
0.137003 0.188205 1.20961
0.129164 0.187974 1.19895
0.120251 0.187724 1.18819
0.113412 0.187512 1.1777
0.106662 0.187302 1.16723
0.100005 0.187094 1.1568
0.0934434 0.186888 1.14641
0.0869804 0.186684 1.13604
0.0806185 0.186482 1.12571
0.0757782 0.186308 1.11557
0.0695471 0.186109 1.10529
0.0614722 0.185876 1.09483
0.0553123 0.185678 1.0846
0.0526673 0.185546 1.07477
0.0467951 0.185354 1.06461
0.0410382 0.185164 1.05448
0.035399 0.184977 1.04438
0.0307656 0.184809 1.03441
0.0261493 0.18464 1.02446
0.0206952 0.184457 1.01443
0.0161293 0.18429 1.00452
0.0108326 0.18411 0.994549
0.00631895 0.183945 0.984674
0.0050923 0.183839 0.975137
0.000160022 0.183666 0.965254
-0.00425835 0.183503 0.955436
-0.00865718 0.18334 0.945638
-0.0133837 0.183171 0.935825
-0.0177251 0.18301 0.926066
-0.0220459 0.182849 0.916324
-0.0223356 0.182762 0.906966
-0.0265913 0.182602 0.89726
-0.0308518 0.182443 0.887569
-0.0350461 0.182284 0.877901
-0.0392183 0.182127 0.86825
-0.0390742 0.182048 0.858988
-0.0430944 0.181894 0.849379
-0.0469715 0.181742 0.839798
-0.0510286 0.181587 0.830217
-0.050833 0.181509 0.821002
-0.0545038 0.181362 0.81148
-0.0580285 0.181217 0.801985
