ply
format ascii 1.0
comment Created by Open3D
element vertex 1699
property double x
property double y
property double z
end_header
-0.191352 0.0124725 0.333109
-0.241063 0.0124637 0.300826
-0.188904 0.0124553 0.319371
-0.081247 0.0124505 0.364309
-0.431015 0.0124419 0.181977
-0.200515 0.0124376 0.288188
-0.0174446 0.0124291 0.372268
-0.180838 0.0124248 0.281533
-0.447057 0.0124164 0.14096
-0.0446926 0.0124081 0.334647
-0.296622 0.0124039 0.199668
-0.121059 0.0123956 0.279967
-0.167907 0.0123915 0.247505
-0.276625 0.0123833 0.185653
-0.340165 0.0123792 0.144846
-0.340281 0.0123711 0.137284
-0.262645 0.0123671 0.167064
-0.207069 0.0123591 0.187336
-0.124217 0.0123551 0.219723
-0.22162 0.0123472 0.163494
-0.0354761 0.0123393 0.249026
-0.553535 0.0123354 -0.0190458
-0.356052 0.0123277 0.072143
-0.181076 0.0123238 0.150586
0.012331 0.0123164 0.239634
-0.0905806 0.0123126 0.179128
-0.311476 0.0123051 0.0610933
-0.0973675 0.0123013 0.159095
-0.317971 0.0122939 0.0411901
-0.122908 0.0122902 0.129666
-0.567189 0.0122828 -0.100094
-0.099425 0.0122792 0.124728
-0.451761 0.0122719 -0.0590764
-0.239157 0.0122683 0.0381615
-0.229524 0.0122612 0.0353236
-0.25303 0.0122576 0.0145021
-0.300718 0.0122506 -0.0170143
-0.212299 0.0122436 0.0195076
-0.1121 0.0122402 0.0605297
0.350736 0.0272285 1.23249
0.198889 0.0271245 1.16004
0.434415 0.0270492 1.27719
0.421648 0.0269947 1.2672
0.0844929 0.0269403 1.09506
0.327337 0.0268861 1.21295
0.312852 0.0268402 1.20098
0.240644 0.0267863 1.16138
0.0892851 0.0267532 1.07917
0.0180484 0.0266997 1.04006
0.265451 0.026667 1.15725
0.0810143 0.0266219 1.06037
-0.071809 0.0265894 0.977459
0.0104238 0.0265571 1.01208
0.0811021 0.0265249 1.04093
0.140756 0.0264807 1.06612
-0.126359 0.0264488 0.926071
0.114673 0.0264172 1.0401
0.10477 0.0263858 1.02865
-0.239146 0.0263546 0.8502
0.0203018 0.0263305 0.972364
-0.0970802 0.0262995 0.907181
0.147977 0.0262688 1.02321
0.125735 0.0262384 1.00558
-0.182194 0.0262146 0.844097
-0.0521925 0.0261844 0.902586
0.221396 0.0261545 1.03286
0.22523 0.026131 1.02728
-0.171557 0.0261015 0.822355
0.0316124 0.0260722 0.917391
-0.151017 0.0260489 0.818606
-0.104878 0.02602 0.835115
-0.120905 0.0259914 0.820519
-0.0386003 0.025974 0.853346
-0.158343 0.0259517 0.78593
0.0232779 0.0259288 0.869303
-0.109121 0.025901 0.796489
-0.0210913 0.0258784 0.833077
-0.246117 0.0258509 0.713927
-0.0515982 0.0258397 0.801958
-0.195716 0.0258126 0.72324
-0.109202 0.0257904 0.759089
0.12877 0.0257637 0.871389
-0.241733 0.025746 0.678021
-0.285137 0.0257265 0.648522
0.0928302 0.0257046 0.830113
-0.125428 0.0256788 0.714238
0.0227045 0.025661 0.780274
0.0262545 0.0256426 0.774127
-0.118734 0.0256211 0.69425
0.162901 0.0255996 0.827688
-0.203985 0.0255855 0.635655
-0.239144 0.0255642 0.6107
-0.305177 0.0255399 0.570833
-0.37877 0.0255253 0.525585
-0.0283066 0.0255084 0.692758
0.0140044 0.0254847 0.707021
0.0527713 0.0254667 0.71856
-0.281308 0.0254535 0.542872
-0.200701 0.0254304 0.576239
-0.103014 0.0254124 0.617287
-0.172359 0.0253997 0.573931
-0.272983 0.0253771 0.516635
-0.188182 0.0253591 0.551288
-0.376973 0.0253468 0.448171
-0.164184 0.0253249 0.547529
-0.329622 0.0253068 0.457112
-0.141638 0.025295 0.542341
-0.106067 0.0252737 0.553035
-0.142999 0.0252574 0.526601
-0.139763 0.0252443 0.519729
0.226142 0.0252248 0.695306
-0.152539 0.0252139 0.497113
-0.244128 0.0251946 0.443939
-0.0169277 0.0251767 0.549943
-0.244447 0.025165 0.427495
-0.144185 0.025146 0.470237
-0.299784 0.0251366 0.383373
-0.414954 0.0251178 0.318398
-0.225065 0.0250991 0.405947
-0.148358 0.0250893 0.435345
-0.233742 0.0250708 0.385251
0.0595534 0.0250616 0.522843
-0.307515 0.0250433 0.331903
-0.0104991 0.0250251 0.473
-0.279703 0.0250159 0.329382
-0.210916 0.0249979 0.356355
-0.325881 0.0249889 0.289822
-0.562978 0.0249711 0.163848
-0.199352 0.0249535 0.338213
-0.288661 0.0249446 0.284528
-0.164123 0.0249271 0.339359
0.0652219 0.0249184 0.444987
-0.337119 0.0249011 0.236372
-0.143696 0.0248924 0.324041
-0.254435 0.0248753 0.261219
0.038546 0.0248582 0.400249
-0.0593842 0.0248498 0.342243
-0.388077 0.0248329 0.170428
0.107055 0.0248249 0.408879
-0.118292 0.0248083 0.288722
-0.429554 0.0248 0.124049
-0.115693 0.0247836 0.273485
-0.190837 0.0247672 0.228409
-0.302807 0.0247591 0.163381
-0.360755 0.024743 0.126893
-0.117123 0.024735 0.239665
-0.0388761 0.024719 0.271262
-0.287958 0.024712 0.137509
-0.00216232 0.0246962 0.272863
-0.16108 0.0246884 0.184355
-0.247175 0.0246728 0.13375
-0.251206 0.0246574 0.124165
-0.255287 0.0246498 0.113071
-0.0898678 0.0246345 0.188197
-0.390883 0.024627 0.028634
-0.166138 0.0246119 0.133408
-0.317163 0.0246045 0.0488365
-0.314477 0.0245896 0.0425659
-0.188659 0.0245823 0.0964125
-0.0545739 0.0245676 0.155825
-0.398164 0.0245604 -0.0250355
-0.251498 0.0245459 0.0406499
-0.173886 0.0245388 0.0703863
-0.289831 0.0245245 0.00474863
-0.0274621 0.0245174 0.126859
-0.282825 0.0245034 -0.0085061
-0.248807 0.0244895 0.000805077
-0.136523 0.0244826 0.0478634
0.41485 0.0410062 1.28379
0.0626983 0.0408631 1.10977
0.204559 0.040738 1.18111
0.278088 0.0406249 1.21719
0.31566 0.0405431 1.23233
0.123295 0.0404615 1.13252
-0.0322808 0.0403923 1.04995
0.168841 0.0403112 1.14694
-0.016992 0.0402304 1.05045
0.261338 0.0401808 1.18304
0.137255 0.0401126 1.11628
0.093483 0.0400633 1.08783
-0.132748 0.0399841 0.97116
0.18536 0.0399354 1.12366
0.0581674 0.039887 1.05352
0.170781 0.0398499 1.10217
-0.116901 0.0397725 0.954748
0.203871 0.0397249 1.10859
-0.284687 0.0396882 0.8567
0.131642 0.039641 1.05833
-0.08441 0.0395942 0.943767
0.212672 0.0395476 1.08576
-0.0260956 0.0395014 0.959828
0.00125324 0.0394653 0.965948
-0.00436102 0.0394196 0.95659
-0.144627 0.0393742 0.879895
0.117688 0.0393292 1.00448
-0.0652062 0.0392936 0.905515
-0.132073 0.0392491 0.8655
-0.0252552 0.0392051 0.912311
0.148536 0.0391698 0.991715
-0.155673 0.0391263 0.833002
-0.31122 0.0390833 0.748599
-0.0878187 0.0390484 0.85283
-0.0651067 0.0390137 0.856722
-0.182093 0.0389887 0.789766
-0.0652642 0.0389467 0.84152
-0.160577 0.0389124 0.786419
0.152792 0.0388711 0.936422
-0.0906294 0.0388303 0.808001
-0.117847 0.0388032 0.786239
-0.102227 0.0387795 0.785536
-0.0632371 0.0387394 0.798303
-0.0820085 0.0386999 0.782156
-0.24805 0.0386665 0.691722
-0.0609909 0.0386499 0.776044
-0.0959721 0.0386111 0.751767
0.0620815 0.0385781 0.823393
-0.249413 0.0385401 0.660825
-0.16043 0.0385237 0.696133
0.0265431 0.0384863 0.782766
-0.139059 0.0384539 0.692575
-0.16646 0.0384216 0.671486
0.107035 0.0384011 0.799567
-0.0740269 0.0383691 0.701652
-0.129264 0.0383332 0.667102
-0.366098 0.0383174 0.539538
-0.312142 0.0382858 0.559138
-0.146282 0.0382508 0.635094
-0.0618666 0.0382231 0.669524
-0.147918 0.0382008 0.618126
-0.21824 0.0381699 0.575588
-0.213959 0.0381421 0.57
-0.108932 0.038121 0.614055
-0.0164573 0.0380904 0.652915
-0.143579 0.0380627 0.581677
-0.208733 0.0380427 0.54055
-0.370632 0.0380126 0.452221
-0.0411484 0.0379848 0.609336
0.0207374 0.037966 0.631632
-0.144199 0.0379363 0.541782
-0.211763 0.0379215 0.498908
-0.193887 0.0378921 0.500465
-0.12853 0.0378629 0.525761
-0.00260984 0.0378471 0.579779
-0.101056 0.0378181 0.523169
-0.172397 0.0377893 0.480108
-0.364686 0.0377743 0.374972
-0.330133 0.0377458 0.384852
-0.208115 0.0377316 0.436789
-0.488688 0.0377031 0.28913
-0.241299 0.0376752 0.405399
-0.155017 0.0376611 0.439491
-0.354115 0.0376333 0.332533
-0.276538 0.0376058 0.363903
-0.0748192 0.037592 0.455706
-0.285054 0.0375646 0.343176
-0.0603928 0.0375509 0.446452
-0.101727 0.0375239 0.418357
-0.342822 0.037497 0.290383
-0.257205 0.0374836 0.324139
-0.293854 0.0374569 0.298383
-0.547205 0.0374436 0.162658
-0.396467 0.0374179 0.230506
-0.236212 0.0374048 0.301584
-0.352905 0.0373787 0.235788
-0.170367 0.0373528 0.3196
-0.210949 0.0373399 0.290261
-0.310707 0.0373155 0.232761
-0.214088 0.0373028 0.272022
-0.133413 0.0372775 0.30488
-0.339217 0.0372523 0.194492
-0.0830601 0.0372398 0.313521
-0.116536 0.037215 0.289287
-0.200248 0.0372026 0.238383
-0.282619 0.037178 0.189691
-0.153352 0.0371677 0.245032
-0.139474 0.0371434 0.244448
-0.296278 0.0371314 0.156994
-0.126293 0.0371074 0.234452
-0.338058 0.0370836 0.121025
-0.154164 0.0370718 0.203918
-0.244833 0.0370483 0.151026
-0.473867 0.0370366 0.0274528
-0.200412 0.0370133 0.156611
-0.0224985 0.0370018 0.23651
-0.232093 0.0369788 0.124129
0.155505 0.0369561 0.310332
-0.172997 0.0369476 0.136659
-0.286945 0.0369251 0.0720688
-0.0268813 0.036914 0.193032
-0.249486 0.0368919 0.074097
-0.12212 0.0368809 0.128708
-0.248184 0.0368591 0.0580272
-0.0719714 0.0368482 0.137057
-0.183692 0.0368267 0.0735318
-0.146143 0.036816 0.083226
-0.243312 0.0367947 0.0269586
-0.268443 0.0367842 0.0053086
-0.125107 0.0367632 0.0692753
-0.0787695 0.0367425 0.0847279
-0.26813 0.0367322 -0.0190461
0.135203 0.0547451 1.16232
0.356694 0.0545376 1.27622
0.188125 0.0543867 1.19112
0.103058 0.0542519 1.14667
0.396066 0.0541428 1.28946
0.235143 0.0540339 1.20532
0.328655 0.0539254 1.24842
0.287971 0.0538173 1.22443
-0.0375787 0.0537508 1.05502
0.317677 0.0536592 1.22787
0.13168 0.0535526 1.13125
0.184778 0.053487 1.15119
-0.043489 0.0534217 1.03046
0.0677064 0.0533318 1.08131
0.294291 0.0532672 1.18802
-0.00803275 0.0532029 1.03027
0.148231 0.053139 1.10182
-0.00459865 0.0530508 1.02067
0.233615 0.0529877 1.13318
0.28115 0.052925 1.15036
-0.191097 0.0528628 0.907637
0.208022 0.052814 1.0996
0.0787811 0.0527524 1.02839
0.0529156 0.0526912 1.00885
-0.204962 0.0526306 0.8733
0.134667 0.0525824 1.03556
0.163982 0.0525224 1.0436
0.0288065 0.052463 0.969384
-0.018481 0.0524153 0.938218
-0.000297555 0.0523566 0.940669
-0.124056 0.0522984 0.872132
0.184266 0.0522513 1.01879
0.171437 0.0521939 1.00571
0.122642 0.0521371 0.974618
0.149003 0.0521006 0.979529
-0.0354173 0.0520542 0.879849
-0.175361 0.0520114 0.802139
-0.0143914 0.0519561 0.875896
-0.0639757 0.0519015 0.844349
-0.0436497 0.0518558 0.847063
-0.114122 0.0518104 0.804385
0.172911 0.0517794 0.939313
-0.120899 0.0517264 0.785604
-0.0929983 0.0516815 0.792126
-0.0719927 0.0516294 0.795794
0.0458744 0.0515921 0.846719
-0.158278 0.0515627 0.736014
0.217586 0.0515117 0.917085
-0.0516455 0.0514614 0.775571
-0.0140367 0.0514238 0.786457
-0.0361309 0.0513958 0.766727
-0.236639 0.0513466 0.659541
-0.0934638 0.0513033 0.723729
-0.0733619 0.0512658 0.725921
0.0378875 0.0512337 0.773261
-0.178993 0.0511909 0.657428
-0.194442 0.0511484 0.642313
-0.23832 0.0511227 0.611596
-0.180584 0.0510765 0.633411
-0.167914 0.0510346 0.632356
-0.038235 0.0510137 0.688053
-0.172882 0.0509687 0.613629
-0.0830071 0.0509274 0.651179
0.0893933 0.0508894 0.729718
-0.191412 0.050863 0.580696
-0.304049 0.0508222 0.516991
0.186301 0.0507842 0.754557
-0.110797 0.0507593 0.597294
-0.131693 0.0507191 0.579458
-0.0522406 0.050699 0.610075
-0.268399 0.0506577 0.494735
-0.249607 0.0506181 0.496739
-0.258207 0.0505983 0.483339
-0.103303 0.0505583 0.553469
-0.434052 0.0505199 0.380635
-0.0388963 0.0504998 0.569182
-0.179935 0.0504611 0.491266
-0.323081 0.0504226 0.412295
-0.301843 0.0504034 0.413831
-0.198336 0.0503653 0.458186
-0.195218 0.0503273 0.452342
-0.0775151 0.0503084 0.502119
-0.00714978 0.0502711 0.529878
-0.0761395 0.0502524 0.486311
0.00825919 0.0502152 0.521099
-0.30221 0.0501782 0.35845
0.142499 0.0501598 0.571738
-0.386272 0.0501241 0.299844
-0.345381 0.0501059 0.311225
-0.395677 0.0500697 0.278649
-0.103811 0.0500337 0.417149
-0.452912 0.0500158 0.233539
-0.180223 0.0499819 0.362283
-0.384394 0.0499642 0.251137
-0.153184 0.0499289 0.359292
-0.0545848 0.0498939 0.401136
-0.163249 0.0498765 0.337747
-0.0798797 0.0498444 0.371732
0.0860731 0.0498272 0.445651
-0.0918528 0.049793 0.349212
-0.260451 0.049759 0.257429
-0.263412 0.0497421 0.246892
-0.391059 0.0497084 0.175577
-0.367088 0.0496917 0.178507
-0.123656 0.0496619 0.292398
-0.26829 0.0496454 0.211022
-0.411984 0.0496126 0.131659
-0.246146 0.04958 0.207052
-0.0647343 0.0495638 0.288699
-0.182841 0.0495315 0.222109
-0.25157 0.0495155 0.178685
-0.122626 0.0494836 0.23561
-0.246529 0.0494678 0.164598
-0.208026 0.0494408 0.175864
-0.25811 0.0494096 0.143245
-0.126531 0.0493941 0.199967
-0.166604 0.0493633 0.17234
-0.186073 0.049348 0.153537
-0.403187 0.0493176 0.0373763
-0.207508 0.0493025 0.126144
-0.0895978 0.0492725 0.177481
-0.31373 0.0492427 0.0577849
-0.13069 0.0492279 0.140228
-0.227211 0.0491985 0.0843218
0.0444861 0.0491839 0.21109
-0.261614 0.0491549 0.0503782
-0.0431766 0.0491405 0.150513
-0.249059 0.0491119 0.0398935
-0.293511 0.0490977 0.00857946
-0.218489 0.0490695 0.0383944
-0.229552 0.0490555 0.0237704
-0.178111 0.0490277 0.0417763
-0.0304138 0.0490139 0.106528
-0.12071 0.0489865 0.0536462
0.360144 0.06852 1.29315
0.22653 0.0682601 1.22942
0.0722206 0.0680913 1.15024
0.294604 0.0679345 1.25877
0.378451 0.067766 1.29876
-0.0258224 0.0676299 1.09288
0.23139 0.0674943 1.21776
0.0469538 0.0674108 1.11885
-0.131872 0.0672957 1.0246
0.116782 0.0671618 1.14524
0.316614 0.0670793 1.23849
0.163184 0.0669657 1.15698
0.268302 0.066884 1.2029
0.271014 0.0668027 1.19762
0.0271698 0.0666726 1.07197
-0.0385794 0.0666102 1.03141
0.0875761 0.0665302 1.08786
0.0379038 0.0664507 1.05639
0.17757 0.0663718 1.11959
-0.0370324 0.0662625 1.00751
-0.0908458 0.0661847 0.973959
0.00931012 0.0661074 1.01739
-0.022122 0.0660307 0.995014
0.261408 0.0659698 1.12919
-0.0247561 0.065894 0.979451
-0.0946393 0.0658188 0.93784
0.093859 0.0657442 1.0254
0.0481928 0.0656841 0.995023
-0.029879 0.0656104 0.949296
0.101201 0.0655375 1.00813
-0.0855028 0.065478 0.907252
-0.0360798 0.065406 0.925242
-0.0573279 0.0653347 0.907876
-0.114857 0.0652883 0.870846
-0.260587 0.0652297 0.790488
-0.126624 0.0651766 0.849656
-0.281673 0.0651072 0.765356
-0.184692 0.0650493 0.806373
-0.00898681 0.064981 0.887429
-0.0131581 0.0649135 0.878518
-0.0299358 0.0648664 0.862035
-0.0272061 0.0648184 0.855372
0.036924 0.0647617 0.87999
-0.247104 0.0646963 0.731098
-0.131882 0.06464 0.781269
-0.200385 0.0645927 0.739025
0.0240842 0.0645479 0.843112
-0.315722 0.0644848 0.66627
-0.00496804 0.0644294 0.814222
-0.12489 0.0643743 0.746841
-0.200992 0.06434 0.700027
0.174494 0.0642853 0.880356
-0.00705399 0.0642248 0.782572
-0.0535647 0.0641766 0.75151
-0.313066 0.0641382 0.613327
-0.318634 0.0640845 0.603137
-0.0689567 0.064031 0.720573
-0.344824 0.0639829 0.574895
0.0002245 0.0639466 0.738903
-0.258859 0.0638899 0.602224
-0.0526633 0.0638413 0.697665
0.142096 0.0638113 0.78615
-0.137879 0.0637561 0.638977
-0.23408 0.0637073 0.583274
-0.173534 0.0636761 0.604774
-0.222303 0.0636248 0.572991
-0.289539 0.0635737 0.531975
-0.257485 0.0635467 0.538981
-0.21394 0.0634961 0.553355
-0.0429393 0.0634457 0.631456
-0.160626 0.0634199 0.563547
-0.402944 0.06337 0.434986
0.114227 0.0633209 0.686129
-0.201163 0.0632957 0.519365
-0.238756 0.0632464 0.493168
-0.146978 0.0631975 0.531656
-0.128837 0.0631731 0.531628
-0.0984053 0.0631245 0.539443
-0.567689 0.0630762 0.297399
0.142328 0.0630527 0.643281
-0.191903 0.0630049 0.468758
-0.253426 0.0629574 0.430585
-0.189303 0.0629337 0.453563
-0.152444 0.0628881 0.464477
-0.138666 0.0628647 0.462285
-0.186985 0.062818 0.430706
-0.180346 0.0627717 0.426602
-0.171956 0.062751 0.421553
-0.357459 0.0627052 0.321369
-0.315311 0.0626824 0.333369
-0.249356 0.0626369 0.358911
-0.158795 0.0625951 0.396511
-0.329565 0.0625727 0.302054
-0.267695 0.0625281 0.325537
-0.178783 0.0624838 0.362535
-0.0865074 0.0624617 0.399605
-0.166086 0.0624222 0.352037
-0.292589 0.0624004 0.279717
-0.326785 0.062357 0.255143
-0.095886 0.062314 0.36311
-0.0856282 0.0622925 0.359173
-0.455374 0.0622499 0.16681
-0.271509 0.0622287 0.249678
-0.249657 0.062192 0.252701
-0.11684 0.062171 0.310043
-0.129412 0.0621294 0.296244
-0.340444 0.0620881 0.183206
-0.366103 0.0620675 0.161309
-0.125682 0.0620266 0.273989
-0.378616 0.0620063 0.138456
-0.412892 0.0619724 0.11328
-0.136613 0.0619324 0.243861
-0.111968 0.0619125 0.247111
-0.14784 0.0618729 0.221606
-0.46727 0.0618532 0.0528184
-0.218361 0.0618141 0.169692
-0.14062 0.0617947 0.199488
-0.0838082 0.0617561 0.2203
-0.372181 0.0617177 0.0685092
-0.106154 0.0616987 0.192445
-0.174954 0.0616608 0.150427
-0.20342 0.06165 0.126499
-0.0416524 0.0616127 0.199742
-0.187036 0.0615941 0.117964
-0.0104775 0.0615573 0.198588
-0.402239 0.0615208 -0.00496111
-0.30662 0.0615027 0.0337556
-0.343817 0.0614667 0.00747348
-0.0456281 0.0614488 0.147471
-0.221208 0.0614132 0.0519807
-0.104246 0.0613956 0.101361
-0.167298 0.0613606 0.0621168
-0.158146 0.0613432 0.0575881
-0.0768642 0.0613086 0.0904928
-0.234245 0.0612914 0.00269274
0.00820395 0.0612574 0.116162
0.146709 0.0827405 1.19736
0.327416 0.0823703 1.29333
0.444851 0.0820817 1.35392
0.42156 0.0818788 1.34018
0.319314 0.0816519 1.28815
0.24677 0.081488 1.24805
0.199458 0.0813246 1.22059
-0.00633244 0.0811617 1.1139
0.219866 0.0810229 1.22211
-0.0181857 0.0808615 1.09931
0.17997 0.0807621 1.19168
0.134185 0.0806248 1.16393
0.425752 0.0805262 1.30302
0.0722649 0.0803683 1.1225
0.298285 0.080271 1.22882
0.0786658 0.0801953 1.11128
-0.0498427 0.0800402 1.04323
0.128267 0.0799446 1.1256
0.189462 0.0798496 1.14951
0.253313 0.0797749 1.17377
-0.0646334 0.0796807 1.00811
-0.0723323 0.0795872 0.997581
0.016382 0.0794574 1.03709
0.103985 0.0793654 1.07419
-0.099417 0.0792741 0.96578
-0.165505 0.0792009 0.925139
-0.0736233 0.0791106 0.964366
-0.188565 0.0790211 0.900167
0.0387875 0.0789324 1.0071
0.109085 0.0788602 1.03469
-0.0526824 0.0787726 0.947055
0.0131563 0.0787009 0.972433
0.166599 0.0786145 1.04239
0.100295 0.0785433 1.00171
0.124897 0.0784724 1.0065
-0.0500997 0.078409 0.91111
0.0280833 0.0783255 0.943378
-0.0666863 0.0782553 0.888496
0.0287968 0.0781731 0.929394
-0.0146646 0.0780918 0.900791
-0.0480628 0.0780342 0.876001
0.0666172 0.0779651 0.92587
-0.204855 0.0779082 0.782036
-0.0465159 0.0778295 0.854284
0.122037 0.0777613 0.931102
-0.0246347 0.0776933 0.850312
-0.0752131 0.0776256 0.817575
-0.120926 0.0775739 0.786432
-0.0170716 0.0775068 0.830917
-0.0391902 0.0774321 0.812841
-0.28667 0.0773734 0.681248
-0.257843 0.0773255 0.687236
-0.0843379 0.0772595 0.766559
0.0449763 0.0771876 0.824125
-0.0461755 0.0771283 0.770792
0.113513 0.0770897 0.841767
-0.122393 0.0770195 0.716684
-0.116364 0.0769549 0.71228
-0.00629042 0.0768957 0.759624
-0.158352 0.0768543 0.67493
-0.0692638 0.0767906 0.712062
-0.14621 0.0767271 0.666179
0.0746651 0.0766921 0.767638
-0.188421 0.0766267 0.628828
-0.147067 0.0765666 0.641958
0.0165327 0.076533 0.714739
-0.109469 0.0764694 0.64442
-0.23543 0.0764077 0.574029
-0.301994 0.0763477 0.533261
-0.186855 0.0763152 0.5818
0.00199681 0.0762544 0.668814
-0.0920491 0.0761942 0.614361
-0.210947 0.0761637 0.545803
-0.005809 0.0761037 0.640965
0.0178714 0.0760439 0.645397
-0.290215 0.0760142 0.482238
-0.0432418 0.0759549 0.598319
-0.0276275 0.0758969 0.598666
-0.107417 0.0758676 0.549662
-0.153806 0.0758092 0.519057
-0.191487 0.075782 0.491004
-0.323998 0.0757242 0.417332
-0.152027 0.0756668 0.495898
-0.268037 0.0756382 0.428798
-0.0385975 0.0755842 0.53592
0.0817911 0.0755277 0.588685
-0.127309 0.0754995 0.475044
-0.336628 0.0754435 0.362955
-0.264211 0.0753919 0.391481
-0.144363 0.0753643 0.442318
-0.0121785 0.0753092 0.500967
-0.0983128 0.0752817 0.448817
-0.277257 0.0752324 0.351582
-0.109063 0.0751782 0.428221
-0.325375 0.0751513 0.310985
-0.341616 0.0750976 0.295403
-0.313465 0.0750709 0.300401
-0.278632 0.0750243 0.309957
0.0798333 0.0749716 0.48171
-0.511908 0.0749454 0.176762
-0.12569 0.0748932 0.362386
-0.0396131 0.0748414 0.397933
0.0381907 0.0748234 0.427287
-0.00123896 0.0747722 0.400066
-0.36606 0.0747467 0.208579
-0.197217 0.0746961 0.285487
-0.310104 0.0746458 0.221523
0.0518572 0.0746208 0.393428
-0.14229 0.0745801 0.288263
-0.286137 0.0745554 0.20726
-0.0312736 0.0745063 0.327146
-0.278192 0.0744575 0.196132
0.0791485 0.0744333 0.365722
-0.339166 0.0743851 0.149
-0.211808 0.0743611 0.2036
-0.275238 0.0743135 0.164309
-0.217335 0.0742662 0.185676
-0.344826 0.0742532 0.112177
-0.152893 0.0742066 0.200538
-0.0875405 0.0741834 0.224127
-0.000591549 0.0741374 0.259984
-0.281221 0.0741145 0.11058
-0.324587 0.074069 0.0812661
0.00398067 0.0740238 0.237908
-0.378514 0.0740014 0.0375664
-0.267382 0.0739569 0.0854764
-0.146873 0.0739347 0.136634
-0.15756 0.0738907 0.12362
-0.127589 0.0738689 0.129506
-0.199016 0.0738255 0.0861059
-0.386361 0.0737824 -0.0152658
0.0606457 0.0737611 0.199131
-0.079168 0.0737186 0.121508
-0.196692 0.0736975 0.0536363
-0.359969 0.0736557 -0.035736
-0.344245 0.0736349 -0.0369882
-0.229876 0.0735936 0.0124449
-0.224403 0.0735731 0.00606216
-0.0925228 0.0735324 0.0642317
0.488839 0.0967303 1.38401
0.22023 0.0962256 1.25811
0.228779 0.0959158 1.26308
0.314175 0.095651 1.30474
0.317849 0.0954593 1.30264
0.420171 0.0951951 1.35286
0.202409 0.0950771 1.23716
0.0728496 0.0949141 1.16742
0.135878 0.0947246 1.1951
0.43879 0.0945361 1.34272
0.333337 0.09442 1.28323
0.242261 0.0942594 1.23279
0.134291 0.0940741 1.17497
0.148548 0.0939598 1.17536
-0.19226 0.0938709 0.99719
-0.0386342 0.0936888 1.07015
0.0468431 0.0935764 1.10616
0.444845 0.0934647 1.29843
0.0126174 0.0933329 1.07646
0.227375 0.0931996 1.17807
-0.0537254 0.0930902 1.03078
0.0219862 0.0930032 1.06097
0.432193 0.0928948 1.25934
-0.250096 0.0927873 0.91145
0.24678 0.0926806 1.15313
0.0458065 0.0925721 1.046
-0.0720129 0.0924662 0.980355
-0.0151546 0.0923611 1.00204
0.15825 0.0922761 1.08115
-0.0391899 0.0921723 0.975679
-0.0882198 0.0920695 0.944395
-0.289496 0.0919853 0.836198
-0.270458 0.0919087 0.837848
-0.116506 0.0918087 0.907998
-0.135496 0.0917098 0.891656
-0.127089 0.0916269 0.88833
0.150959 0.0915295 1.02049
0.0098797 0.0914331 0.943057
0.146123 0.0913512 1.00367
0.157652 0.0912696 1.00193
-0.136302 0.0911882 0.84746
0.135042 0.0911223 0.974963
0.10372 0.09103 0.952335
-0.0830183 0.0909497 0.851485
0.0839366 0.0908696 0.927487
-0.108568 0.0907899 0.823766
0.0196924 0.0907104 0.880434
-0.231721 0.0906509 0.746372
-0.195926 0.0905634 0.757211
-0.0876451 0.090485 0.803896
-0.193158 0.0904154 0.743299
0.0823705 0.0903603 0.872569
-0.0675707 0.090276 0.790468
0.0803514 0.090199 0.856986
-0.0303993 0.0901287 0.793868
-0.0694667 0.0900783 0.765688
-0.136352 0.0900021 0.724811
0.117851 0.0899263 0.844483
-0.151301 0.0898507 0.70248
-0.069286 0.089805 0.734678
-0.24753 0.0897302 0.638127
-0.39146 0.0896557 0.558736
0.0376536 0.0895849 0.765714
-0.0458581 0.0895423 0.715053
-0.0667942 0.0894688 0.697163
-0.186943 0.0894308 0.627988
-0.195329 0.089358 0.616374
-0.428256 0.0892852 0.492506
-0.264269 0.0892133 0.567067
-0.128883 0.0891773 0.625614
-0.115037 0.0891057 0.62512
-0.206571 0.0890346 0.571933
-0.173752 0.0889991 0.579202
0.0774984 0.0889285 0.697414
-0.161197 0.0888596 0.570586
-0.119623 0.0888246 0.582243
-0.118999 0.088755 0.575138
-0.0319445 0.0886883 0.611122
-0.0547112 0.0886539 0.590616
-0.202039 0.0885853 0.50953
-0.22044 0.0885208 0.49272
-0.036477 0.0884869 0.575586
-0.305778 0.0884194 0.433507
-0.0207798 0.0883572 0.568327
-0.286208 0.0883239 0.426503
0.0144469 0.0882574 0.569392
-0.392479 0.0881913 0.358489
-0.362372 0.0881584 0.364441
-0.0886058 0.0880993 0.49356
-0.12254 0.0880667 0.467493
-0.12705 0.0880019 0.457788
0.0545094 0.0879451 0.540726
-0.146284 0.0879131 0.431232
0.0834535 0.0878494 0.538636
0.0270224 0.0877861 0.502952
-0.119837 0.0877546 0.420431
0.0183692 0.0877009 0.481596
-0.118754 0.0876698 0.403943
-0.132254 0.0876078 0.389709
-0.226379 0.0875462 0.335156
-0.361364 0.0875155 0.258576
-0.133924 0.087465 0.364256
-0.0962805 0.0874045 0.375568
-0.233031 0.0873745 0.298104
-0.290633 0.0873146 0.261787
-0.0409104 0.0872552 0.379126
-0.156242 0.0872375 0.311746
-0.0740681 0.0871788 0.345295
-0.390485 0.0871496 0.177996
-0.36569 0.0870915 0.182848
-0.266965 0.0870339 0.224657
-0.34329 0.0870052 0.177405
-0.22813 0.0869482 0.227422
-0.474239 0.0869198 0.095279
-0.289934 0.086877 0.179126
-0.452273 0.086849 0.0888622
-0.0783411 0.0867934 0.268237
-0.200458 0.0867382 0.199578
-0.240172 0.0867107 0.170625
-0.0917707 0.0866562 0.237214
-0.242271 0.086629 0.152868
-0.184467 0.0865751 0.174146
-0.110689 0.0865216 0.2034
0.0286033 0.0865104 0.2631
-0.0470842 0.0864577 0.2176
0.016508 0.0864315 0.240289
-0.194041 0.0863795 0.127344
0.0900798 0.0863278 0.261723
-0.226522 0.0863022 0.0943108
-0.242641 0.0862512 0.0785545
0.123134 0.0862259 0.252328
-0.189519 0.0861756 0.0882892
-0.181505 0.0861506 0.0831779
-0.268124 0.086101 0.0321403
-0.175835 0.0860518 0.0705438
-0.0638883 0.0860274 0.117392
-0.11944 0.0859789 0.0818574
-0.102371 0.0859548 0.081262
-0.189376 0.085907 0.0299829
-0.493784 0.0858833 -0.131355
-0.182067 0.0858361 0.0167079
0.344587 0.110779 1.32752
0.440494 0.110202 1.38373
0.28711 0.109847 1.30765
-0.0420681 0.109544 1.14194
0.295732 0.109325 1.30685
0.32042 0.109106 1.31523
0.303207 0.108836 1.30453
0.466131 0.108619 1.38207
0.126429 0.108484 1.20539
0.0895038 0.108299 1.18196
0.30673 0.108084 1.28668
0.209101 0.107952 1.23108
0.0772149 0.107769 1.16019
0.140135 0.107638 1.18488
0.111381 0.107428 1.16659
0.256439 0.107299 1.23234
0.291577 0.10717 1.24314
0.0172368 0.106992 1.10104
0.0217814 0.106865 1.09653
0.141136 0.106739 1.14943
-0.0176117 0.106639 1.06235
0.0751473 0.106464 1.10381
0.131695 0.10634 1.1253
0.279818 0.106217 1.19257
-0.101657 0.106095 0.995034
-0.0394607 0.105974 1.01932
-0.0136323 0.105854 1.02541
0.0162725 0.105756 1.03274
0.0738948 0.105638 1.05473
0.146097 0.105521 1.08398
0.151344 0.105424 1.07901
-0.158778 0.105308 0.917095
-0.0645503 0.105193 0.957332
0.095722 0.10508 1.03057
-0.208923 0.104984 0.870689
0.136483 0.104873 1.03648
0.0143102 0.104778 0.967848
-0.000480547 0.104683 0.952919
0.158328 0.104589 1.0248
0.0202254 0.104512 0.947566
0.0401005 0.104405 0.950521
-0.072519 0.104312 0.886701
0.0500912 0.104206 0.940997
-0.0163812 0.104114 0.900262
-0.299299 0.104022 0.751312
-0.0983228 0.10393 0.844315
0.0215861 0.103863 0.895846
0.00281357 0.103762 0.879359
-0.259388 0.103672 0.740781
-0.233649 0.103591 0.745811
0.139624 0.103528 0.923887
-0.0233128 0.103432 0.835248
-0.13659 0.103343 0.771147
-0.304264 0.103254 0.679853
-0.20688 0.103204 0.719551
-0.164634 0.103111 0.733427
-0.0503619 0.103023 0.78311
-0.0465075 0.102936 0.777588
-0.0381591 0.102854 0.774131
-0.00434105 0.102803 0.782163
-0.0544025 0.102714 0.749795
-0.225768 0.102631 0.656571
-0.0852716 0.102585 0.717774
-0.134087 0.1025 0.685925
-0.0632329 0.102415 0.713914
-0.0984364 0.102332 0.688839
-0.149029 0.102289 0.654401
0.0158648 0.102206 0.729418
-0.24462 0.102123 0.591749
-0.16194 0.102082 0.623903
-0.274803 0.102 0.560044
-0.201166 0.10192 0.58936
-0.152123 0.101879 0.604725
-0.0468217 0.101798 0.649948
0.0250383 0.10172 0.678316
-0.34195 0.10168 0.485675
-0.0604009 0.1016 0.619019
-0.0613035 0.101525 0.610943
-0.133317 0.101485 0.565798
-0.195012 0.101406 0.527516
-0.153689 0.101334 0.540487
-0.255277 0.101295 0.480562
-0.295053 0.101217 0.453233
-0.109947 0.10114 0.538343
-0.255408 0.101108 0.45617
-0.0136438 0.101032 0.569603
0.00419156 0.100956 0.571069
-0.0359186 0.100927 0.541513
-0.0993298 0.100852 0.502348
-0.299619 0.100777 0.394741
-0.320718 0.10074 0.37508
-0.204459 0.100676 0.425288
-0.458213 0.100602 0.290936
-0.0766029 0.100566 0.472632
-0.00792997 0.100493 0.499492
0.0822111 0.100468 0.534929
-0.230966 0.100396 0.370852
-0.122089 0.100324 0.417798
-0.459591 0.100289 0.239944
0.00550895 0.100218 0.464998
-0.153292 0.100161 0.377481
-0.240393 0.100126 0.324827
-0.0744426 0.100056 0.400288
-0.232648 0.0999869 0.313664
-0.171594 0.0999524 0.335092
-0.0108469 0.0998991 0.407242
-0.0653402 0.0998651 0.370893
-0.189146 0.0997974 0.301448
-0.23437 0.0997301 0.271287
-0.479498 0.0996967 0.139623
0.024859 0.099647 0.383464
-0.240861 0.0995811 0.243031
-0.000213688 0.0995483 0.35425
-0.261097 0.0994831 0.216228
-0.251407 0.0994507 0.211968
0.0465465 0.0993862 0.353355
-0.280341 0.0993222 0.182312
-0.0740654 0.0992904 0.276345
-0.426397 0.0992459 0.0916792
-0.258557 0.0992145 0.166489
-0.238317 0.0991521 0.168979
0.19786 0.0990902 0.379429
-0.170028 0.0990594 0.186372
-0.0547514 0.0989982 0.236359
-0.335043 0.0989678 0.0870998
-0.320444 0.0989074 0.0867356
-0.34147 0.0988474 0.068548
-0.297561 0.0988176 0.0813848
-0.23038 0.0987584 0.107287
-0.426013 0.098729 0.000350514
-0.0329018 0.0986918 0.188171
-0.0854737 0.098634 0.154162
-0.157974 0.0986052 0.10878
-0.28911 0.0985482 0.0354731
-0.0628697 0.0985198 0.139458
-0.341147 0.0984635 -0.00743556
-0.0919492 0.0984077 0.109395
-0.176508 0.09838 0.0579736
-0.249126 0.098325 0.0138793
-0.297803 0.0982977 -0.0196056
-0.152319 0.0982434 0.0453336
-0.0928115 0.0982165 0.065936
-0.0359253 0.098163 0.0865575
0.507951 0.124978 1.42208
0.408791 0.124331 1.38055
0.335928 0.123932 1.34462
0.525453 0.123497 1.44107
0.486605 0.12325 1.41759
0.139535 0.123003 1.24003
0.0702122 0.122699 1.2032
0.336959 0.122454 1.33259
0.106053 0.122303 1.21026
0.261373 0.122094 1.2829
0.0184679 0.121853 1.15749
0.313568 0.121645 1.30005
0.367127 0.121497 1.32
0.366689 0.12126 1.31581
0.191775 0.121113 1.22152
0.240703 0.120968 1.23917
0.0907947 0.120766 1.15923
0.242823 0.120622 1.22843
-0.0622349 0.120479 1.06908
0.00911867 0.12028 1.09977
0.241982 0.120139 1.20937
-0.0754674 0.119999 1.04381
0.0735605 0.119887 1.11062
0.239612 0.119748 1.18681
-0.124646 0.119606 0.998002
0.0121261 0.119443 1.06041
0.118781 0.119308 1.10689
0.0866476 0.119173 1.08396
-0.1143 0.11904 0.976613
0.0507591 0.11893 1.05152
0.0017928 0.118799 1.02016
0.114134 0.118668 1.06942
-0.166614 0.118559 0.921457
-0.0722315 0.118431 0.961735
-0.114537 0.118323 0.933006
0.238728 0.118232 1.10149
0.0359472 0.118089 0.993759
-0.196079 0.118001 0.869551
0.437626 0.117878 1.1794
0.134137 0.117757 1.02063
-0.141384 0.117651 0.875329
0.105074 0.117546 0.991029
0.0911025 0.117441 0.976522
-0.0484702 0.117336 0.899223
0.169586 0.117259 0.999827
-0.131421 0.117143 0.842213
-0.165879 0.11703 0.81784
-0.0637581 0.116937 0.861046
-0.0643607 0.116835 0.853255
-0.0335166 0.116765 0.860052
-0.109386 0.116656 0.814907
-0.0495917 0.116554 0.837319
-0.0593454 0.116454 0.824963
0.0016107 0.116397 0.846405
-0.111553 0.116292 0.782537
-0.129467 0.116193 0.766108
-0.0943704 0.116094 0.776188
-0.109738 0.116041 0.759399
-0.0903601 0.11594 0.761717
-0.175028 0.115842 0.711919
0.0608599 0.115745 0.822402
-0.220164 0.11565 0.674361
-0.236606 0.115599 0.65703
-0.0863662 0.115503 0.724696
-0.0571526 0.115407 0.731852
-0.19439 0.11536 0.654034
-0.133244 0.115265 0.677164
-0.244791 0.115171 0.613914
0.0292971 0.115077 0.743513
-0.178439 0.11503 0.630464
-0.394267 0.114939 0.515018
-0.343784 0.114847 0.532817
-0.295648 0.114804 0.54757
-0.0708612 0.114712 0.652519
-0.312683 0.114621 0.524164
0.0970882 0.114581 0.719686
-0.106906 0.11449 0.610243
-0.294801 0.1144 0.50885
-0.0498524 0.114362 0.621908
-0.125629 0.114273 0.576571
-0.0759054 0.114184 0.593983
-0.187463 0.114149 0.528734
-0.324593 0.114061 0.452714
-0.0551446 0.113973 0.579982
-0.00242761 0.11394 0.596815
0.205704 0.113853 0.693418
-0.192107 0.113767 0.487049
-0.147453 0.113736 0.499791
0.110956 0.113651 0.621524
-0.216308 0.113566 0.450418
-0.106565 0.113524 0.496163
0.000896022 0.113453 0.541892
-0.209026 0.11337 0.429445
-0.27286 0.113328 0.388405
-0.0306307 0.113261 0.501439
-0.214949 0.113179 0.40178
-0.148498 0.113138 0.425884
-0.111395 0.113057 0.436934
-0.173277 0.112993 0.397817
-0.226884 0.112953 0.361893
-0.0514363 0.112873 0.442098
-0.086912 0.112793 0.416837
0.0437407 0.112754 0.473048
-0.150049 0.112694 0.367872
-0.369958 0.112655 0.2488
-0.264285 0.112578 0.294095
-0.0651195 0.112501 0.38613
-0.282268 0.112462 0.268442
-0.268206 0.112406 0.267081
-0.339803 0.112331 0.223712
0.000184694 0.112293 0.384589
-0.023748 0.112218 0.365046
-0.223717 0.112144 0.257477
-0.287052 0.112107 0.216694
-0.307413 0.112056 0.197987
-0.0139121 0.11202 0.335617
0.113998 0.111947 0.391961
-0.133233 0.111875 0.260727
-0.279937 0.111839 0.178254
-0.225818 0.111768 0.197685
-0.415565 0.111697 0.0951736
-0.193975 0.111662 0.196846
-0.153683 0.111617 0.208298
-0.123117 0.111583 0.214452
-0.158498 0.111514 0.189092
-0.422345 0.111445 0.0494884
-0.117763 0.111411 0.192648
0.00327801 0.111344 0.245476
-0.0887583 0.11131 0.190324
-0.111257 0.111244 0.17137
-0.152505 0.111178 0.143029
0.0261363 0.111145 0.223212
-0.198995 0.111079 0.102915
-0.259507 0.111015 0.0649162
-0.288137 0.110983 0.0414577
-0.0494129 0.110946 0.15186
-0.119047 0.110915 0.10789
-0.138249 0.110852 0.0905053
-0.229628 0.110821 0.0356589
-0.0884734 0.110759 0.0984359
-0.207376 0.110697 0.0311706
-0.275282 0.110667 -0.0119464
0.0395071 0.110606 0.137617
-0.188281 0.110576 0.0145531
-0.0678013 0.110516 0.0669435
0.473832 0.139221 1.41897
0.536869 0.138474 1.45915
0.418932 0.137992 1.40164
0.179624 0.137613 1.28069
0.465024 0.137273 1.42108
0.502865 0.136998 1.43591
0.139028 0.136621 1.25283
0.15674 0.136452 1.25474
0.632326 0.136218 1.48745
0.159092 0.135948 1.24682
0.0760055 0.13568 1.20125
0.0871675 0.135449 1.20178
0.0688424 0.135284 1.18575
0.211743 0.135055 1.25217
0.183177 0.134892 1.23103
0.247501 0.134631 1.25913
-0.00614542 0.134471 1.12544
-0.111279 0.134311 1.06601
-0.106249 0.134088 1.0635
0.00432249 0.13393 1.11191
0.206579 0.133773 1.20616
0.0390889 0.133647 1.11468
-0.0557153 0.133458 1.0614
0.209618 0.133275 1.18804
-0.0170533 0.133123 1.06781
0.204045 0.132971 1.17146
0.0490132 0.132821 1.08703
-0.012564 0.132673 1.04931
0.168103 0.132549 1.13199
-0.0663194 0.132403 1.00784
0.107409 0.132257 1.08775
-0.216557 0.132114 0.918796
0.0157235 0.131992 1.02732
-0.295184 0.13185 0.864879
-0.109892 0.13171 0.950517
-0.203876 0.131589 0.895931
-0.0779406 0.131451 0.951873
-0.17492 0.131332 0.895806
0.31614 0.131213 1.13377
0.0760999 0.131077 1.00671
0.119621 0.130959 1.02091
0.143622 0.13087 1.02449
0.0567189 0.130739 0.973908
-0.142054 0.130622 0.866981
-0.0106209 0.130494 0.925542
-0.144317 0.130378 0.851165
-0.162358 0.130263 0.834622
-0.0133498 0.130148 0.901612
-0.04748 0.130071 0.875859
-0.235476 0.129949 0.774607
-0.24784 0.129835 0.760917
-0.0736597 0.12973 0.84026
-0.148134 0.129659 0.794189
-0.0719112 0.129542 0.824974
-0.0625668 0.129431 0.822152
-0.0636354 0.129319 0.814129
-0.155929 0.129209 0.760498
-0.361975 0.129148 0.648404
0.0280473 0.129038 0.835931
0.0391303 0.128929 0.833992
-0.246012 0.128874 0.6822
-0.0215411 0.128766 0.78696
-0.183111 0.128658 0.698703
-0.270018 0.12855 0.647782
-0.296703 0.128443 0.626975
-0.143202 0.128392 0.694463
-0.266751 0.128285 0.625227
-0.300367 0.128183 0.60086
-0.318545 0.12813 0.582565
-0.160919 0.128026 0.65392
-0.126555 0.127926 0.663488
-0.0445892 0.127823 0.69701
-0.221566 0.127771 0.599333
-0.181165 0.127675 0.611863
-0.0873487 0.127573 0.65131
-0.0797764 0.12753 0.64565
0.00922345 0.127428 0.682686
0.0254266 0.127328 0.683325
-0.12374 0.127287 0.599244
-0.00518227 0.127187 0.651057
-0.291969 0.127088 0.500198
-0.444251 0.12705 0.414505
-0.206005 0.126952 0.526157
0.0472569 0.126854 0.645316
-0.0714312 0.126819 0.576365
-0.321448 0.126722 0.443879
-0.228479 0.126626 0.482885
-0.118045 0.126593 0.528436
-0.0625418 0.126497 0.548701
0.0205189 0.126403 0.582744
-0.0951626 0.126355 0.515761
-0.119827 0.126278 0.495348
0.120403 0.126185 0.607964
-0.420716 0.126139 0.328266
-0.131697 0.126065 0.464616
-0.158651 0.125973 0.443628
-0.0101738 0.125882 0.510351
-0.110014 0.125837 0.451297
-0.186049 0.125767 0.405026
-0.27309 0.125722 0.35237
0.0355383 0.125633 0.499156
-0.15206 0.125566 0.397018
-0.274221 0.125522 0.326803
-0.274868 0.125434 0.318934
-0.214968 0.125347 0.341332
-0.175251 0.125304 0.35206
-0.203037 0.125242 0.329722
-0.282487 0.125156 0.282425
-0.224567 0.125114 0.302253
-0.166765 0.125029 0.323577
-0.507414 0.124945 0.145669
0.0265426 0.12493 0.402543
-0.199636 0.124847 0.281853
-0.287686 0.124805 0.228694
-0.183566 0.124723 0.273147
-0.451346 0.124641 0.131643
-0.0420636 0.124601 0.327151
-0.313376 0.124549 0.1828
-0.180397 0.124469 0.241648
-0.343437 0.124429 0.15099
-0.0891971 0.12435 0.270459
-0.0724875 0.124271 0.271155
-0.405935 0.124232 0.0952918
-0.170483 0.124155 0.205349
-0.165729 0.124078 0.200047
-0.131887 0.124071 0.206639
-0.273908 0.123995 0.127928
-0.0432139 0.123957 0.234126
-0.248791 0.123882 0.123625
-0.227037 0.123807 0.126779
-0.206715 0.12377 0.127788
-0.0165747 0.123697 0.215122
0.132024 0.12366 0.280267
-0.0818562 0.123588 0.165578
-0.232524 0.123516 0.0824828
-0.209297 0.12348 0.0849369
-0.242783 0.123409 0.0604177
-0.146775 0.123339 0.100634
-0.280571 0.123304 0.0245704
-0.312718 0.123234 0.000692812
-0.244365 0.123234 0.0243354
-0.460453 0.123166 -0.0915393
0.0733619 0.123098 0.167524
-0.136895 0.123065 0.053212
-0.364559 0.122998 -0.0684812
-0.410485 0.122965 -0.100632
-0.0575173 0.122899 0.0679717
0.433458 0.152756 1.42029
0.212219 0.152227 1.311
0.332321 0.151695 1.37253
0.0871946 0.151393 1.24577
0.310843 0.151018 1.35526
0.353002 0.150717 1.37221
0.451488 0.150459 1.41629
0.118345 0.15016 1.24563
0.172468 0.149862 1.2686
0.189276 0.149606 1.27191
0.341822 0.149313 1.34409
0.0237503 0.149131 1.17813
0.377829 0.148878 1.3501
-0.238811 0.148698 1.03487
0.228174 0.148412 1.26424
0.116306 0.14827 1.20046
-0.0700187 0.148059 1.10132
0.159412 0.147813 1.21095
0.0993629 0.14764 1.17401
0.337292 0.147499 1.28519
0.062534 0.147258 1.14274
-0.00708053 0.147087 1.10102
0.156896 0.146918 1.17608
0.402119 0.14675 1.29176
-0.175714 0.146583 0.995897
0.105927 0.146418 1.12976
-0.0979267 0.14624 1.02124
-0.00181122 0.146076 1.06235
-0.127766 0.145914 0.992422
0.100984 0.145753 1.09983
0.12673 0.145618 1.10505
-0.000587241 0.145459 1.03441
0.0800956 0.145302 1.06775
-0.0947965 0.145168 0.972683
-0.0621703 0.145013 0.981981
0.101399 0.144907 1.05544
0.0707105 0.144728 1.03379
0.0813231 0.144625 1.03071
0.252757 0.144477 1.10932
0.0629201 0.14433 1.00725
-0.139698 0.1442 0.89837
0.140204 0.144071 1.03076
-0.230736 0.143942 0.837729
-0.049727 0.143851 0.919618
0.276156 0.143671 1.07647
-0.29376 0.143584 0.782828
-0.0509026 0.143447 0.896996
-0.179483 0.14332 0.82517
-0.165872 0.143194 0.824446
-0.284604 0.143069 0.757558
-0.226069 0.142991 0.777932
-0.051277 0.142862 0.857961
0.170902 0.142743 0.961387
-0.267827 0.142619 0.734516
-0.230256 0.14255 0.744252
-0.202967 0.142425 0.750451
-0.202299 0.142303 0.743279
0.0946104 0.142182 0.884232
-0.027082 0.142121 0.814125
-0.150973 0.142001 0.744683
-0.190075 0.141881 0.717648
-0.156839 0.141762 0.726771
0.033122 0.141702 0.812507
-0.12101 0.141586 0.727902
-0.157329 0.141468 0.702263
-0.173925 0.141354 0.686374
0.0334472 0.141238 0.78258
0.0999307 0.141185 0.806436
-0.0110413 0.141069 0.743471
-0.0741672 0.141012 0.702694
-0.175689 0.140904 0.644239
-0.0425418 0.14079 0.703336
-0.074262 0.140685 0.679724
0.124781 0.140572 0.771764
-0.254078 0.140516 0.573138
-0.167685 0.140415 0.608522
-0.0694778 0.140304 0.650144
-0.120774 0.140261 0.614918
-0.454846 0.140151 0.440397
-0.132263 0.140041 0.594204
-0.174819 0.140001 0.563294
-0.0603634 0.139892 0.613033
-0.167843 0.139784 0.551805
-0.335405 0.139747 0.458335
-0.0715917 0.13964 0.582747
0.195197 0.139533 0.708647
0.00350924 0.139499 0.603056
-0.376729 0.139393 0.405435
-0.0255798 0.139288 0.573506
-0.0642802 0.139257 0.54435
-0.291919 0.139153 0.423019
-0.056882 0.13905 0.533024
-0.306299 0.139021 0.398447
-0.0242739 0.138919 0.531936
-0.0864175 0.138817 0.493339
-0.150453 0.138767 0.452169
-0.199753 0.13869 0.419203
-0.338551 0.138591 0.342264
-0.171916 0.138491 0.418039
-0.259284 0.138468 0.364348
-0.0659624 0.13837 0.453454
-0.248881 0.138273 0.354436
-0.235129 0.138224 0.352163
-0.349192 0.138156 0.286633
-0.0151345 0.138108 0.44451
-0.00799327 0.138013 0.440505
-0.105948 0.137918 0.383947
0.0619507 0.137871 0.458749
-0.228185 0.137808 0.305073
-0.227716 0.137714 0.297705
-0.316114 0.137668 0.244357
-0.187985 0.137576 0.300814
-0.248873 0.137517 0.261653
-0.0605211 0.137472 0.346675
-0.234447 0.137382 0.252081
-0.204464 0.137292 0.259434
-0.111621 0.137247 0.296703
-0.247067 0.137159 0.221334
-0.058886 0.137106 0.306569
-0.140502 0.137062 0.256603
-0.242909 0.136975 0.197726
-0.195394 0.136889 0.213801
-0.159741 0.136846 0.222469
-0.0952681 0.13676 0.247014
-0.366857 0.136676 0.103518
-0.147968 0.136634 0.203803
-0.342858 0.136588 0.097328
-0.0728128 0.136547 0.223183
-0.22389 0.136464 0.139911
0.0181709 0.136382 0.253197
-0.184994 0.136341 0.142444
-0.14373 0.136261 0.155319
-0.169372 0.13618 0.134731
-0.26328 0.136141 0.0786016
-0.341102 0.136061 0.0319098
-0.276674 0.135983 0.056331
-0.309613 0.135944 0.0306818
0.107126 0.135866 0.231244
-0.312408 0.135828 0.0122945
-0.102091 0.13579 0.10827
-0.352552 0.135717 -0.0249279
-0.295146 0.13568 -0.00542105
-0.393326 0.135605 -0.0623734
-0.102206 0.135531 0.0753117
-0.0975544 0.135495 0.0684331
-0.150992 0.135422 0.0338217
-0.0734011 0.135386 0.0634084
-0.2266 0.135314 -0.0211015
0.236587 0.167199 1.333
0.232521 0.166543 1.33397
0.264965 0.165963 1.35154
0.323761 0.165553 1.37849
0.338024 0.165223 1.38139
0.286048 0.164815 1.35303
0.274763 0.164487 1.34322
0.162972 0.164161 1.28316
0.268 0.16388 1.33051
0.350713 0.163557 1.36772
-0.0560486 0.163357 1.15737
0.378857 0.163079 1.36969
0.214749 0.162762 1.28349
0.424212 0.162565 1.38126
-0.0890863 0.162292 1.1195
0.0838607 0.162098 1.19902
0.194446 0.161865 1.2483
0.225536 0.161635 1.25781
0.232922 0.161445 1.25455
0.00481816 0.161214 1.13453
0.238316 0.160991 1.24518
0.0661495 0.160805 1.15213
0.0105106 0.16062 1.11734
0.0796524 0.160425 1.1452
0.0269717 0.160241 1.11191
0.014105 0.160028 1.09927
-0.131514 0.159849 1.01946
-0.143341 0.159671 1.00654
0.0697007 0.159495 1.10604
0.104621 0.15932 1.11645
0.106152 0.159172 1.10954
-0.0086842 0.159 1.04507
-0.0180892 0.15883 1.03329
-0.104039 0.158683 0.982669
0.0732576 0.158515 1.06423
0.0105941 0.158349 1.02578
-0.036965 0.158204 0.994381
0.079269 0.15806 1.04488
0.00056613 0.157897 0.998406
-0.0826975 0.157754 0.949177
0.0413967 0.157634 1.00305
-0.0616601 0.157492 0.943932
-0.228881 0.157337 0.85308
0.137936 0.157196 1.02891
-0.108567 0.157055 0.898087
0.103968 0.156915 0.996792
0.0627515 0.156765 0.968919
0.00951981 0.156626 0.934752
0.0788069 0.156539 0.960514
0.0609942 0.156394 0.944238
-0.232798 0.156257 0.789796
-0.183594 0.156121 0.80686
-0.205989 0.155985 0.788131
-0.241303 0.155909 0.761368
-0.444271 0.155774 0.652354
-0.0383628 0.15564 0.847784
-0.0204688 0.155506 0.849213
0.04619 0.155438 0.87328
0.0718667 0.155306 0.878607
0.000676182 0.155174 0.835483
-0.124771 0.155043 0.765251
-0.0339379 0.154977 0.801398
-0.0634997 0.154849 0.779044
-0.00400964 0.154719 0.80129
-0.10391 0.154595 0.743716
-0.223236 0.15453 0.674802
0.0915617 0.154408 0.82453
0.273158 0.154281 0.907831
-0.279227 0.154162 0.623914
-0.226344 0.154099 0.64112
-0.074245 0.153983 0.709395
0.0281972 0.153858 0.753118
-0.231787 0.153796 0.613903
-0.324683 0.153684 0.559623
-0.20515 0.153561 0.611892
-0.280404 0.153452 0.566372
-0.201205 0.153391 0.59676
0.0122474 0.153269 0.695989
-0.0348433 0.153164 0.664487
-0.104792 0.153044 0.622008
0.0594669 0.153002 0.694427
-0.0731268 0.152883 0.620622
-0.290616 0.152764 0.504369
0.0685583 0.152726 0.674189
-0.345649 0.152608 0.459572
-0.0496793 0.15255 0.59837
-0.188045 0.152456 0.521036
-0.187568 0.15234 0.513755
-0.19745 0.152249 0.500592
-0.267939 0.152192 0.456164
-0.0649294 0.152078 0.55014
-0.258079 0.151991 0.445268
0.0177314 0.151935 0.573994
-0.0908245 0.151823 0.512177
-0.307939 0.15174 0.395245
-0.289954 0.151685 0.395062
-0.140885 0.151575 0.462045
0.00734833 0.151465 0.528608
-0.035782 0.151441 0.496968
-0.323663 0.151333 0.345462
-0.0654797 0.151225 0.466985
0.0162331 0.151171 0.498674
-0.150888 0.151098 0.406558
-0.0955012 0.150992 0.426666
-0.214383 0.150887 0.359636
-0.128126 0.150869 0.392545
0.00265507 0.150765 0.450332
0.013696 0.150662 0.448244
-0.035481 0.150611 0.414488
-0.129042 0.150546 0.358961
-0.291239 0.150495 0.268692
-0.0856904 0.150394 0.363837
-0.497204 0.150293 0.150446
-0.212155 0.150194 0.28533
-0.270738 0.150184 0.245651
-0.282917 0.150085 0.231903
-0.176336 0.149988 0.277529
0.065031 0.149939 0.38904
-0.273745 0.149842 0.21198
-0.176833 0.149794 0.251265
-0.179041 0.149741 0.241161
-0.102148 0.149646 0.271909
-0.355072 0.149552 0.13774
-0.311481 0.149505 0.150357
-0.546609 0.149412 0.0250763
-0.0189167 0.14932 0.281197
0.0821532 0.149319 0.321133
-0.59163 0.149228 -0.0235052
-0.262015 0.149183 0.132115
-0.402667 0.149093 0.054031
-0.221801 0.149003 0.136697
-0.16384 0.148959 0.156487
-0.0539382 0.148871 0.203659
-0.332849 0.148783 0.0564131
-0.241927 0.14874 0.0926806
-0.0822082 0.148653 0.164737
-0.368617 0.148611 0.0123369
-0.419958 0.148574 -0.022718
-0.122361 0.148489 0.118241
-0.404609 0.148406 -0.0307344
-0.227304 0.148364 0.048707
-0.0300784 0.148282 0.139453
-0.0359416 0.1482 0.128643
-0.509777 0.148159 -0.117493
-0.24346 0.148079 0.00777092
-0.00905886 0.147999 0.117064
-0.106233 0.147959 0.0592507
-0.0999778 0.14788 0.0544533
-0.419472 0.147841 -0.114524
-0.114018 0.147763 0.0302597
0.292991 0.18165 1.37426
0.146088 0.180939 1.30367
0.372001 0.180312 1.41785
0.278117 0.179867 1.36837
0.400437 0.179374 1.42808
0.306083 0.179018 1.37664
0.187653 0.178711 1.31216
0.623808 0.178356 1.52602
0.238376 0.178003 1.32909
0.11591 0.177699 1.26265
0.314755 0.177351 1.35787
0.306658 0.177049 1.34864
0.366577 0.176834 1.3716
0.32266 0.176492 1.34542
0.197764 0.176196 1.2778
0.134921 0.175985 1.23938
0.319502 0.175732 1.32562
0.1619 0.175483 1.24072
0.229048 0.175277 1.2673
0.287554 0.175026 1.29055
0.294071 0.174785 1.28764
-0.0382266 0.174582 1.11448
0.0284971 0.174382 1.14082
0.184912 0.174169 1.21231
-0.0101381 0.173936 1.10854
-0.350858 0.17374 0.931152
0.0996658 0.173545 1.14937
0.189684 0.173352 1.18733
0.342139 0.173161 1.25648
-0.123511 0.172972 1.01657
0.106055 0.172784 1.12425
-0.0490594 0.172624 1.03899
-0.0347206 0.172439 1.03905
0.251393 0.172256 1.17496
-0.128122 0.172076 0.978042
-0.109251 0.171917 0.979817
0.20869 0.171739 1.13161
0.240996 0.171582 1.14012
0.267214 0.171407 1.14603
0.0192866 0.171251 1.01443
0.162177 0.171079 1.07866
0.100641 0.170924 1.04028
-0.0114633 0.170818 0.975489
0.178436 0.170601 1.06433
-0.0218974 0.1705 0.955359
-0.0207984 0.170337 0.948565
-0.122229 0.170185 0.890262
0.103507 0.170034 0.995552
-0.0173025 0.169883 0.927577
-0.0533881 0.169793 0.900525
-0.119306 0.169639 0.860121
-0.0687375 0.169491 0.87784
-0.113412 0.169343 0.847945
0.0723055 0.169195 0.933253
0.0306956 0.169118 0.903212
-0.141058 0.168971 0.809785
-0.0595097 0.168826 0.843016
-0.00996352 0.168681 0.860252
-0.0631315 0.168537 0.826103
-0.281591 0.168394 0.709341
-0.142505 0.168325 0.769508
0.181792 0.168183 0.924129
0.0150471 0.168046 0.833101
0.130904 0.167904 0.883505
-0.276928 0.167834 0.670313
0.136511 0.167701 0.86933
-0.234008 0.167571 0.676319
-0.323848 0.167502 0.622134
-0.169137 0.167363 0.691974
-0.118683 0.167237 0.709397
-0.016232 0.1671 0.753106
-0.0993616 0.167045 0.701952
0.133992 0.166909 0.811113
-0.231172 0.16679 0.620618
-0.0622325 0.166656 0.697568
-0.159462 0.166589 0.63972
-0.24037 0.166473 0.591294
-0.237625 0.166341 0.585147
-0.275561 0.166295 0.556443
-0.245092 0.166163 0.564155
-0.147678 0.166055 0.604771
-0.312473 0.165925 0.514843
-0.251786 0.16586 0.535973
-0.0219452 0.165756 0.642735
0.0424408 0.165628 0.667394
-0.288145 0.165564 0.492894
-0.201015 0.165464 0.528231
0.112409 0.165338 0.677403
0.0240308 0.165304 0.62326
0.0815627 0.165179 0.644479
-0.233577 0.165055 0.479362
-0.0790613 0.165024 0.546606
-0.132581 0.164901 0.51229
-0.100353 0.164779 0.520847
-0.00356902 0.164751 0.559163
-0.344828 0.164631 0.380967
0.0102324 0.164511 0.550929
-0.281894 0.164427 0.396339
-0.428332 0.164367 0.313927
-0.190051 0.164249 0.425486
-0.15635 0.164169 0.433729
-0.0760896 0.164111 0.464668
-0.205536 0.163995 0.392348
-0.223283 0.163919 0.374784
-0.0845446 0.163862 0.434962
-0.160594 0.163748 0.389324
-0.395306 0.163634 0.264351
-0.211678 0.16362 0.345815
0.0685784 0.163508 0.478311
-0.141537 0.163397 0.365617
0.0773703 0.163341 0.465884
-0.219017 0.163275 0.308804
-0.175112 0.163166 0.3231
-0.384291 0.163058 0.210848
0.150439 0.163003 0.469023
-0.258426 0.162943 0.255597
