ply
format ascii 1.0
comment Created by Open3D
element vertex 1664
property double x
property double y
property double z
end_header
-0.152747 -0.149979 0.278927
-0.151673 -0.14993 0.270298
-0.157091 -0.149782 0.261501
-0.155998 -0.149734 0.252889
-0.158052 -0.149638 0.244204
-0.156938 -0.14959 0.235606
-0.158947 -0.149495 0.226941
-0.160923 -0.1494 0.218289
-0.163025 -0.149304 0.209644
-0.164956 -0.14921 0.201014
-0.163786 -0.149163 0.192456
-0.165669 -0.149071 0.183846
-0.164477 -0.149024 0.175301
-0.166313 -0.148932 0.16671
-0.165098 -0.148886 0.158179
-0.166886 -0.148795 0.149608
-0.171822 -0.148656 0.141002
-0.170572 -0.148611 0.132495
-0.172278 -0.148522 0.123956
-0.171004 -0.148477 0.115462
-0.172661 -0.148388 0.106942
-0.171364 -0.148344 0.0984608
-0.172971 -0.148256 0.0899585
-0.171652 -0.148212 0.0814906
-0.173208 -0.148125 0.0730063
-0.171865 -0.148082 0.064551
-0.17337 -0.147996 0.0560844
-0.172003 -0.147953 0.0476416
-0.173458 -0.147867 0.0391924
-0.172067 -0.147825 0.0307618
-0.173469 -0.147741 0.0223297
-0.174836 -0.147657 0.0139073
-0.173405 -0.147615 0.00549605
0.0651732 -0.143893 0.774719
0.045963 -0.143555 0.763978
0.0346407 -0.143329 0.753873
0.0274155 -0.143162 0.744101
0.0123475 -0.142884 0.733776
0.0011208 -0.14266 0.723764
-0.006022 -0.142495 0.714074
-0.0131356 -0.142331 0.704406
-0.0202166 -0.142167 0.694762
-0.0272616 -0.142004 0.685141
-0.0342671 -0.141841 0.675544
-0.0335861 -0.141788 0.666482
-0.0405434 -0.141627 0.656923
-0.0474543 -0.141466 0.647388
-0.0543153 -0.141306 0.637876
-0.0572916 -0.141201 0.628631
-0.0640813 -0.141043 0.619161
-0.0633612 -0.140991 0.610173
-0.0700869 -0.140833 0.600741
-0.0767518 -0.140677 0.591333
-0.0796361 -0.140574 0.582167
-0.0826059 -0.14047 0.573008
-0.0854589 -0.140368 0.56387
-0.0919634 -0.140214 0.554541
-0.0947696 -0.140113 0.545435
-0.0976171 -0.140011 0.536339
-0.10039 -0.13991 0.52726
-0.106717 -0.13976 0.518009
-0.105912 -0.13971 0.509143
-0.108624 -0.13961 0.500106
-0.11484 -0.139461 0.490908
-0.114008 -0.139412 0.482072
-0.120131 -0.139265 0.472909
-0.122756 -0.139167 0.46393
-0.121898 -0.139118 0.455124
-0.127899 -0.138972 0.446014
-0.130459 -0.138876 0.437074
-0.129572 -0.138828 0.428297
-0.135446 -0.138684 0.419238
-0.137939 -0.138589 0.410339
-0.137023 -0.138541 0.40159
-0.139474 -0.138446 0.392713
-0.141832 -0.138353 0.383852
-0.144243 -0.138259 0.375
-0.146625 -0.138165 0.366162
-0.14566 -0.138118 0.357456
-0.151225 -0.13798 0.348526
-0.150242 -0.137934 0.339839
-0.152539 -0.137842 0.331048
-0.154807 -0.13775 0.322269
-0.156945 -0.137661 0.313506
-0.15917 -0.13757 0.304751
-0.158134 -0.137524 0.296106
-0.160314 -0.137434 0.287373
-0.162463 -0.137345 0.278652
-0.164475 -0.137257 0.269946
-0.16658 -0.137168 0.261249
-0.165491 -0.137124 0.252645
-0.167549 -0.137036 0.243968
-0.166439 -0.136992 0.235378
-0.168452 -0.136905 0.226722
-0.173437 -0.136776 0.218011
-0.172291 -0.136733 0.209447
-0.174226 -0.136647 0.200825
-0.173059 -0.136604 0.192274
-0.174945 -0.136519 0.183672
-0.173757 -0.136477 0.175136
-0.175595 -0.136392 0.166553
-0.174384 -0.13635 0.15803
-0.179099 -0.136226 0.149422
-0.180856 -0.136143 0.140872
-0.179608 -0.136102 0.132373
-0.181317 -0.13602 0.123842
-0.180046 -0.135979 0.115356
-0.181705 -0.135897 0.106843
-0.180411 -0.135857 0.0983701
-0.18202 -0.135776 0.0898757
-0.180703 -0.135736 0.0814155
-0.182262 -0.135656 0.072939
-0.180922 -0.135616 0.0644915
-0.182429 -0.135537 0.0560327
-0.181065 -0.135498 0.0475976
-0.182522 -0.13542 0.0391562
-0.181134 -0.135381 0.0307334
-0.182538 -0.135304 0.0223091
-0.183908 -0.135227 0.0138945
-0.182479 -0.135189 0.00549097
0.0845119 -0.131413 0.832171
0.0732408 -0.131208 0.821903
0.0540487 -0.1309 0.811026
0.0427463 -0.130694 0.800821
0.0276154 -0.130439 0.790345
0.0163831 -0.130235 0.780207
0.00917499 -0.130084 0.770409
0.00199275 -0.129933 0.760634
-0.00516021 -0.129782 0.750883
-0.0122805 -0.129632 0.741155
-0.0193648 -0.129483 0.731452
-0.0264096 -0.129334 0.721772
-0.0334117 -0.129186 0.712117
-0.0403676 -0.129039 0.702485
-0.0397238 -0.12899 0.693404
-0.0466244 -0.128844 0.683811
-0.0534718 -0.128698 0.674242
-0.0565424 -0.128602 0.664947
-0.0633153 -0.128457 0.655421
-0.0700278 -0.128314 0.645919
-0.0693441 -0.128266 0.636912
-0.0759856 -0.128124 0.627449
-0.0789653 -0.128029 0.618234
-0.0855194 -0.127888 0.608812
-0.0848055 -0.127841 0.599851
-0.0912803 -0.127701 0.590467
-0.094183 -0.127607 0.581313
-0.100561 -0.127469 0.571971
-0.0998151 -0.127422 0.563054
-0.106106 -0.127285 0.553749
-0.108928 -0.127193 0.544655
-0.115114 -0.127058 0.535391
-0.114333 -0.127012 0.526518
-0.117093 -0.126921 0.517465
-0.123159 -0.126787 0.508256
-0.122351 -0.126742 0.499412
-0.125049 -0.126652 0.490401
-0.13099 -0.12652 0.481244
-0.130155 -0.126476 0.47243
-0.132787 -0.126387 0.463459
-0.138599 -0.126257 0.454354
-0.137735 -0.126213 0.445569
-0.140301 -0.126125 0.436639
-0.142557 -0.126041 0.427734
-0.145084 -0.125953 0.418829
-0.147582 -0.125867 0.409937
-0.14667 -0.125823 0.401197
-0.152194 -0.125698 0.392206
-0.154623 -0.125612 0.383354
-0.15368 -0.125569 0.374641
-0.159058 -0.125446 0.3657
-0.158097 -0.125404 0.357005
-0.160441 -0.125319 0.3482
-0.162755 -0.125235 0.339407
-0.161761 -0.125194 0.330738
-0.166945 -0.125073 0.321871
-0.165933 -0.125032 0.313219
-0.168159 -0.124949 0.304473
-0.167127 -0.124908 0.295836
-0.169308 -0.124826 0.28711
-0.17429 -0.124709 0.278317
-0.173224 -0.124668 0.269706
-0.17533 -0.124587 0.261016
-0.174242 -0.124547 0.25242
-0.176302 -0.124467 0.243751
-0.175194 -0.124427 0.235169
-0.177208 -0.124348 0.22652
-0.181934 -0.124234 0.217823
-0.18079 -0.124195 0.209266
-0.182724 -0.124117 0.200651
-0.181559 -0.124078 0.192108
-0.183446 -0.124001 0.183513
-0.182259 -0.123962 0.174984
-0.184097 -0.123886 0.166409
-0.182888 -0.123848 0.157893
-0.187332 -0.123738 0.149297
-0.189088 -0.123663 0.140754
-0.187842 -0.123625 0.132262
-0.189549 -0.12355 0.123738
-0.18828 -0.123513 0.115259
-0.189938 -0.123439 0.106753
-0.188646 -0.123403 0.0982877
-0.190254 -0.123329 0.0898003
-0.188938 -0.123293 0.0813473
-0.190496 -0.12322 0.0728779
-0.189157 -0.123184 0.0644374
-0.190664 -0.123113 0.0559857
-0.189301 -0.123077 0.0475577
-0.190757 -0.123006 0.0391234
-0.18937 -0.122971 0.0307077
-0.190774 -0.1229 0.0222904
-0.192143 -0.122831 0.0138828
-0.190715 -0.122796 0.00548637
0.104864 -0.118775 0.88081
0.0818088 -0.118451 0.869413
0.0626408 -0.118173 0.858399
0.0513621 -0.117988 0.848095
0.0362005 -0.117758 0.837496
0.0289249 -0.11762 0.827584
0.0177522 -0.117437 0.817376
0.0105343 -0.1173 0.807516
0.00334573 -0.117163 0.79768
-0.00381021 -0.117028 0.787868
-0.0109301 -0.116892 0.77808
-0.0180106 -0.116758 0.768317
-0.0250484 -0.116623 0.758578
-0.0320401 -0.11649 0.748863
-0.0352606 -0.116401 0.73945
-0.0421868 -0.116268 0.729779
-0.0490596 -0.116137 0.720133
-0.048441 -0.116092 0.711043
-0.0552509 -0.115961 0.701435
-0.0620004 -0.115831 0.691853
-0.0651201 -0.115744 0.68254
-0.0717872 -0.115615 0.673001
-0.0783869 -0.115487 0.663486
-0.0777269 -0.115444 0.654471
-0.0842482 -0.115317 0.644994
-0.0872749 -0.115231 0.635762
-0.093701 -0.115105 0.626329
-0.0930102 -0.115063 0.617359
-0.0993499 -0.114938 0.607963
-0.102298 -0.114854 0.598792
-0.101583 -0.114811 0.589853
-0.10781 -0.114688 0.580513
-0.1107 -0.114605 0.571385
-0.116817 -0.114483 0.562087
-0.116068 -0.114442 0.553192
-0.122087 -0.114322 0.54393
-0.124891 -0.114239 0.534862
-0.124116 -0.114198 0.525997
-0.130007 -0.11408 0.516789
-0.132748 -0.113998 0.507762
-0.131945 -0.113957 0.498927
-0.137703 -0.113841 0.489772
-0.140379 -0.11376 0.480786
-0.139548 -0.11372 0.47198
-0.145168 -0.113605 0.462877
-0.147777 -0.113525 0.453931
-0.146917 -0.113486 0.445154
-0.152394 -0.113373 0.436103
-0.151516 -0.113334 0.427345
-0.154044 -0.113255 0.418448
-0.156544 -0.113177 0.409564
-0.158465 -0.113105 0.400717
-0.160923 -0.113028 0.391859
-0.163352 -0.112951 0.383014
-0.162412 -0.112912 0.374309
-0.167545 -0.112804 0.365384
-0.166586 -0.112766 0.356697
-0.168929 -0.11269 0.3479
-0.171243 -0.112615 0.339114
-0.170251 -0.112577 0.330452
-0.175181 -0.112472 0.321602
-0.174169 -0.112434 0.312957
-0.176394 -0.11236 0.304218
-0.175363 -0.112323 0.295588
-0.177543 -0.112249 0.28687
-0.182261 -0.112147 0.278091
-0.181196 -0.11211 0.269487
-0.183299 -0.112038 0.260805
-0.182212 -0.112002 0.252215
-0.18427 -0.11193 0.243553
-0.183162 -0.111894 0.234978
-0.185173 -0.111823 0.226337
-0.189625 -0.111723 0.217652
-0.188481 -0.111688 0.209102
-0.190412 -0.111618 0.200494
-0.189247 -0.111583 0.191958
-0.191131 -0.111513 0.18337
-0.189944 -0.111479 0.174847
-0.191779 -0.11141 0.166279
-0.190571 -0.111376 0.15777
-0.192358 -0.111307 0.14922
-0.194112 -0.111239 0.140682
-0.195234 -0.111179 0.132162
-0.196937 -0.111112 0.123645
-0.195667 -0.111078 0.115172
-0.197322 -0.111012 0.106673
-0.196029 -0.110979 0.0982137
-0.197633 -0.110913 0.0897328
-0.196317 -0.11088 0.0812861
-0.197871 -0.110815 0.0728231
-0.196532 -0.110783 0.064389
-0.198035 -0.110718 0.0559436
-0.196673 -0.110686 0.047522
-0.198125 -0.110622 0.039094
-0.196738 -0.11059 0.0306846
-0.198138 -0.110527 0.0222737
-0.199503 -0.110465 0.0138724
-0.198076 -0.110433 0.00548225
0.0908571 -0.10562 0.917255
0.0796004 -0.105455 0.906813
0.0643729 -0.105249 0.896047
0.053131 -0.105084 0.885669
0.0379722 -0.104879 0.874979
0.0306838 -0.104756 0.865004
0.0234185 -0.104633 0.855053
0.0123606 -0.104471 0.844804
0.00517268 -0.10435 0.834906
-0.00197932 -0.104229 0.825034
-0.009092 -0.104108 0.815185
-0.0124429 -0.104027 0.805662
-0.0194987 -0.103907 0.795858
-0.0265079 -0.103788 0.786079
-0.0334672 -0.10367 0.776324
-0.0403731 -0.103552 0.766595
-0.0472226 -0.103435 0.756891
-0.0504744 -0.103355 0.747478
-0.0534263 -0.103279 0.738102
-0.0566512 -0.103199 0.728719
-0.0633529 -0.103084 0.719098
-0.0699874 -0.10297 0.709503
-0.0731522 -0.102891 0.700173
-0.0759309 -0.102817 0.690883
-0.0790661 -0.102739 0.681582
-0.0855283 -0.102627 0.672069
-0.0886195 -0.102549 0.662802
-0.0949827 -0.102438 0.653332
-0.0943216 -0.1024 0.644339
-0.100595 -0.10229 0.634908
-0.103608 -0.102214 0.625702
-0.1061 -0.102143 0.616543
-0.109079 -0.102067 0.607366
-0.115147 -0.101959 0.598015
-0.118078 -0.101884 0.58887
-0.117359 -0.101847 0.579953
-0.1233 -0.101741 0.570657
-0.12617 -0.101667 0.561555
-0.125425 -0.10163 0.552668
-0.131235 -0.101525 0.543427
-0.134042 -0.101452 0.534366
-0.136174 -0.101385 0.525355
-0.138944 -0.101312 0.516321
-0.141686 -0.10124 0.507302
-0.140886 -0.101203 0.498475
-0.146418 -0.101102 0.489339
-0.149095 -0.101031 0.480361
-0.148266 -0.100995 0.471563
-0.153651 -0.100895 0.462479
-0.15626 -0.100825 0.453541
-0.155402 -0.100789 0.444771
-0.160636 -0.100692 0.435738
-0.159759 -0.100657 0.426987
-0.162286 -0.100587 0.418098
-0.164784 -0.100517 0.409222
-0.166456 -0.100456 0.400391
-0.168911 -0.100388 0.39154
-0.171337 -0.100319 0.382703
-0.170398 -0.100285 0.374005
-0.17527 -0.100192 0.365097
-0.174311 -0.100158 0.356417
-0.176651 -0.10009 0.347626
-0.178961 -0.100023 0.338848
-0.177969 -0.0999898 0.330193
-0.182628 -0.0998989 0.321358
-0.181616 -0.0998658 0.31272
-0.183837 -0.0997999 0.303987
-0.182805 -0.099767 0.295364
-0.184981 -0.0997016 0.286653
-0.187126 -0.0996366 0.277953
-0.18606 -0.0996042 0.269354
-0.190451 -0.0995165 0.260615
-0.189363 -0.0994845 0.252032
-0.191415 -0.0994206 0.243376
-0.190306 -0.0993888 0.234807
-0.192312 -0.0993255 0.226172
-0.194286 -0.0992625 0.217549
-0.193142 -0.0992312 0.209002
-0.197254 -0.0991468 0.200354
-0.196087 -0.0991157 0.191824
-0.197964 -0.099054 0.183242
-0.196776 -0.0990233 0.174725
-0.198606 -0.0989621 0.166163
-0.197395 -0.0989316 0.15766
-0.199177 -0.098871 0.149116
-0.200925 -0.0988108 0.140584
-0.199677 -0.0987808 0.132102
-0.201376 -0.0987212 0.123589
-0.200105 -0.0986915 0.11512
-0.201755 -0.0986325 0.106625
-0.202527 -0.0985823 0.0981486
-0.204125 -0.0985239 0.0896733
-0.202807 -0.0984949 0.0812323
-0.204354 -0.098437 0.0727749
-0.203013 -0.0984083 0.0643464
-0.20451 -0.098351 0.0559067
-0.203145 -0.0983226 0.0474906
-0.204591 -0.0982659 0.0390682
-0.203202 -0.0982378 0.0306644
-0.204596 -0.0981817 0.022259
-0.205955 -0.0981261 0.0138633
-0.204526 -0.0980984 0.00547864
0.123777 -0.0929268 0.967675
0.100869 -0.092675 0.956004
0.0817565 -0.0924582 0.944741
0.0743815 -0.0923492 0.93461
0.0553231 -0.0921333 0.923429
0.0479878 -0.0920249 0.913358
0.0328851 -0.0918455 0.90261
0.0256173 -0.091738 0.892597
0.0183794 -0.0916308 0.882607
0.0111745 -0.0915241 0.872643
0.00400623 -0.0914178 0.862703
-0.00312225 -0.0913119 0.852789
-0.0102076 -0.0912065 0.8429
-0.0172464 -0.0911016 0.833036
-0.0242355 -0.0909973 0.823197
-0.0276187 -0.0909259 0.813674
-0.034539 -0.0908224 0.80388
-0.0414023 -0.0907195 0.794111
-0.0482054 -0.0906172 0.784369
-0.0476536 -0.090582 0.775219
-0.0543868 -0.0904805 0.765517
-0.0576729 -0.0904105 0.756097
-0.0643206 -0.0903099 0.746438
-0.0708975 -0.0902101 0.736806
-0.0741236 -0.0901408 0.727439
-0.0768076 -0.0900765 0.718125
-0.080004 -0.0900076 0.708787
-0.0864013 -0.0899097 0.699238
-0.089554 -0.0898414 0.689935
-0.0920945 -0.0897786 0.680687
-0.0952156 -0.0897106 0.671413
-0.101417 -0.0896149 0.661946
-0.104492 -0.0895474 0.652705
-0.106874 -0.0894863 0.643523
-0.109916 -0.0894193 0.63431
-0.115904 -0.0893258 0.624925
-0.118897 -0.0892593 0.615745
-0.118207 -0.0892262 0.606805
-0.124066 -0.089134 0.597475
-0.126998 -0.0890683 0.588339
-0.126282 -0.0890356 0.579429
-0.132006 -0.0889448 0.570154
-0.134876 -0.0888798 0.56106
-0.136885 -0.0888227 0.552027
-0.139717 -0.0887581 0.54296
-0.142524 -0.0886939 0.533907
-0.144425 -0.0886379 0.524915
-0.147193 -0.0885741 0.515889
-0.149934 -0.0885106 0.506878
-0.149134 -0.088479 0.498058
-0.154424 -0.0883927 0.488942
-0.157098 -0.08833 0.479971
-0.156269 -0.0882987 0.47118
-0.161404 -0.088214 0.462115
-0.164009 -0.0881521 0.453184
-0.16315 -0.0881212 0.444421
-0.168125 -0.0880382 0.435406
-0.167248 -0.0880076 0.426662
-0.169769 -0.0879466 0.41778
-0.172263 -0.0878859 0.40891
-0.171354 -0.0878556 0.400192
-0.176121 -0.0877747 0.391253
-0.178542 -0.0877148 0.382422
-0.177601 -0.087685 0.373731
-0.179979 -0.0876256 0.364922
-0.179019 -0.087596 0.356246
-0.18357 -0.0875173 0.347381
-0.18366 -0.0874784 0.338686
-0.184879 -0.0874295 0.32996
-0.187139 -0.0873714 0.32121
-0.186125 -0.0873425 0.312576
-0.190452 -0.087266 0.303782
-0.189418 -0.0872374 0.295165
-0.191586 -0.0871802 0.28646
-0.193724 -0.0871234 0.277767
-0.192655 -0.0870951 0.269173
-0.194748 -0.0870388 0.260501
-0.193658 -0.0870108 0.251921
-0.197705 -0.0869372 0.24322
-0.196593 -0.0869095 0.234657
-0.198591 -0.0868542 0.226027
-0.200557 -0.0867992 0.217409
-0.19941 -0.0867718 0.208869
-0.201328 -0.0867174 0.200271
-0.20016 -0.0866902 0.191744
-0.202031 -0.0866363 0.183166
-0.202723 -0.0865928 0.174619
-0.204544 -0.0865393 0.166062
-0.20333 -0.0865128 0.157564
-0.205103 -0.0864598 0.149026
-0.206842 -0.0864072 0.140499
-0.205591 -0.0863811 0.132023
-0.207281 -0.086329 0.123514
-0.206008 -0.0863031 0.115051
-0.207649 -0.0862515 0.106561
-0.206352 -0.0862259 0.0981103
-0.207944 -0.0861748 0.0896384
-0.206624 -0.0861494 0.0812006
-0.208165 -0.0860989 0.0727466
-0.206822 -0.0860738 0.0643214
-0.208313 -0.0860237 0.055885
-0.206946 -0.0859989 0.0474722
-0.208385 -0.0859494 0.0390531
-0.206995 -0.0859248 0.0306525
-0.210118 -0.0858606 0.0222465
-0.211468 -0.085812 0.0138555
-0.210035 -0.0857878 0.00547556
0.122445 -0.0797841 1.00564
0.10338 -0.0795981 0.994226
0.095978 -0.0795041 0.983996
0.0769123 -0.0793184 0.972662
0.0695294 -0.0792247 0.962489
0.0543453 -0.0790698 0.951601
0.0470133 -0.0789768 0.941485
0.0359818 -0.0788548 0.931048
0.0287209 -0.0787625 0.920986
0.017484 -0.078639 0.910585
0.0103017 -0.0785475 0.900579
0.00315971 -0.0784564 0.890597
-0.00393865 -0.0783658 0.880641
-0.0109901 -0.0782755 0.870711
-0.0179913 -0.0781858 0.860806
-0.024939 -0.0780965 0.850928
-0.0283808 -0.0780348 0.841366
-0.0313249 -0.077977 0.831861
-0.0381501 -0.0778889 0.822049
-0.0415509 -0.0778276 0.812537
-0.0482953 -0.0777403 0.80277
-0.0549724 -0.0776536 0.793029
-0.0583168 -0.077593 0.783572
-0.0649045 -0.0775071 0.773876
-0.071418 -0.0774219 0.764206
-0.070859 -0.0773919 0.755094
-0.0772875 -0.0773075 0.745464
-0.0805423 -0.0772478 0.73609
-0.086869 -0.0771643 0.726504
-0.0900802 -0.0771052 0.717164
-0.0925146 -0.0770521 0.707894
-0.0956943 -0.0769932 0.698583
-0.101818 -0.0769116 0.689081
-0.104952 -0.0768532 0.679804
-0.107221 -0.0768016 0.670599
-0.110322 -0.0767436 0.661351
-0.116226 -0.0766639 0.651931
-0.115573 -0.0766351 0.642957
-0.118615 -0.0765777 0.633752
-0.124386 -0.0764992 0.624389
-0.127378 -0.0764423 0.615217
-0.126689 -0.076414 0.606284
-0.132323 -0.0763367 0.596976
-0.135253 -0.0762805 0.587847
-0.134538 -0.0762524 0.578945
-0.140028 -0.0761764 0.569691
-0.142895 -0.0761208 0.560604
-0.144666 -0.0760737 0.551591
-0.147494 -0.0760184 0.542531
-0.150297 -0.0759634 0.533486
-0.149526 -0.075936 0.524643
-0.154715 -0.0758627 0.515496
-0.157451 -0.0758083 0.506491
-0.15665 -0.0757812 0.497678
-0.161682 -0.0757093 0.488581
-0.164349 -0.0756556 0.479617
-0.163519 -0.0756289 0.470833
-0.168388 -0.0755584 0.461787
-0.170986 -0.0755053 0.452862
-0.170125 -0.0754789 0.444106
-0.172682 -0.0754263 0.435205
-0.171804 -0.0754001 0.426464
-0.176461 -0.0753315 0.417495
-0.178946 -0.0752795 0.408632
-0.178035 -0.0752536 0.39992
-0.180479 -0.0752021 0.39108
-0.181588 -0.0751608 0.382304
-0.183987 -0.0751097 0.373488
-0.186356 -0.0750589 0.364685
-0.185393 -0.0750336 0.356015
-0.18772 -0.0749831 0.347235
-0.188669 -0.0749432 0.338513
-0.190949 -0.0748933 0.329756
-0.193199 -0.0748435 0.321012
-0.192182 -0.0748188 0.312383
-0.194388 -0.0747695 0.30366
-0.193351 -0.0747449 0.295047
-0.197329 -0.0746822 0.286292
-0.199456 -0.0746336 0.277604
-0.198383 -0.0746094 0.269016
-0.200465 -0.0745612 0.260349
-0.199372 -0.0745372 0.251774
-0.201408 -0.0744895 0.243128
-0.200294 -0.0744657 0.234568
-0.20398 -0.0744055 0.225903
-0.204243 -0.0743713 0.217328
-0.204783 -0.0743351 0.208754
-0.20669 -0.0742885 0.200161
-0.205517 -0.0742653 0.191639
-0.207378 -0.0742191 0.183066
-0.206183 -0.0741962 0.174558
-0.207996 -0.0741504 0.166004
-0.206779 -0.0741277 0.157509
-0.208544 -0.0740824 0.148974
-0.208611 -0.07405 0.140474
-0.210581 -0.0740032 0.131955
-0.21226 -0.0739587 0.123451
-0.210981 -0.0739365 0.114992
-0.212611 -0.0738924 0.106507
-0.211309 -0.0738705 0.0980606
-0.212889 -0.0738268 0.0895931
-0.211565 -0.0738051 0.0811597
-0.213095 -0.0737619 0.07271
-0.211747 -0.0737404 0.0642891
-0.213227 -0.0736976 0.0558569
-0.211855 -0.0736764 0.0474484
-0.213284 -0.073634 0.0390335
-0.211889 -0.073613 0.0306372
-0.213266 -0.0735711 0.0222393
-0.214608 -0.0735295 0.013851
-0.213173 -0.0735089 0.00547381
0.144752 -0.0667531 1.04616
0.117885 -0.0665464 1.03383
0.0988386 -0.0663913 1.02234
0.0914202 -0.0663127 1.01207
0.0761756 -0.0661828 1.00104
0.065071 -0.0660802 0.990456
0.0499553 -0.0659514 0.97951
0.0426515 -0.0658739 0.969355
0.0353782 -0.0657967 0.959225
0.0281387 -0.0657198 0.94912
0.0209363 -0.0656432 0.939041
0.0137744 -0.0655669 0.928988
0.00665617 -0.065491 0.91896
-0.00041501 -0.0654154 0.908958
-0.00396833 -0.065363 0.899295
-0.010975 -0.065288 0.889339
-0.0179275 -0.0652134 0.879409
-0.0248226 -0.0651393 0.869505
-0.031657 -0.0650656 0.859628
-0.03513 -0.0650139 0.850058
-0.0418836 -0.0649409 0.840227
-0.0485696 -0.0648684 0.830422
-0.0551847 -0.0647964 0.820643
-0.0585844 -0.0647454 0.811147
-0.0612079 -0.0646995 0.801729
-0.0645799 -0.0646488 0.792263
-0.0710169 -0.0645782 0.782571
-0.0743477 -0.0645279 0.77314
-0.0806832 -0.0644581 0.763493
-0.086934 -0.0643888 0.753871
-0.0863707 -0.0643639 0.744782
-0.0896283 -0.0643142 0.735416
-0.0957607 -0.0642459 0.725853
-0.101802 -0.0641783 0.716316
-0.101207 -0.0641537 0.707272
-0.104387 -0.0641047 0.69797
-0.110301 -0.0640381 0.68849
-0.113434 -0.0639895 0.679221
-0.115488 -0.0639479 0.670039
-0.118587 -0.0638996 0.660798
-0.124266 -0.0638346 0.651401
-0.123613 -0.0638107 0.642434
-0.126651 -0.0637629 0.633237
-0.132189 -0.063699 0.623895
-0.135177 -0.0636516 0.614731
-0.134488 -0.063628 0.605805
-0.139879 -0.0635652 0.596519
-0.142805 -0.0635184 0.587397
-0.142088 -0.063495 0.578502
-0.147328 -0.0634334 0.569269
-0.150189 -0.063387 0.560189
-0.149445 -0.063364 0.551324
-0.15453 -0.0633034 0.542144
-0.157325 -0.0632577 0.533105
-0.156551 -0.0632349 0.524269
-0.161475 -0.0631755 0.515142
-0.164203 -0.0631303 0.506143
-0.1634 -0.0631077 0.497337
-0.166088 -0.0630628 0.488363
-0.170817 -0.0630049 0.479302
-0.169983 -0.0629827 0.470523
-0.172602 -0.0629383 0.461589
-0.171751 -0.0629162 0.452827
-0.176295 -0.0628596 0.443827
-0.178842 -0.0628159 0.434932
-0.177959 -0.0627941 0.426197
-0.180466 -0.0627506 0.417325
-0.184802 -0.0626955 0.408389
-0.183887 -0.062674 0.399682
-0.186319 -0.0626311 0.390847
-0.185385 -0.0626098 0.382156
-0.187776 -0.0625673 0.373344
-0.191884 -0.0625138 0.36448
-0.190916 -0.0624928 0.355815
-0.19323 -0.0624508 0.34704
-0.192243 -0.06243 0.33839
-0.194515 -0.0623884 0.329636
-0.196756 -0.062347 0.320896
-0.197365 -0.062316 0.312218
-0.199558 -0.062275 0.3035
-0.198516 -0.0622546 0.294891
-0.200665 -0.062214 0.286195
-0.199602 -0.0621937 0.2776
-0.201706 -0.0621534 0.268924
-0.205285 -0.0621038 0.260221
-0.204186 -0.0620838 0.251651
-0.206209 -0.0620441 0.243009
-0.205089 -0.0620244 0.234453
-0.207066 -0.061985 0.225832
-0.205925 -0.0619655 0.21729
-0.207855 -0.0619265 0.208689
-0.209754 -0.0618877 0.200099
-0.209951 -0.0618597 0.191553
-0.211797 -0.0618214 0.182983
-0.210597 -0.0618023 0.174479
-0.212396 -0.0617643 0.165929
-0.211173 -0.0617454 0.157438
-0.212924 -0.0617077 0.148907
-0.211679 -0.061689 0.14043
-0.213382 -0.0616517 0.131918
-0.215052 -0.0616146 0.123416
-0.213769 -0.0615962 0.11496
-0.215389 -0.0615595 0.106477
-0.214084 -0.0615413 0.0980328
-0.215655 -0.061505 0.0895678
-0.214326 -0.0614869 0.0811368
-0.215847 -0.061451 0.0726895
-0.215707 -0.0614255 0.0642631
-0.217173 -0.0613899 0.0558344
-0.215795 -0.0613723 0.0474293
-0.21721 -0.0613371 0.0390179
-0.215809 -0.0613196 0.0306249
-0.217173 -0.0612848 0.0222304
-0.218501 -0.0612502 0.0138455
-0.21706 -0.0612331 0.00547163
0.15944 -0.0535762 1.08618
0.140491 -0.0534522 1.07454
0.113624 -0.0532865 1.0621
0.102476 -0.0532039 1.05136
0.0872216 -0.0530996 1.04023
0.0798181 -0.0530368 1.02994
0.0646619 -0.0529333 1.01888
0.0573216 -0.0528709 1.00865
0.0500092 -0.0528087 0.998441
0.042728 -0.0527468 0.988257
0.0278559 -0.0526451 0.977356
0.020685 -0.0525838 0.967235
0.0135583 -0.0525229 0.957139
0.00647902 -0.0524623 0.94707
0.00285872 -0.0524198 0.937347
-0.00415613 -0.0523596 0.927324
-0.0111164 -0.0522997 0.917328
-0.018019 -0.0522402 0.907358
-0.0248606 -0.0521811 0.897415
-0.0284028 -0.0521393 0.887787
-0.0351637 -0.0520806 0.87789
-0.0418566 -0.0520224 0.86802
-0.0413822 -0.0520017 0.858789
-0.0479975 -0.051944 0.848961
-0.0545384 -0.0518867 0.839159
-0.0579821 -0.0518456 0.829636
-0.064426 -0.051789 0.81988
-0.0707888 -0.0517328 0.810151
-0.0741722 -0.0516921 0.800683
-0.0736488 -0.0516719 0.79154
-0.0798983 -0.0516164 0.781871
-0.0860598 -0.0515614 0.772228
-0.0893702 -0.0515213 0.762824
-0.0954183 -0.051467 0.753226
-0.0948565 -0.0514471 0.744144
-0.100801 -0.0513934 0.734586
-0.104034 -0.0513538 0.725246
-0.109857 -0.0513009 0.715733
-0.109263 -0.0512812 0.706697
-0.112439 -0.0512421 0.697402
-0.118126 -0.0511899 0.687946
-0.121255 -0.0511511 0.678684
-0.12308 -0.051119 0.669524
-0.126173 -0.0510804 0.660291
-0.129242 -0.051042 0.651073
-0.130956 -0.0510106 0.641956
-0.133988 -0.0509724 0.632766
-0.139277 -0.0509226 0.623447
-0.139979 -0.0508965 0.614432
-0.141566 -0.0508659 0.605371
-0.1467 -0.050817 0.596106
-0.149617 -0.0507796 0.586991
-0.148898 -0.0507609 0.578102
-0.153874 -0.050713 0.568891
-0.156725 -0.050676 0.559817
-0.155977 -0.0506576 0.550958
-0.16079 -0.0506105 0.541799
-0.163574 -0.050574 0.532767
-0.162797 -0.0505558 0.523937
-0.165543 -0.0505195 0.514929
-0.168263 -0.0504834 0.505935
-0.16935 -0.0504556 0.497036
-0.172027 -0.0504198 0.488068
-0.171203 -0.0504019 0.479283
-0.175631 -0.0503572 0.470253
-0.178237 -0.0503218 0.461324
-0.17738 -0.0503041 0.452567
-0.179947 -0.050269 0.443662
-0.184164 -0.0502255 0.434696
-0.183276 -0.0502081 0.425967
-0.185769 -0.0501734 0.4171
-0.184862 -0.0501561 0.408386
-0.187314 -0.0501217 0.399542
-0.191301 -0.0500795 0.390649
-0.19036 -0.0500624 0.381962
-0.192737 -0.0500285 0.373155
-0.191778 -0.0500116 0.364484
-0.194112 -0.0499779 0.355699
-0.197861 -0.0499371 0.346876
-0.196867 -0.0499204 0.33823
-0.199123 -0.0498872 0.329482
-0.19811 -0.0498707 0.320851
-0.200323 -0.0498378 0.312124
-0.203828 -0.0497983 0.303368
-0.202778 -0.049782 0.294763
-0.204911 -0.0497496 0.28607
-0.203842 -0.0497334 0.27748
-0.205931 -0.0497013 0.268808
-0.206688 -0.0496759 0.260183
-0.206884 -0.0496534 0.251581
-0.208897 -0.0496217 0.242942
-0.208957 -0.0495999 0.234361
-0.210918 -0.0495685 0.225743
-0.20977 -0.0495529 0.217205
-0.211684 -0.0495218 0.208607
-0.212401 -0.0494968 0.200045
-0.212383 -0.0494755 0.191505
-0.214218 -0.0494449 0.182938
-0.213013 -0.0494296 0.174436
-0.214801 -0.0493993 0.165888
-0.213573 -0.0493842 0.1574
-0.215314 -0.0493541 0.148871
-0.215095 -0.049334 0.140381
-0.216781 -0.0493042 0.131872
-0.216287 -0.0492855 0.123401
-0.217145 -0.04926 0.11492
-0.218749 -0.0492307 0.10644
-0.217436 -0.0492162 0.0979992
-0.218991 -0.0491872 0.0895372
-0.217655 -0.0491728 0.0811092
-0.21916 -0.0491441 0.0726649
-0.217801 -0.0491299 0.0642493
-0.219256 -0.0491015 0.0558225
-0.217874 -0.0490874 0.0474192
-0.219278 -0.0490593 0.0390096
-0.217872 -0.0490453 0.0306184
-0.219225 -0.0490175 0.0222258
-0.219578 -0.0489948 0.013844
-0.219097 -0.0489763 0.00547049
0.193536 -0.0403898 1.1286
0.155464 -0.0402208 1.11472
0.136498 -0.0401275 1.10299
0.117523 -0.0400344 1.09131
0.102247 -0.0399559 1.08007
0.0948176 -0.0399086 1.0697
0.0796264 -0.0398306 1.05853
0.0722532 -0.0397835 1.04822
0.0649054 -0.0397366 1.03793
0.049911 -0.0396596 1.02688
0.0426567 -0.0396132 1.01666
0.0354406 -0.0395669 1.00646
0.0282661 -0.0395209 0.996281
0.0211364 -0.0394751 0.986133
0.0140547 -0.0394295 0.976011
0.00702441 -0.0393841 0.965916
4.86466e-05 -0.039339 0.955848
-0.00360101 -0.0393071 0.946116
-0.0105042 -0.0392623 0.936095
-0.0173458 -0.0392179 0.926101
-0.0241227 -0.0391737 0.916134
-0.0277074 -0.0391421 0.906478
-0.0343994 -0.0390984 0.896557
-0.0410198 -0.039055 0.886664
-0.0475656 -0.0390119 0.876798
-0.051078 -0.0389807 0.867217
-0.057527 -0.0389381 0.857397
-0.0570495 -0.0389226 0.848189
-0.0634096 -0.0388803 0.838411
-0.0668548 -0.0388495 0.828896
-0.0731097 -0.0388078 0.819164
-0.0792764 -0.0387664 0.809459
-0.0826588 -0.0387359 0.799998
-0.0848302 -0.0387102 0.790648
-0.0881816 -0.03868 0.781218
-0.0941316 -0.0386396 0.771599
-0.0974387 -0.0386095 0.762203
-0.103267 -0.0385696 0.752629
-0.102705 -0.0385547 0.743555
-0.108423 -0.0385154 0.734021
-0.111651 -0.0384857 0.724688
-0.11724 -0.0384469 0.715199
-0.116643 -0.0384322 0.70617
-0.119813 -0.0384029 0.696882
-0.125259 -0.0383647 0.687449
-0.124638 -0.0383502 0.678451
-0.127748 -0.0383211 0.669207
-0.133045 -0.0382836 0.659831
-0.136105 -0.0382549 0.65062
-0.137569 -0.0382323 0.641526
-0.140591 -0.0382037 0.632343
-0.143589 -0.0381753 0.623175
-0.144931 -0.0381532 0.614123
-0.14789 -0.038125 0.604982
-0.150824 -0.0380968 0.595857
-0.152041 -0.0380753 0.586846
-0.154935 -0.0380474 0.577748
-0.157803 -0.0380196 0.568664
-0.157063 -0.0380057 0.559798
-0.161718 -0.037971 0.550637
-0.164519 -0.0379435 0.541594
-0.16375 -0.0379298 0.532757
-0.168234 -0.0378959 0.523647
-0.170966 -0.0378687 0.514645
-0.170166 -0.0378552 0.505837
-0.174475 -0.037822 0.496777
-0.177137 -0.0377952 0.487814
-0.176306 -0.0377818 0.479034
-0.178929 -0.0377552 0.470095
-0.181524 -0.0377287 0.46117
-0.182162 -0.0377097 0.452347
-0.184712 -0.0376835 0.443447
-0.183832 -0.0376704 0.434711
-0.186342 -0.0376443 0.425834
-0.190205 -0.037613 0.416911
-0.189291 -0.0376001 0.408202
-0.191726 -0.0375744 0.399362
-0.192766 -0.037554 0.39059
-0.193187 -0.037536 0.381852
-0.19681 -0.0375058 0.373
-0.195844 -0.0374932 0.364333
-0.19816 -0.037468 0.355552
-0.199205 -0.0374477 0.346828
-0.199449 -0.0374305 0.338141
-0.202826 -0.0374013 0.329357
-0.201804 -0.0373889 0.32073
-0.203999 -0.0373643 0.312007
-0.205047 -0.0373441 0.30333
-0.205109 -0.0373276 0.294693
-0.20723 -0.0373034 0.286003
-0.206155 -0.0372913 0.277414
-0.209225 -0.0372634 0.268718
-0.208127 -0.0372515 0.260145
-0.210152 -0.0372276 0.251497
-0.212146 -0.0372039 0.242862
-0.211013 -0.0371921 0.234312
-0.212961 -0.0371686 0.225696
-0.211807 -0.0371569 0.21716
-0.213709 -0.0371337 0.208564
-0.212534 -0.0371221 0.200042
-0.215232 -0.0370958 0.191449
-0.217049 -0.0370729 0.182885
-0.215835 -0.0370615 0.174386
-0.217605 -0.0370388 0.165841
-0.216368 -0.0370276 0.157355
-0.21809 -0.0370051 0.148829
-0.216832 -0.0369939 0.140356
-0.218506 -0.0369716 0.131849
-0.217225 -0.0369606 0.123389
-0.218851 -0.0369385 0.1149
-0.220443 -0.0369166 0.106422
-0.219124 -0.0369058 0.0979823
-0.220667 -0.0368841 0.0895219
-0.219325 -0.0368733 0.0810953
-0.220818 -0.0368518 0.0726526
-0.219454 -0.0368412 0.0642384
-0.22155 -0.0368175 0.0558094
-0.220159 -0.0368069 0.0474081
-0.221545 -0.0367859 0.0390006
-0.22013 -0.0367755 0.0306114
-0.221466 -0.0367547 0.0222207
-0.220027 -0.0367444 0.0138434
-0.221311 -0.0367239 0.00546925
0.178476 -0.0269232 1.15607
0.15958 -0.0268611 1.14422
0.132799 -0.0267782 1.13154
0.12533 -0.0267463 1.12105
0.110055 -0.0266939 1.10973
0.102617 -0.0266623 1.09931
0.0874324 -0.0266102 1.08807
0.0765159 -0.0265694 1.07732
0.0650111 -0.0265271 1.06654
0.0577178 -0.026496 1.05623
0.0504602 -0.026465 1.04595
0.0432415 -0.0264341 1.0357
0.036065 -0.0264033 1.02547
0.0214726 -0.0263531 1.01451
0.017734 -0.0263314 1.00468
0.0107129 -0.0263011 0.994537
0.00374723 -0.026271 0.984421
-0.00315978 -0.0262411 0.974333
-0.010005 -0.0262114 0.964272
-0.0136694 -0.02619 0.954537
-0.0204337 -0.0261606 0.944523
-0.0271292 -0.0261313 0.934537
-0.033753 -0.0261023 0.924579
-0.0333243 -0.0260917 0.915289
-0.0398667 -0.0260629 0.905372
-0.0434371 -0.026042 0.895744
-0.0498825 -0.0260135 0.885875
-0.0562461 -0.0259852 0.876033
-0.0597587 -0.0259645 0.86646
-0.0660173 -0.0259365 0.856665
-0.0655411 -0.0259262 0.847464
-0.0717033 -0.0258986 0.837711
-0.0777741 -0.0258712 0.827985
-0.0811951 -0.0258508 0.818497
-0.0871492 -0.0258238 0.808817
-0.090527 -0.0258035 0.799363
-0.0924827 -0.0257869 0.790038
-0.0958282 -0.0257667 0.780615
-0.101551 -0.0257404 0.771021
-0.104851 -0.0257204 0.761632
-0.104296 -0.0257104 0.752551
-0.10988 -0.0256845 0.743016
-0.113124 -0.0256647 0.733672
-0.118575 -0.0256392 0.724181
-0.117986 -0.0256293 0.715145
-0.123315 -0.0256042 0.705693
-0.126475 -0.0255847 0.696412
-0.131664 -0.0255599 0.687003
-0.131038 -0.0255502 0.678012
-0.134138 -0.0255309 0.668774
-0.139171 -0.0255066 0.659421
-0.138519 -0.025497 0.650461
-0.141556 -0.0254779 0.641267
-0.146429 -0.0254541 0.631968
-0.147558 -0.0254399 0.622924
-0.148723 -0.0254257 0.613887
-0.153431 -0.0254023 0.604642
-0.15635 -0.0253836 0.595522
-0.155633 -0.0253743 0.586632
-0.160171 -0.0253514 0.57744
-0.163023 -0.0253329 0.568362
-0.162277 -0.0253237 0.559501
-0.166641 -0.0253013 0.550361
-0.169426 -0.0252831 0.541324
-0.168649 -0.025274 0.532492
-0.171396 -0.0252558 0.523479
-0.174117 -0.0252377 0.51448
-0.174744 -0.025225 0.505601
-0.17742 -0.0252071 0.496628
-0.178651 -0.0251929 0.487739
-0.180554 -0.025177 0.478827
-0.183159 -0.0251593 0.469893
-0.182302 -0.0251505 0.461133
-0.184868 -0.0251329 0.452222
-0.188605 -0.0251123 0.443271
-0.187715 -0.0251036 0.434539
-0.190207 -0.0250863 0.425666
-0.191487 -0.0250721 0.416857
-0.19175 -0.0250605 0.4081
-0.195245 -0.0250406 0.399219
-0.194304 -0.0250321 0.390529
-0.196678 -0.0250151 0.381716
-0.199024 -0.0249982 0.372916
-0.198051 -0.0249898 0.364251
-0.201298 -0.0249707 0.355438
-0.200303 -0.0249623 0.346789
-0.202557 -0.0249457 0.338034
-0.204781 -0.0249292 0.329291
-0.203753 -0.024921 0.320667
-0.205935 -0.0249046 0.311945
-0.204887 -0.0248965 0.303335
-0.207826 -0.0248782 0.294611
-0.209132 -0.0248641 0.285947
-0.208842 -0.024854 0.277338
-0.210898 -0.024838 0.268672
-0.209793 -0.0248301 0.260101
-0.211804 -0.0248142 0.251455
-0.210678 -0.0248063 0.242898
-0.2133 -0.024789 0.234257
-0.215227 -0.0247734 0.225644
-0.214063 -0.0247656 0.21711
-0.215945 -0.0247501 0.208516
-0.21476 -0.0247424 0.199996
-0.216594 -0.0247271 0.191423
-0.215388 -0.0247195 0.182916
-0.217176 -0.0247043 0.174362
-0.218932 -0.0246892 0.165818
-0.217689 -0.0246817 0.157333
-0.219397 -0.0246668 0.148809
-0.218618 -0.0246581 0.14033
-0.220271 -0.0246433 0.131825
-0.218981 -0.024636 0.123367
-0.220585 -0.0246213 0.11488
-0.221125 -0.0246094 0.106414
-0.220828 -0.0245995 0.0979653
-0.22235 -0.0245852 0.0895065
-0.220999 -0.024578 0.0810814
-0.222472 -0.0245637 0.0726403
-0.221097 -0.0245567 0.0642277
-0.22252 -0.0245425 0.0558039
-0.221123 -0.0245355 0.0474035
-0.222495 -0.0245216 0.0389968
-0.221074 -0.0245146 0.0306084
-0.222396 -0.0245008 0.0222186
-0.220951 -0.024494 0.0138421
-0.222222 -0.0244803 0.00546875
0.182843 -0.0134857 1.18578
0.163956 -0.0134546 1.17385
0.140808 -0.0134178 1.16148
0.13333 -0.0134019 1.15094
0.118058 -0.0133756 1.13954
0.107069 -0.0133551 1.12866
0.0954374 -0.0133337 1.11774
0.0845629 -0.0133133 1.10694
0.0730253 -0.0132921 1.09609
0.0657297 -0.0132765 1.08572
0.0584705 -0.0132609 1.07539
0.0512508 -0.0132454 1.06508
0.0365889 -0.0132202 1.05401
0.0295041 -0.0132049 1.04377
0.0224715 -0.0131897 1.03355
0.0186938 -0.0131788 1.02369
0.0117302 -0.0131637 1.01353
0.0048258 -0.0131487 1.00339
-0.00201625 -0.0131338 0.993272
-0.00879283 -0.0131191 0.983187
-0.0124952 -0.0131083 0.973423
-0.0191868 -0.0130937 0.963386
-0.0258061 -0.0130791 0.953377
-0.0323502 -0.0130647 0.943395
-0.0359835 -0.0130541 0.933707
-0.0424308 -0.0130398 0.923774
-0.0420041 -0.0130345 0.914491
-0.0483623 -0.0130204 0.9046
-0.0546355 -0.0130063 0.894737
-0.0581846 -0.0129959 0.885136
-0.0643491 -0.012982 0.875319
-0.0678581 -0.0129717 0.865754
-0.0739097 -0.012958 0.855984
-0.0734328 -0.0129528 0.846791
-0.0793807 -0.0129393 0.837063
-0.0828177 -0.012929 0.827564
-0.0886447 -0.0129157 0.817882
-0.0943706 -0.0129025 0.808227
-0.0938542 -0.0128974 0.799095
-0.0972149 -0.0128873 0.789661
-0.102803 -0.0128743 0.780065
-0.106117 -0.0128643 0.770665
-0.109411 -0.0128543 0.761281
-0.111014 -0.0128465 0.75204
-0.116348 -0.0128339 0.74253
-0.11958 -0.012824 0.733193
-0.12279 -0.0128141 0.723872
-0.12418 -0.0128066 0.714697
-0.127354 -0.0127969 0.705404
-0.132392 -0.0127847 0.695994
-0.131773 -0.0127798 0.686996
-0.134886 -0.0127701 0.677747
-0.139765 -0.0127582 0.668393
-0.142826 -0.0127486 0.659177
-0.143863 -0.0127416 0.650108
-0.146885 -0.0127321 0.64092
-0.149882 -0.0127226 0.631747
-0.150788 -0.0127158 0.62272
-0.153745 -0.0127064 0.613574
-0.156677 -0.012697 0.604443
-0.157449 -0.0126904 0.595456
-0.160339 -0.0126811 0.586352
-0.163205 -0.0126718 0.577262
-0.162464 -0.0126672 0.568394
-0.166661 -0.0126562 0.559252
-0.169458 -0.012647 0.550204
-0.168687 -0.0126425 0.541364
-0.172703 -0.0126318 0.532272
-0.175431 -0.0126227 0.523264
-0.174629 -0.0126182 0.514453
-0.177319 -0.0126092 0.505469
-0.181117 -0.0125988 0.496441
-0.180283 -0.0125944 0.487658
-0.182901 -0.0125855 0.478712
-0.185492 -0.0125767 0.469781
-0.185644 -0.012571 0.460976
-0.188189 -0.0125622 0.452069
-0.187305 -0.0125578 0.44333
-0.189809 -0.0125491 0.434446
-0.193175 -0.0125394 0.425537
-0.192258 -0.0125351 0.416824
-0.194687 -0.0125265 0.407977
-0.196217 -0.0125191 0.39918
-0.196139 -0.0125137 0.390456
-0.199255 -0.0125043 0.381616
-0.198285 -0.0125001 0.372944
-0.200595 -0.0124917 0.364156
-0.202876 -0.0124833 0.355381
-0.201874 -0.0124792 0.346734
-0.204113 -0.0124709 0.33798
-0.203709 -0.012466 0.329327
-0.205897 -0.0124578 0.320596
-0.208056 -0.0124496 0.311878
-0.206998 -0.0124456 0.30327
-0.209113 -0.0124375 0.294572
-0.208034 -0.0124334 0.285979
-0.210106 -0.0124254 0.277303
-0.212146 -0.0124174 0.268638
-0.211495 -0.0124129 0.260056
-0.213483 -0.012405 0.251412
-0.212346 -0.0124011 0.242857
-0.214289 -0.0123932 0.234233
-0.213132 -0.0123893 0.225692
-0.21503 -0.0123816 0.217088
-0.216896 -0.0123739 0.208496
-0.215703 -0.01237 0.199977
-0.217824 -0.012362 0.191399
-0.216606 -0.0123582 0.182893
-0.218371 -0.0123506 0.17434
-0.219432 -0.012344 0.16581
-0.21885 -0.0123394 0.157315
-0.220535 -0.0123319 0.148792
-0.219259 -0.0123282 0.140321
-0.220897 -0.0123209 0.131816
-0.219598 -0.0123172 0.123359
-0.221188 -0.0123099 0.114872
-0.219867 -0.0123063 0.106428
-0.221408 -0.012299 0.0979594
-0.222915 -0.0122919 0.0895013
-0.221557 -0.0122883 0.0810768
-0.223015 -0.0122812 0.0726363
-0.221633 -0.0122777 0.0642241
-0.223041 -0.0122706 0.0558009
-0.221636 -0.0122671 0.047401
-0.222994 -0.0122602 0.0389948
-0.221566 -0.0122567 0.0306069
-0.222873 -0.0122498 0.0222175
-0.221421 -0.0122464 0.0138414
-0.222677 -0.0122396 0.00546849
0.217551 0 1.22904
0.190994 0 1.21605
0.172138 0 1.20404
0.156818 0 1.19248
0.141514 0 1.18097
0.126249 0 1.1695
0.115298 0 1.15856
0.103634 0 1.14756
0.0928027 0 1.1367
0.0812351 0 1.12578
0.0739389 0 1.11536
0.0666798 0 1.10497
0.0519537 0 1.09379
0.044822 0 1.08347
0.0377398 0 1.07317
0.0307105 0 1.0629
0.0268829 0 1.05299
0.0199228 0 1.04277
0.0130225 0 1.03258
0.0061851 0 1.02242
-0.00058638 0 1.01228
-0.00434018 0 1.00247
-0.0110265 0 0.992377
-0.01764 0 0.982317
-0.0241779 0 0.972285
-0.0278639 0 0.962549
-0.0343048 0 0.952564
-0.0406635 0 0.942609
-0.0442943 0 0.932929
-0.0505481 0 0.923021
-0.0501215 0 0.913746
-0.0562788 0 0.90388
-0.0623445 0 0.894043
-0.0658875 0 0.88445
-0.0718368 0 0.874659
-0.0753386 0 0.865102
-0.0788208 0 0.855561
-0.0806879 0 0.846172
-0.0864062 0 0.83647
-0.0898335 0 0.826978
-0.0954237 0 0.817323
-0.0966271 0 0.808043
-0.100386 0 0.798568
-0.103735 0 0.789141
-0.109072 0 0.779571
-0.112374 0 0.770178
-0.111821 0 0.761096
-0.117008 0 0.751584
-0.120252 0 0.742236
-0.123474 0 0.732904
-0.124707 0 0.723731
-0.129619 0 0.714303
-0.132776 0 0.705017
-0.134195 0 0.695867
-0.136912 0 0.686638
-0.140007 0 0.677395
-0.14308 0 0.668168
-0.14395 0 0.659102
-0.146982 0 0.649902
-0.151408 0 0.640626
-0.151474 0 0.631645
-0.153694 0 0.622536
-0.157945 0 0.613312
-0.158163 0 0.604352
-0.160137 0 0.595293
-0.163013 0 0.586193
-0.164582 0 0.577182
-0.166303 0 0.568173
-0.169112 0 0.559113
-0.170724 0 0.550133
-0.172188 0 0.541172
-0.174926 0 0.532152
-0.176583 0 0.523202
-0.177785 0 0.514288
-0.180452 0 0.505307
-0.179623 0 0.496516
-0.182252 0 0.48756
-0.185682 0 0.478577
-0.18482 0 0.469813
-0.187376 0 0.460895
-0.189904 0 0.45199
-0.189716 0 0.443221
-0.192197 0 0.43434
-0.191284 0 0.425619
-0.193724 0 0.416762
-0.196137 0 0.407917
-0.195761 0 0.399198
-0.198125 0 0.390377
-0.199909 0 0.38159
-0.199481 0 0.372898
-0.201775 0 0.364112
-0.200778 0 0.355457
-0.203451 0 0.346678
-0.205665 0 0.337927
-0.204631 0 0.329296
-0.206802 0 0.320567
-0.205749 0 0.311951
-0.207878 0 0.303243
-0.210249 0 0.294538
-0.209158 0 0.285946
-0.211204 0 0.277271
-0.210094 0 0.268694
-0.212095 0 0.26004
-0.214066 0 0.251397
-0.212922 0 0.242842
-0.214965 0 0.234217
-0.213796 0 0.225677
-0.215668 0 0.217074
-0.217413 0 0.208485
-0.216303 0 0.199965
-0.218098 0 0.191393
-0.216872 0 0.182888
-0.21862 0 0.174336
-0.217372 0 0.165845
-0.219074 0 0.157311
-0.220742 0 0.148788
-0.219458 0 0.140318
-0.221079 0 0.131814
-0.219773 0 0.123357
-0.221346 0 0.114871
-0.220018 0 0.106426
-0.221542 0 0.0979581
-0.22303 0 0.0895003
-0.221668 0 0.0810759
-0.223118 0 0.0726355
-0.221732 0 0.0642235
-0.223132 0 0.0558004
-0.221724 0 0.0474006
-0.223074 0 0.0389945
-0.221642 0 0.0306066
-0.222941 0 0.0222173
-0.221486 0 0.0138413
-0.222734 0 0.00546846
0.233604 0.013596 1.26053
0.207122 0.0135546 1.24743
0.180491 0.0135131 1.23437
0.165173 0.0134867 1.22274
0.149875 0.0134603 1.21115
0.134619 0.0134339 1.1996
0.123707 0.0134134 1.1886
0.112015 0.0133919 1.17753
0.101227 0.0133715 1.16661
0.0896326 0.0133501 1.15562
0.0823376 0.0133344 1.14515
0.0750802 0.0133188 1.1347
0.0678636 0.0133033 1.12428
0.0532497 0.013278 1.11307
0.0461717 0.0132626 1.10272
0.0422842 0.0132515 1.09274
0.0352721 0.0132363 1.08244
0.028317 0.0132212 1.07217
0.0214223 0.0132061 1.06192
0.0145908 0.0131912 1.0517
0.00782585 0.0131763 1.04151
0.00402299 0.0131654 1.03165
-0.00265657 0.0131507 1.02151
-0.00926302 0.0131361 1.0114
-0.0157934 0.0131216 1.00132
-0.0195298 0.0131108 0.991532
-0.025963 0.0130965 0.981498
-0.0323137 0.0130823 0.971492
-0.035996 0.0130716 0.961764
-0.0422417 0.0130576 0.951806
-0.0483985 0.0130436 0.941876
-0.0520231 0.013033 0.932204
-0.0556296 0.0130225 0.922549
-0.0576386 0.013014 0.913056
-0.0635793 0.0130004 0.903217
-0.0671351 0.01299 0.893612
-0.0729553 0.0129766 0.883821
-0.0786744 0.0129633 0.874057
-0.0799643 0.0129558 0.864699
-0.0838137 0.012945 0.85513
-0.0872724 0.0129347 0.84561
-0.0927469 0.0129218 0.835935
-0.0961609 0.0129116 0.82645
-0.0995547 0.0129015 0.816982
-0.100984 0.0128939 0.807688
-0.104343 0.0128837 0.798249
-0.109533 0.0128713 0.788679
-0.112845 0.0128612 0.779274
-0.114056 0.0128539 0.770047
-0.117332 0.012844 0.760672
-0.122249 0.0128319 0.751186
-0.125476 0.012822 0.741844
-0.124891 0.0128171 0.732799
-0.129646 0.0128052 0.723369
-0.132813 0.0127954 0.714072
-0.134411 0.0127877 0.7049
-0.136791 0.012779 0.695684
-0.139896 0.0127693 0.68643
-0.142979 0.0127596 0.677191
-0.143678 0.0127531 0.668128
-0.14672 0.0127435 0.658917
-0.150979 0.0127324 0.649639
-0.150301 0.0127276 0.640698
-0.153278 0.0127182 0.631529
-0.157359 0.0127073 0.622304
-0.15916 0.0126994 0.613236
-0.159563 0.0126933 0.604266
-0.163463 0.0126826 0.595092
-0.16531 0.0126747 0.586056
-0.165569 0.0126688 0.577124
-0.169284 0.0126584 0.568
-0.171179 0.0126504 0.558995
-0.17129 0.0126447 0.550101
-0.174038 0.0126356 0.54107
-0.175892 0.0126277 0.532099
-0.176722 0.0126211 0.523195
-0.179398 0.0126121 0.514203
-0.1813 0.0126041 0.505264
-0.181856 0.0125979 0.496403
-0.18446 0.012589 0.48745
-0.183602 0.0125846 0.478678
-0.186167 0.0125758 0.469749
-0.189219 0.0125664 0.460808
-0.188327 0.012562 0.452063
-0.190818 0.0125533 0.443171
-0.193281 0.0125447 0.434292
-0.192359 0.0125404 0.425573
-0.195158 0.0125313 0.416701
-0.196709 0.0125239 0.407893
-0.196588 0.0125186 0.399164
-0.198933 0.0125101 0.390345
-0.197959 0.0125059 0.381666
-0.200498 0.0124972 0.37286
-0.202539 0.0124892 0.364084
-0.201754 0.0124847 0.355422
-0.203979 0.0124765 0.346659
-0.20295 0.0124724 0.338021
-0.205225 0.012464 0.329276
-0.207369 0.0124559 0.320548
-0.206302 0.0124518 0.311934
-0.208403 0.0124438 0.303226
-0.207317 0.0124397 0.294626
-0.209375 0.0124317 0.28594
-0.211403 0.0124238 0.277266
-0.210283 0.0124198 0.268689
-0.212267 0.0124119 0.260035
-0.211127 0.012408 0.251472
-0.213066 0.0124001 0.242839
-0.214974 0.0123924 0.234217
-0.2138 0.0123885 0.225677
-0.215663 0.0123808 0.217074
-0.214468 0.0123769 0.208548
-0.216286 0.0123693 0.199965
-0.218071 0.0123617 0.191394
-0.216841 0.0123579 0.182889
-0.21858 0.0123504 0.174337
-0.217328 0.0123466 0.165845
-0.21902 0.0123392 0.157312
-0.217747 0.0123355 0.148834
-0.219392 0.0123281 0.140319
-0.220819 0.012321 0.131817
-0.219504 0.0123173 0.12336
-0.22106 0.0123101 0.114874
-0.219722 0.0123065 0.106429
-0.221229 0.0122993 0.0979612
-0.21987 0.0122957 0.0895292
-0.221328 0.0122886 0.0810787
-0.222753 0.0122815 0.0726382
-0.221355 0.012278 0.064226
-0.22273 0.012271 0.0558027
-0.221309 0.0122675 0.0474026
-0.222635 0.0122606 0.0389962
-0.22119 0.0122572 0.0306081
-0.222465 0.0122503 0.0222184
-0.220997 0.0122469 0.013842
-0.222222 0.0122402 0.00546875
0.249793 0.0272721 1.2922
0.223393 0.0271895 1.279
0.196819 0.0271065 1.26583
0.181501 0.0270535 1.25411
0.162727 0.0269913 1.242
0.147475 0.0269386 1.23037
0.135707 0.0268951 1.2192
0.124872 0.0268542 1.20816
0.113184 0.0268111 1.19706
0.105826 0.0267794 1.1865
0.0909178 0.0267278 1.17508
0.0836638 0.0266965 1.16458
0.0764511 0.0266654 1.15411
0.0692831 0.0266344 1.14366
0.0579199 0.0265923 1.13277
0.0508593 0.0265616 1.12239
0.0438531 0.0265311 1.11203
0.0369045 0.0265008 1.1017
0.0300167 0.0264707 1.09141
0.0231927 0.0264407 1.08114
0.0193281 0.0264186 1.0712
0.012586 0.026389 1.06098
0.00591449 0.0263595 1.05079
-0.000683537 0.0263303 1.04063
-0.0072051 0.0263013 1.03049
-0.0109895 0.0262795 1.02066
-0.0174138 0.0262508 1.01058
-0.0237552 0.0262223 1.00052
-0.0274866 0.0262008 0.990742
-0.033723 0.0261726 0.980734
-0.0398703 0.0261448 0.970755
-0.0435451 0.0261234 0.961035
-0.0495797 0.0260959 0.951104
-0.0555192 0.0260686 0.941203
-0.0568344 0.0260535 0.931754
-0.0609355 0.0260311 0.922057
-0.0645205 0.0260101 0.912424
-0.0702298 0.0259835 0.902612
-0.0737733 0.0259626 0.893015
-0.079355 0.0259364 0.883251
-0.0808035 0.0259211 0.87387
-0.0843576 0.0259002 0.864316
-0.0878258 0.0258796 0.854784
-0.0931558 0.0258541 0.845109
-0.0965789 0.0258337 0.835612
-0.0981119 0.0258182 0.826288
-0.101257 0.0257985 0.816841
-0.106322 0.0257738 0.807252
-0.109664 0.0257536 0.79782
-0.112985 0.0257335 0.788403
-0.114036 0.0257194 0.77918
-0.11732 0.0256994 0.769793
-0.122079 0.0256756 0.760306
-0.123825 0.0256597 0.751066
-0.126129 0.0256423 0.741795
-0.129326 0.0256226 0.73247
-0.1325 0.0256031 0.72316
-0.134277 0.0255871 0.713966
-0.136317 0.0255705 0.704764
-0.140613 0.025548 0.695415
-0.14252 0.0255318 0.686247
-0.143048 0.0255191 0.677187
-0.147168 0.0254972 0.667891
-0.150186 0.0254781 0.658685
-0.14951 0.0254686 0.649736
-0.153451 0.0254472 0.640493
-0.156403 0.0254283 0.631329
-0.158393 0.0254119 0.622239
-0.159456 0.025398 0.613218
-0.162342 0.0253794 0.604095
-0.164381 0.0253629 0.595036
-0.164458 0.0253515 0.586106
-0.167995 0.0253313 0.576981
-0.170084 0.0253147 0.567954
-0.170011 0.0253038 0.559062
-0.173358 0.0252841 0.549985
-0.175497 0.0252674 0.540989
-0.175272 0.0252569 0.532133
-0.177957 0.0252389 0.523129
-0.180056 0.0252225 0.514169
-0.180235 0.0252109 0.505318
-0.182846 0.0251932 0.496353
-0.184996 0.0251766 0.487424
-0.184894 0.0251659 0.478615
-0.187431 0.0251483 0.469688
-0.186542 0.0251396 0.460934
-0.189041 0.0251222 0.45203
-0.191706 0.0251044 0.443131
-0.190783 0.0250958 0.434403
-0.193205 0.0250786 0.425536
-0.19543 0.025062 0.416689
-0.194646 0.0250531 0.407979
-0.197052 0.025036 0.399146
-0.199182 0.0250196 0.390335
-0.198379 0.0250108 0.38165
-0.200655 0.0249941 0.372854
-0.199648 0.0249857 0.364191
-0.201882 0.0249692 0.355417
-0.204088 0.0249527 0.346655
-0.203052 0.0249445 0.338017
-0.205212 0.0249281 0.329277
-0.204154 0.02492 0.320653
-0.206275 0.0249038 0.311934
-0.208366 0.0248876 0.303228
-0.207275 0.0248796 0.294628
-0.209324 0.0248636 0.285942
-0.211342 0.0248477 0.277268
-0.210217 0.0248398 0.268691
-0.212009 0.0248245 0.260042
-0.21086 0.0248166 0.251479
-0.21278 0.024801 0.242846
-0.21161 0.0247932 0.234297
-0.213485 0.0247778 0.225684
-0.215329 0.0247624 0.217082
-0.214125 0.0247547 0.208555
-0.215923 0.0247395 0.199973
-0.214698 0.0247319 0.19146
-0.216092 0.0247177 0.182903
-0.217803 0.0247027 0.174351
-0.216537 0.0246953 0.165859
-0.218201 0.0246804 0.157325
-0.216914 0.024673 0.148847
-0.218531 0.0246583 0.140331
-0.220116 0.0246437 0.131827
-0.218792 0.0246364 0.123369
-0.220329 0.024622 0.114883
-0.218982 0.0246148 0.106437
-0.220471 0.0246004 0.0979688
-0.219102 0.0245933 0.0895362
-0.220542 0.0245791 0.0810852
-0.221949 0.0245651 0.0726442
-0.220542 0.024558 0.0642313
-0.221899 0.0245441 0.0558074
-0.220469 0.0245372 0.0474066
-0.221777 0.0245234 0.0389997
-0.220323 0.0245165 0.0306108
-0.221581 0.0245029 0.0222204
-0.220104 0.0244961 0.0138433
-0.221311 0.0244826 0.00546925
0.284801 0.0411039 1.32648
0.239797 0.0409054 1.31075
0.205485 0.0407498 1.29648
0.190172 0.0406701 1.28468
0.174874 0.0405906 1.27293
0.159614 0.0405113 1.26121
0.148748 0.0404496 1.25007
0.13698 0.0403844 1.23886
0.126232 0.0403233 1.2278
0.114556 0.0402585 1.21665
0.107234 0.0402112 1.20606
0.0924224 0.040134 1.1946
0.0852152 0.0400872 1.18408
