ply
format ascii 1.0
comment Created by Open3D
element vertex 1662
property double x
property double y
property double z
end_header
-0.172974 -0.160489 0.0514182
-0.128215 -0.160443 0.0646605
-0.0185696 -0.16035 0.11175
-0.243574 -0.160304 -0.0098888
-0.0071672 -0.160213 0.100573
-0.356182 -0.160122 -0.0816841
-0.235102 -0.160077 -0.0302819
0.0635011 -0.156328 0.724634
0.0989937 -0.15596 0.741422
0.185737 -0.155715 0.780479
0.141961 -0.155534 0.752509
0.100373 -0.155355 0.725647
0.0411195 -0.155111 0.691749
0.224055 -0.154933 0.777171
-0.0534724 -0.154755 0.632369
-0.184919 -0.154577 0.560615
-0.145156 -0.154401 0.57447
-0.143689 -0.154225 0.569181
-0.294015 -0.15405 0.487997
-0.179133 -0.153994 0.536072
0.0591856 -0.15382 0.649222
0.0769008 -0.153708 0.650327
-0.0586663 -0.153535 0.57654
-0.154526 -0.153363 0.522603
-0.149572 -0.153308 0.515756
-0.0738331 -0.153138 0.547623
-0.130874 -0.153028 0.511381
-0.182932 -0.152859 0.47935
-0.0371392 -0.152804 0.54295
-0.111219 -0.152637 0.499908
-0.133197 -0.152528 0.481216
-0.0253962 -0.152416 0.527532
-0.0564274 -0.152309 0.504324
-0.162157 -0.152144 0.445447
0.130211 -0.152091 0.582374
-0.219599 -0.151984 0.399786
-0.288038 -0.151822 0.359553
-0.257734 -0.151769 0.365463
-0.0498828 -0.151609 0.463365
-0.19151 -0.151504 0.384881
-0.0592886 -0.151452 0.441765
-0.338951 -0.151293 0.295902
0.0663965 -0.15119 0.490912
-0.232895 -0.151138 0.332053
0.0180187 -0.151036 0.449847
-0.26457 -0.15088 0.302512
-0.00535004 -0.150829 0.422923
-0.0533703 -0.150728 0.391253
-0.140241 -0.150678 0.338624
-0.072534 -0.150524 0.366428
0.0627875 -0.150424 0.426432
-0.20558 -0.150375 0.283066
-0.0320626 -0.150224 0.363754
-0.332666 -0.150175 0.204279
-0.241551 -0.150076 0.242183
-0.229682 -0.149979 0.24046
-0.218267 -0.14993 0.237
-0.0312041 -0.149782 0.324444
-0.0600545 -0.149734 0.30086
-0.51336 -0.149638 0.06655
-0.378149 -0.14959 0.125
-0.347225 -0.149495 0.132802
-0.0480626 -0.1494 0.274719
-0.174382 -0.149304 0.203966
-0.252052 -0.14921 0.157467
-0.222493 -0.149163 0.163102
-0.171287 -0.149071 0.181037
-0.369885 -0.149024 0.0725972
-0.0361301 -0.148932 0.231802
-0.0541348 -0.148886 0.213661
-0.229699 -0.148795 0.118201
-0.0674854 -0.148656 0.19317
-0.415566 -0.148611 0.00999766
-0.163624 -0.148522 0.128282
-0.192241 -0.148477 0.104844
-0.400443 -0.148388 -0.00694933
-0.136381 -0.148344 0.115953
0.156315 -0.148256 0.254602
0.0732299 -0.148212 0.203931
-0.260822 -0.148125 0.0291992
-0.228089 -0.148082 0.0364389
-0.196123 -0.147996 0.0447082
-0.0733115 -0.147953 0.0969875
-0.308772 -0.147867 -0.0284647
-0.154859 -0.147825 0.0393657
-0.139712 -0.147741 0.0392083
-0.211027 -0.147657 -0.0041879
-0.294018 -0.147615 -0.0548109
0.0232224 -0.143893 0.753744
0.045376 -0.143555 0.763684
0.0636668 -0.143329 0.768386
0.139428 -0.143162 0.800107
0.232777 -0.142884 0.84399
-0.0516408 -0.14266 0.697384
0.00608781 -0.142495 0.720128
0.0968116 -0.142331 0.75938
0.065894 -0.142167 0.737817
-0.195348 -0.142004 0.601098
0.102948 -0.141841 0.744152
-0.102097 -0.141788 0.632227
0.201683 -0.141627 0.778036
-0.0935103 -0.141466 0.62436
-0.198349 -0.141306 0.565859
-0.104731 -0.141201 0.604911
-0.252017 -0.141043 0.525193
-0.179035 -0.140991 0.552336
-0.0358693 -0.140833 0.61785
-0.400728 -0.140677 0.429345
-0.288255 -0.140574 0.477857
0.163589 -0.14047 0.696106
-0.085258 -0.140368 0.563971
0.0904854 -0.140214 0.645765
-0.244006 -0.140113 0.470816
-0.00601777 -0.140011 0.582139
-0.0613497 -0.13991 0.546781
-0.174875 -0.13976 0.48393
0.0459527 -0.13971 0.585076
0.0431437 -0.13961 0.57599
-0.176663 -0.139461 0.459996
-0.0351698 -0.139412 0.521491
-0.365289 -0.139265 0.350331
-0.130756 -0.139167 0.45993
0.0161081 -0.139118 0.524127
-0.235443 -0.138972 0.392242
-0.0779859 -0.138876 0.463311
0.0285293 -0.138828 0.507348
-0.107192 -0.138684 0.433365
-0.00210831 -0.138589 0.478254
-0.0563711 -0.138541 0.441916
-0.321722 -0.138446 0.301589
-0.0471721 -0.138353 0.431182
-0.115693 -0.138259 0.389275
-0.312698 -0.138165 0.283125
-0.0242786 -0.138118 0.418147
-0.142379 -0.13798 0.352949
-0.0946584 -0.137934 0.367631
-0.299993 -0.137842 0.257321
-0.0958321 -0.13775 0.351756
-0.344679 -0.137661 0.219639
-0.227928 -0.13757 0.270372
-0.233738 -0.137524 0.258304
-0.166536 -0.137434 0.284262
-0.102353 -0.137345 0.308707
-0.3074 -0.137257 0.198484
-0.233712 -0.137168 0.227683
-0.0315304 -0.137124 0.319625
-0.107312 -0.137036 0.274087
-0.12676 -0.136992 0.255218
-0.230904 -0.136905 0.195496
-0.100778 -0.136776 0.254341
-0.245822 -0.136733 0.172682
-0.0856487 -0.136647 0.245113
-0.142165 -0.136604 0.207721
-0.309043 -0.136519 0.116624
-0.221098 -0.136477 0.151465
-0.30632 -0.136392 0.101191
-0.135209 -0.13635 0.177617
-0.289184 -0.136226 0.0943795
-0.0813633 -0.136143 0.190618
-0.270885 -0.136102 0.0867348
-0.143522 -0.13602 0.142739
-0.0427259 -0.135979 0.184016
-0.510054 -0.135897 -0.0573314
-0.255834 -0.135857 0.0606588
-0.203724 -0.135776 0.079024
-0.163184 -0.135736 0.0901752
-0.320123 -0.135656 0.0040084
-0.260715 -0.135616 0.0245947
-0.124959 -0.135537 0.0847677
-0.364604 -0.135498 -0.0441717
-0.191484 -0.13542 0.0346751
-0.453958 -0.135381 -0.105679
-0.0458756 -0.135304 0.0906405
-0.309998 -0.135227 -0.0491508
-0.345344 -0.135189 -0.0759416
0.231492 -0.131413 0.905661
-0.0806131 -0.131208 0.744976
0.3111 -0.1309 0.939552
0.0539187 -0.130694 0.806408
0.00063945 -0.130439 0.776857
0.0147001 -0.130235 0.779366
-0.177436 -0.130084 0.677104
0.0418459 -0.129933 0.780561
0.0465392 -0.129782 0.776733
0.0233888 -0.129632 0.75899
0.0961197 -0.129483 0.789194
0.155137 -0.129334 0.812545
-0.128026 -0.129186 0.66481
0.0244454 -0.129039 0.734892
-0.061428 -0.12899 0.682552
0.118451 -0.128844 0.766349
-0.138912 -0.128698 0.631522
-0.0356079 -0.128602 0.675414
-0.146341 -0.128457 0.613908
-0.0558592 -0.128314 0.653004
-0.111387 -0.128266 0.615891
-0.277722 -0.128124 0.526581
-0.147155 -0.128029 0.584139
0.0169869 -0.127888 0.660066
-0.199154 -0.127841 0.542676
-0.152305 -0.127701 0.559955
-0.08917 -0.127607 0.583819
0.115633 -0.127469 0.680068
-0.0911443 -0.127422 0.567389
-0.0960825 -0.127285 0.558761
0.268804 -0.127193 0.733521
-0.00132468 -0.127058 0.592286
-0.0395266 -0.127012 0.563921
0.0268262 -0.126921 0.589425
-0.153627 -0.126787 0.493022
-0.16984 -0.126742 0.475667
-0.0259846 -0.126652 0.539933
-0.252512 -0.12652 0.420483
0.100981 -0.126476 0.587998
-0.0310022 -0.126387 0.514352
-0.0614973 -0.126257 0.492905
-0.0260215 -0.126213 0.501426
-0.236017 -0.126125 0.38878
-0.00832262 -0.126041 0.494851
0.114681 -0.125953 0.548711
0.0396705 -0.125867 0.503564
0.0755591 -0.125823 0.512312
-0.200092 -0.125698 0.368257
-0.0682372 -0.125612 0.426546
-0.218303 -0.125569 0.34233
0.0720998 -0.125446 0.481278
-0.168372 -0.125404 0.351868
-0.212181 -0.125319 0.32233
-0.126424 -0.125235 0.357573
-0.119338 -0.125194 0.351949
-0.176607 -0.125073 0.31704
-0.0570807 -0.125032 0.367645
-0.254747 -0.124949 0.261179
-0.193326 -0.124908 0.282736
-0.140896 -0.124826 0.301317
-0.304284 -0.124709 0.21332
-0.159408 -0.124668 0.276614
-0.406234 -0.124587 0.145564
-0.343553 -0.124547 0.167765
-0.117357 -0.124467 0.273224
-0.296913 -0.124427 0.174309
-0.274194 -0.124348 0.178027
-0.122764 -0.124234 0.247408
-0.170722 -0.124195 0.214299
-0.250583 -0.124117 0.166722
-0.0889537 -0.124078 0.238411
0.132394 -0.124001 0.341433
-0.0759173 -0.123962 0.228155
-0.310487 -0.123886 0.103214
-0.257232 -0.123848 0.120722
-0.317298 -0.123738 0.0843139
-0.128573 -0.123663 0.171012
-0.292226 -0.123625 0.0800696
-0.308677 -0.12355 0.064174
-0.124736 -0.123513 0.147031
-0.216661 -0.123439 0.093392
-0.282142 -0.123403 0.0515393
-0.0861975 -0.123329 0.141828
-0.348728 -0.123293 0.00145233
-0.105947 -0.12322 0.115152
-0.089558 -0.123184 0.114237
-0.218729 -0.123113 0.041953
-0.289337 -0.123077 -0.00246003
-0.0425322 -0.123006 0.113236
-0.214246 -0.122971 0.01827
-0.210643 -0.1229 0.0123561
-0.0588237 -0.122831 0.0805424
-0.0850693 -0.122796 0.0583095
0.166795 -0.118775 0.911775
0.215847 -0.118451 0.936432
0.0252752 -0.118173 0.839716
-0.0805004 -0.117988 0.782163
-0.0784493 -0.117758 0.780171
0.151454 -0.11762 0.888848
0.20616 -0.117437 0.91158
-0.0216258 -0.1173 0.791436
-0.0128493 -0.117163 0.789582
-0.0937154 -0.117028 0.742915
0.147872 -0.116892 0.857481
-0.0572476 -0.116758 0.748698
-0.00874001 -0.116623 0.766732
-0.170811 -0.11649 0.679478
0.116489 -0.116401 0.815325
0.0794462 -0.116268 0.790596
-0.0418959 -0.116137 0.723715
-0.143417 -0.116092 0.663555
-0.07659 -0.115961 0.690766
-0.00889236 -0.115831 0.718407
-0.229059 -0.115744 0.600571
-0.172406 -0.115615 0.622692
0.0019312 -0.115487 0.703645
-0.0747809 -0.115444 0.655943
-0.167071 -0.115317 0.603583
-0.125835 -0.115231 0.616482
-0.182746 -0.115105 0.581806
0.0522774 -0.115063 0.690002
-0.303726 -0.114938 0.505775
-0.0827807 -0.114854 0.608551
-0.12871 -0.114811 0.57629
-0.0321371 -0.114688 0.61835
-0.0374227 -0.114605 0.608024
-0.356545 -0.114483 0.442223
-0.275093 -0.114442 0.473679
-0.226724 -0.114322 0.491612
-0.136404 -0.114239 0.529106
-0.138676 -0.114198 0.518717
-0.296111 -0.11408 0.433737
-0.192797 -0.113998 0.477737
-0.271238 -0.113957 0.42928
-0.0197908 -0.113841 0.548728
0.0229152 -0.11376 0.562433
-0.178385 -0.11372 0.452561
-0.100833 -0.113605 0.485045
-0.313527 -0.113525 0.371056
-0.252319 -0.113486 0.392453
-0.127151 -0.113373 0.448724
-0.141362 -0.113334 0.432422
-0.278934 -0.113255 0.356003
-0.226374 -0.113177 0.37465
-0.292323 -0.113105 0.333788
-0.158434 -0.113028 0.393103
-0.251098 -0.112951 0.339141
-0.148601 -0.112912 0.381214
-0.32178 -0.112804 0.288267
0.0201148 -0.112766 0.450048
-0.137942 -0.11269 0.363393
-0.101073 -0.112615 0.374199
-0.295304 -0.112577 0.267926
-0.254961 -0.112472 0.281711
-0.163601 -0.112434 0.318241
-0.222058 -0.11236 0.281386
-0.0946197 -0.112323 0.335959
-0.375922 -0.112249 0.187681
-0.176644 -0.112147 0.2809
-0.194068 -0.11211 0.263051
-0.350075 -0.112038 0.177417
-0.278683 -0.112002 0.20398
-0.375746 -0.11193 0.147815
-0.242305 -0.111894 0.205407
-0.0797987 -0.111823 0.279024
-0.133175 -0.111723 0.245877
-0.272988 -0.111688 0.166848
-0.0971955 -0.111618 0.247102
0.0137074 -0.111583 0.293435
-0.370324 -0.111513 0.0937732
-0.057256 -0.111479 0.241191
-0.208811 -0.11141 0.157763
-0.110798 -0.111376 0.197656
-0.409377 -0.111307 0.040711
-0.0528429 -0.111239 0.211316
0.013408 -0.111179 0.236483
-0.137807 -0.111112 0.15321
-0.208239 -0.111078 0.108886
-0.293472 -0.111012 0.058598
-0.384677 -0.110979 0.0038897
-0.188798 -0.110913 0.0941502
-0.232825 -0.11088 0.0630323
-0.141653 -0.110815 0.100932
-0.168749 -0.110783 0.0782805
-0.237829 -0.110718 0.0360468
-0.22806 -0.110686 0.0318283
-0.150822 -0.110622 0.0627453
-0.216843 -0.11059 0.0206322
-0.299985 -0.110527 -0.0286495
-0.135722 -0.110465 0.0457633
0.0160304 -0.110433 0.112535
-0.0430489 -0.10562 0.850302
-0.0740039 -0.105455 0.830011
0.0789486 -0.105249 0.903335
0.0696779 -0.105084 0.893942
0.182099 -0.104879 0.947042
-0.150329 -0.104756 0.774497
0.133956 -0.104633 0.910322
0.0680613 -0.104471 0.872654
-0.0154134 -0.10435 0.824613
0.220618 -0.104229 0.936332
-0.059353 -0.104108 0.790055
0.0528401 -0.104027 0.838304
-0.0736303 -0.103907 0.768792
0.0339447 -0.103788 0.816305
0.0794957 -0.10367 0.832806
0.0101174 -0.103552 0.791841
-0.0069825 -0.103435 0.777011
0.114893 -0.103355 0.830162
-0.247963 -0.103279 0.640834
0.154503 -0.103199 0.834296
-0.0356549 -0.103084 0.732948
0.0173237 -0.10297 0.753159
0.18895 -0.102891 0.831224
-0.0320106 -0.102817 0.712843
-0.0888829 -0.102739 0.676674
-0.109356 -0.102627 0.660156
0.10781 -0.102549 0.761017
-0.00914311 -0.102438 0.696252
-0.0478797 -0.1024 0.66756
0.0166591 -0.10229 0.693535
-0.0545151 -0.102214 0.650249
-0.313409 -0.102143 0.512888
0.223757 -0.102067 0.773784
-0.0494088 -0.101959 0.630884
-0.14088 -0.101884 0.577469
0.135269 -0.101847 0.706267
-0.000803281 -0.101741 0.631906
-0.0281221 -0.101667 0.610579
-0.135616 -0.10163 0.547572
-0.0884832 -0.101525 0.564803
0.0203724 -0.101452 0.611574
-0.04575 -0.101385 0.570567
-0.0203585 -0.101312 0.575614
-0.145379 -0.10124 0.505456
0.0449561 -0.101203 0.591396
-0.199283 -0.101102 0.462907
0.0543326 -0.101031 0.582075
-0.101841 -0.100995 0.494775
-0.175089 -0.100895 0.45176
-0.454954 -0.100825 0.304194
-0.168054 -0.100789 0.438445
0.012445 -0.100692 0.522278
-0.204488 -0.100657 0.404622
-0.0713065 -0.100587 0.463587
-0.0817152 -0.100517 0.450756
-0.125007 -0.100456 0.421116
-0.292417 -0.100388 0.329788
-0.0644551 -0.100319 0.436144
-0.109738 -0.100285 0.404335
-0.546497 -0.100192 0.179484
-0.00998518 -0.100158 0.43858
-0.168349 -0.10009 0.351777
-0.201871 -0.100023 0.327393
-0.226077 -0.0999898 0.306139
-0.191975 -0.0998989 0.316685
-0.055917 -0.0998658 0.375569
-0.237406 -0.0997999 0.277202
-0.201741 -0.099767 0.285896
0.0174429 -0.0997016 0.387864
-0.21445 -0.0996366 0.264291
-0.00371224 -0.0996042 0.360527
-0.182396 -0.0995165 0.264642
-0.170114 -0.0994845 0.261656
-0.123735 -0.0994206 0.277216
-0.0650155 -0.0993888 0.297453
0.00713651 -0.0993255 0.325897
-0.298656 -0.0992625 0.165364
-0.184933 -0.0992312 0.213107
-0.122576 -0.0991468 0.237693
-0.149239 -0.0991157 0.215248
-0.0524045 -0.099054 0.256022
-0.181901 -0.0990233 0.182163
-0.106536 -0.0989621 0.212198
-0.214777 -0.0989316 0.148969
-0.333742 -0.098871 0.0818337
-0.345695 -0.0988108 0.0681991
-0.0164358 -0.0987808 0.223723
-0.291096 -0.0987212 0.0787286
-0.456956 -0.0986915 -0.0133054
-0.169721 -0.0986325 0.122642
-0.358717 -0.0985823 0.0200538
-0.186265 -0.0985239 0.098603
-0.0852909 -0.0984949 0.13999
-0.210359 -0.098437 0.0697726
-0.148077 -0.0984083 0.0918147
-0.174776 -0.098351 0.0707737
-0.0581092 -0.0983226 0.120009
-0.142483 -0.0982659 0.0701222
-0.281486 -0.0982378 -0.00847738
0.0402939 -0.0981817 0.144704
-0.20887 -0.0981261 0.0124059
-0.271788 -0.0980984 -0.0281523
0.082267 -0.0929268 0.946919
0.190155 -0.092675 1.00065
-0.0195542 -0.0924582 0.894085
0.18313 -0.0923492 0.988985
-0.282675 -0.0921333 0.75443
-0.107119 -0.0920249 0.835805
0.102925 -0.0918455 0.93763
-0.0484961 -0.091738 0.85554
-0.00180173 -0.0916308 0.872517
-0.103556 -0.0915241 0.815278
0.137964 -0.0914178 0.929682
0.141005 -0.0913119 0.924852
-0.154849 -0.0912065 0.770579
-0.123369 -0.0911016 0.779974
-0.0461354 -0.0909973 0.812247
0.220349 -0.0909259 0.937658
-0.0933272 -0.0908224 0.774486
-0.134157 -0.0907195 0.747734
-0.0324086 -0.0906172 0.792267
-0.17892 -0.090582 0.709586
-0.0292905 -0.0904805 0.778065
-0.213749 -0.0904105 0.678059
-0.0473373 -0.0903099 0.75493
-0.0306087 -0.0902101 0.75695
-0.297522 -0.0901408 0.615739
0.21652 -0.0900765 0.864789
-0.343764 -0.0900076 0.576907
-0.299892 -0.0899097 0.592493
-0.162452 -0.0898414 0.653486
-0.183391 -0.0897786 0.635039
-0.135911 -0.0897106 0.651065
-0.323633 -0.0896149 0.550838
-0.0774712 -0.0895474 0.666215
0.0325832 -0.0894863 0.713251
0.0219103 -0.0894193 0.700223
-0.295404 -0.0893258 0.535175
-0.120765 -0.0892593 0.614811
-0.0221887 -0.0892262 0.654814
-0.086295 -0.089134 0.616361
-0.0182585 -0.0890683 0.642709
-0.199851 -0.0890356 0.542645
-0.198858 -0.0889448 0.536728
-0.320912 -0.0888798 0.468042
-0.080553 -0.0888227 0.580192
-0.0638164 -0.0887581 0.58091
-0.0784606 -0.0886939 0.565938
-0.246288 -0.0886379 0.473984
-0.109306 -0.0885741 0.534833
-0.345269 -0.0885106 0.40921
-0.274776 -0.088479 0.435237
-0.178337 -0.0883927 0.476985
-0.0738711 -0.08833 0.521584
-0.0451212 -0.0882987 0.526754
-0.2145 -0.088214 0.435567
-0.23989 -0.0881521 0.415243
-0.221262 -0.0881212 0.415365
-0.0681512 -0.0880382 0.485393
-0.0377175 -0.0880076 0.491427
0.0582231 -0.0879466 0.531776
-0.159329 -0.0878859 0.415377
-0.264566 -0.0878556 0.353586
0.051434 -0.0877747 0.505031
-0.348087 -0.0877148 0.29765
-0.314823 -0.087685 0.30512
-0.0301575 -0.0876256 0.439833
-0.0529457 -0.087596 0.419283
-0.403564 -0.0875173 0.237384
0.000495819 -0.0874784 0.430764
-0.00212851 -0.0874295 0.421336
-0.0983621 -0.0873714 0.365599
-0.281812 -0.0873425 0.264733
-0.155882 -0.087266 0.321067
-0.178712 -0.0872374 0.300518
-0.203162 -0.0871802 0.280672
0.0849505 -0.0871234 0.417104
-0.40521 -0.0870951 0.162896
-0.153029 -0.0870388 0.28136
-0.0848298 -0.0870108 0.306335
-0.094637 -0.0869372 0.294754
0.146747 -0.0869095 0.406327
-0.339535 -0.0868542 0.155555
-0.203155 -0.0867992 0.21611
-0.0548429 -0.0867718 0.281152
-0.346581 -0.0867174 0.127645
-0.177275 -0.0866902 0.203187
-0.0157472 -0.0866363 0.276308
-0.152938 -0.0865928 0.199512
-0.154428 -0.0865393 0.19112
-0.337073 -0.0865128 0.0906932
-0.161378 -0.0864598 0.170889
0.0659134 -0.0864072 0.276877
-0.444776 -0.0863811 0.0124302
-0.0365349 -0.086329 0.208888
-0.127876 -0.0863031 0.154116
-0.262358 -0.0862515 0.0792061
-0.390944 -0.0862259 0.00581451
-0.161712 -0.0861748 0.112754
-0.1353 -0.0861494 0.116862
-0.0338127 -0.0860989 0.159923
-0.330501 -0.0860738 0.00248176
-0.0787848 -0.0860237 0.120649
-0.355204 -0.0859989 -0.026657
-0.334655 -0.0859494 -0.0240818
-0.0452056 -0.0859248 0.111547
-0.190012 -0.0858606 0.0322994
-0.0997738 -0.085812 0.0697024
-0.364273 -0.0857878 -0.0716432
0.209523 -0.0797841 1.04918
-0.0750757 -0.0795981 0.904998
0.0690017 -0.0795041 0.970507
0.0171323 -0.0793184 0.942772
0.246335 -0.0792247 1.05089
-0.241462 -0.0790698 0.803697
0.121067 -0.0789768 0.978512
0.0614716 -0.0788548 0.943793
-0.1227 -0.0787625 0.845276
-0.0456869 -0.078639 0.879
-0.27523 -0.0785475 0.757813
-0.177652 -0.0784564 0.800191
0.0465834 -0.0783658 0.905902
0.0437568 -0.0782755 0.898084
0.0237615 -0.0781858 0.881683
-0.258476 -0.0780965 0.734159
0.179432 -0.0780348 0.945272
0.0951117 -0.077977 0.895079
0.0734624 -0.0778889 0.877855
0.120361 -0.0778276 0.893493
-0.098655 -0.0777403 0.77759
-0.23461 -0.0776536 0.703211
-0.168839 -0.077593 0.72831
0.154774 -0.0775071 0.883715
-0.255765 -0.0774219 0.672032
-0.0758225 -0.0773919 0.752612
0.106792 -0.0773075 0.837504
0.0238449 -0.0772478 0.788283
-0.196265 -0.0771643 0.671807
0.0263384 -0.0771052 0.775374
-0.180303 -0.0770521 0.663999
-0.108138 -0.0769932 0.692361
-0.0740799 -0.0769116 0.70295
-0.168357 -0.0768532 0.648101
-0.341098 -0.0768016 0.553661
-0.127724 -0.0767436 0.652649
-0.00276333 -0.0766639 0.708662
-0.144895 -0.0766351 0.628296
-0.281129 -0.0765777 0.552495
-0.280971 -0.0764992 0.546096
-0.131764 -0.0764423 0.613024
-0.105004 -0.076414 0.617127
-0.0811415 -0.0763367 0.622566
0.0130508 -0.0762805 0.661999
-0.119703 -0.0762524 0.586362
-0.14297 -0.0761764 0.56822
0.0421174 -0.0761208 0.65311
-0.0258584 -0.0760737 0.610995
-0.334956 -0.0760184 0.448801
-0.0276625 -0.0759634 0.594803
-0.160031 -0.075936 0.519391
-0.306843 -0.0758627 0.439431
-0.426648 -0.0758083 0.371892
-0.172206 -0.0757812 0.4899
0.0907878 -0.0757093 0.614816
-0.0730332 -0.0756556 0.525275
-0.325529 -0.0756289 0.389828
-0.386233 -0.0755584 0.352864
-0.131677 -0.0755053 0.472517
-0.0101227 -0.0754789 0.524107
-0.227114 -0.0754263 0.407989
-0.374639 -0.0754001 0.325047
-0.178108 -0.0753315 0.416671
-0.280569 -0.0752795 0.357821
-0.132452 -0.0752536 0.422711
-0.0377577 -0.0752021 0.46244
-0.0856968 -0.0751608 0.430249
-0.200088 -0.0751097 0.365437
-0.203687 -0.0750589 0.35602
-0.0254706 -0.0750336 0.435976
-0.342471 -0.0749831 0.269859
-0.231437 -0.0749432 0.317129
-0.143937 -0.0748933 0.353262
-0.269661 -0.0748435 0.282781
-0.248885 -0.0748188 0.284032
-0.175072 -0.0747695 0.313318
-0.40513 -0.0747449 0.189157
-0.354709 -0.0746822 0.207602
0.106429 -0.0746336 0.430547
-0.0126028 -0.0746094 0.361906
-0.396687 -0.0745612 0.162237
-0.195746 -0.0745372 0.253587
-0.175573 -0.0744895 0.256046
-0.0349713 -0.0744657 0.317229
-0.0917488 -0.0744055 0.282019
-0.339795 -0.0743713 0.149552
-0.0715057 -0.0743351 0.275393
-0.370054 -0.0742885 0.11848
-0.28592 -0.0742653 0.151438
-0.336818 -0.0742191 0.118346
-0.208965 -0.0741962 0.173167
-0.118714 -0.0741504 0.210645
-0.0912109 -0.0741277 0.215293
-0.0629083 -0.0740824 0.221792
-0.163721 -0.07405 0.162919
-0.186908 -0.0740032 0.143792
-0.226588 -0.0739587 0.116287
-0.068472 -0.0739365 0.186247
-0.107167 -0.0738924 0.159228
-0.134048 -0.0738705 0.136691
-0.13513 -0.0738268 0.128473
-0.440915 -0.0738051 -0.0335156
-0.25662 -0.0737619 0.0509472
-0.149914 -0.0737404 0.0952057
-0.19265 -0.0736976 0.0661451
-0.232616 -0.0736764 0.0370681
-0.0678402 -0.073634 0.111755
-0.094452 -0.073613 0.0893556
-0.13576 -0.0735711 0.0609922
-0.22901 -0.0735295 0.00664996
-0.197105 -0.0735089 0.0135076
0.049729 -0.0667531 0.998653
0.118987 -0.0665464 1.03438
-0.0582799 -0.0663913 0.943784
0.147026 -0.0663127 1.03987
0.0679179 -0.0661828 0.996912
0.203696 -0.0660802 1.05977
0.224338 -0.0659514 1.0667
-0.0481538 -0.0658739 0.923952
-0.108521 -0.0657967 0.887276
-0.116683 -0.0657198 0.87671
-0.040697 -0.0656432 0.908225
0.103531 -0.0655669 0.973866
-0.140435 -0.065491 0.845415
0.0035844 -0.0654154 0.910958
-0.200477 -0.065363 0.801041
-0.179196 -0.065288 0.805228
-0.116682 -0.0652134 0.830032
-0.0347595 -0.0651393 0.864537
-0.130826 -0.0650656 0.810043
0.000777419 -0.0650139 0.868012
-0.456671 -0.0649409 0.632833
-0.0469426 -0.0648684 0.831235
0.140456 -0.0647964 0.918463
0.084455 -0.0647454 0.882667
0.0400233 -0.0646995 0.852344
-0.0425528 -0.0646488 0.803277
0.0435926 -0.0645782 0.839875
0.0566449 -0.0645279 0.838636
-0.146739 -0.0644581 0.730465
-0.174902 -0.0643888 0.709888
-0.0072104 -0.0643639 0.784362
-0.0967852 -0.0643142 0.731837
0.0998659 -0.0642459 0.823666
-0.110995 -0.0641783 0.711719
-0.126867 -0.0641537 0.694443
-0.0852414 -0.0641047 0.707543
-0.183874 -0.0640381 0.651704
-0.152065 -0.0639895 0.659905
0.130488 -0.0639479 0.793027
-0.373415 -0.0638996 0.533383
0.0520808 -0.0638346 0.739574
0.0700118 -0.0638107 0.739246
-0.464983 -0.0637629 0.464071
-0.392592 -0.063699 0.493694
-0.267082 -0.0636516 0.548779
-0.181802 -0.063628 0.582148
-0.27022 -0.0635652 0.531348
-0.182343 -0.0635184 0.567627
-0.0497382 -0.063495 0.624677
-0.0586836 -0.0634334 0.613591
-0.191245 -0.063387 0.539661
-0.0377721 -0.063364 0.60716
-0.129821 -0.0633034 0.554498
-0.188045 -0.0632577 0.517745
0.0298132 -0.0632349 0.617452
-0.133815 -0.0631755 0.528972
-0.189691 -0.0631303 0.493399
-0.332313 -0.0631077 0.41288
-0.304223 -0.0630628 0.419295
-0.205023 -0.0630049 0.462198
0.139874 -0.0629827 0.625452
-0.0846519 -0.0629383 0.505564
0.0552417 -0.0629162 0.566323
-0.272851 -0.0628596 0.395549
-0.206774 -0.0628159 0.420966
-0.201186 -0.0627941 0.414584
-0.270604 -0.0627506 0.372256
-0.222917 -0.0626955 0.389331
-0.234758 -0.062674 0.374246
-0.0877334 -0.0626311 0.44014
-0.0702012 -0.0626098 0.439748
-0.162789 -0.0625673 0.385837
-0.239437 -0.0625138 0.340703
-0.29831 -0.0624928 0.302118
-0.05236 -0.0624508 0.417475
-0.26798 -0.06243 0.300522
-0.131923 -0.0623884 0.360932
-0.200928 -0.062347 0.31881
-0.224279 -0.062316 0.298761
-0.23299 -0.062275 0.286784
-0.339152 -0.0622546 0.224573
-0.320241 -0.062214 0.226406
-0.124634 -0.0621937 0.315084
-0.0711079 -0.0621534 0.334224
-0.101976 -0.0621038 0.311875
-0.268302 -0.0620838 0.219593
-0.351667 -0.0620441 0.17028
0.16787 -0.0620244 0.420933
-0.136333 -0.061985 0.261198
-0.253241 -0.0619655 0.193632
-0.156362 -0.0619265 0.234436
-0.150473 -0.0618877 0.229739
-0.311263 -0.0618597 0.140897
-0.148507 -0.0618214 0.214628
-0.417409 -0.0618023 0.0710727
-0.289855 -0.0617643 0.127199
-0.296577 -0.0617454 0.114736
-0.327234 -0.0617077 0.0917526
0.141437 -0.061689 0.316988
-0.0375638 -0.0616517 0.219827
-0.347897 -0.0616146 0.0569934
-0.322176 -0.0615962 0.0607559
-0.344297 -0.0615595 0.0420227
0.103827 -0.0615413 0.256988
-0.442382 -0.061505 -0.023796
-0.156124 -0.0614869 0.110238
-0.401289 -0.061451 -0.0200314
-0.303021 -0.0614255 0.0206059
-0.20461 -0.0613899 0.0621155
-0.228145 -0.0613723 0.0412542
-0.257663 -0.0613371 0.0187912
-0.0603391 -0.0613196 0.10836
-0.265766 -0.0612848 -0.00206637
0.130794 -0.0612502 0.188493
-0.16099 -0.0612331 0.0335064
0.290447 -0.0535762 1.15169
0.0627042 -0.0534522 1.03564
0.187019 -0.0532865 1.0988
0.432932 -0.0532039 1.21659
0.0803637 -0.0530996 1.0368
0.122545 -0.0530368 1.0513
0.0443724 -0.0529333 1.00874
0.21952 -0.0528709 1.08975
0.0389975 -0.0528087 0.992935
0.0729187 -0.0527468 1.00335
0.0308864 -0.0526451 0.978871
0.00820403 -0.0525838 0.960994
0.0513766 -0.0525229 0.976048
0.0784671 -0.0524623 0.983064
-0.218406 -0.0524198 0.826715
0.011067 -0.0523596 0.934936
-0.0581308 -0.0522997 0.893821
-0.0807154 -0.0522402 0.87601
0.313695 -0.0521811 1.06669
-0.0133199 -0.0521393 0.895329
0.0620592 -0.0520806 0.926502
0.244918 -0.0520224 1.01141
-0.0304914 -0.0520017 0.864235
0.11012 -0.051944 0.928019
0.107456 -0.0518867 0.920156
-0.0200678 -0.0518456 0.848593
-0.0037137 -0.051789 0.850237
-0.0795275 -0.0517328 0.805782
0.0571041 -0.0516921 0.866321
0.0442842 -0.0516719 0.850506
-0.131018 -0.0516164 0.756311
-0.174165 -0.0515614 0.728175
-0.0543343 -0.0515213 0.780342
-0.354073 -0.051467 0.623899
0.0391586 -0.0514471 0.811152
-0.103467 -0.0513934 0.733254
-0.00475143 -0.0513538 0.774888
0.0122127 -0.0513009 0.776768
0.0383865 -0.0512812 0.780521
-0.0827383 -0.0512421 0.712252
0.152727 -0.0511899 0.823372
-0.15656 -0.0511511 0.661031
-0.28534 -0.051119 0.588394
-0.177603 -0.0510804 0.634575
-0.13926 -0.051042 0.646064
-0.191072 -0.0510106 0.611898
-0.0887609 -0.0509724 0.65538
-0.443577 -0.0509226 0.471297
-0.333892 -0.0508965 0.517475
-0.291883 -0.0508659 0.530212
-0.185048 -0.050817 0.576932
-0.175266 -0.0507796 0.574166
0.0646233 -0.0507609 0.684862
0.00298949 -0.050713 0.647322
-0.318736 -0.050676 0.478812
-0.128134 -0.0506576 0.56488
0.0372125 -0.0506105 0.6408
-0.137938 -0.050574 0.545585
-0.207458 -0.0505558 0.501606
-0.0943433 -0.0505195 0.550529
-0.157045 -0.0504834 0.511544
-0.185209 -0.0504556 0.489107
-0.206302 -0.0504198 0.47093
-0.218204 -0.0504019 0.455782
-0.388106 -0.0503572 0.364015
-0.318634 -0.0503218 0.391126
0.0983502 -0.0503041 0.590433
-0.197679 -0.050269 0.434796
-0.413588 -0.0502255 0.319984
-0.160086 -0.0502081 0.437561
-0.219087 -0.0501734 0.400441
-0.0848118 -0.0501561 0.458411
-0.444738 -0.0501217 0.27083
-0.120191 -0.0500795 0.426204
-0.175089 -0.0500624 0.389598
-0.0544541 -0.0500285 0.442296
-0.0610266 -0.0500116 0.429859
-0.0816972 -0.0499779 0.411906
-0.342605 -0.0499371 0.274504
-0.151603 -0.0499204 0.360862
-0.145813 -0.0498872 0.356137
-0.377383 -0.0498707 0.231215
-0.196534 -0.0498378 0.314018
-0.369757 -0.0497983 0.220403
-0.224049 -0.049782 0.284128
-0.308438 -0.0497496 0.234307
-0.192209 -0.0497334 0.283297
-0.212121 -0.0497013 0.265713
-0.0426833 -0.0496759 0.342186
-0.189878 -0.0496534 0.260085
-0.353852 -0.0496217 0.170465
-0.071803 -0.0495999 0.302938
-0.194066 -0.0495685 0.234169
-0.134273 -0.0495529 0.254954
-0.0787272 -0.0495218 0.275086
-0.21073 -0.0494968 0.20088
-0.217919 -0.0494755 0.188737
0.0606936 -0.0494449 0.320394
-0.307146 -0.0494296 0.127369
-0.0264109 -0.0493993 0.260083
-0.389937 -0.0493842 0.0692177
0.0108892 -0.0493541 0.261972
-0.190372 -0.049334 0.152743
-0.336583 -0.0493042 0.0719713
-0.300907 -0.0492855 0.0810908
-0.492749 -0.04926 -0.0228822
-0.231344 -0.0492307 0.100142
-0.230585 -0.0492162 0.0914247
-0.187751 -0.0491872 0.105157
-0.143083 -0.0491728 0.118395
-0.267703 -0.0491441 0.0483934
-0.0172727 -0.0491299 0.164514
-0.159247 -0.0491015 0.0858272
-0.364 -0.0490874 -0.0256441
-0.0800189 -0.0490593 0.108639
-0.0743064 -0.0490453 0.102401
-0.449254 -0.0490175 -0.0927886
-0.147832 -0.0489948 0.0497168
-0.446216 -0.0489763 -0.108089
0.311009 -0.0403898 1.18734
0.0335128 -0.0402208 1.05374
-0.0886142 -0.0401275 0.990436
0.0675537 -0.0400344 1.06633
0.102365 -0.0399559 1.08013
0.0738481 -0.0399086 1.05921
-0.0859412 -0.0398306 0.975749
0.249882 -0.0397835 1.13703
0.0404856 -0.0397366 1.02572
0.0914682 -0.0396596 1.04766
-0.085177 -0.0396132 0.952739
0.0811269 -0.0395669 1.0293
0.483299 -0.0395209 1.2238
0.0648249 -0.0394751 1.00798
0.136526 -0.0394295 1.03725
-0.00323713 -0.0393841 0.960785
-0.113094 -0.039339 0.899277
-0.00761081 -0.0393071 0.944111
-0.180803 -0.0392623 0.850946
-0.0158307 -0.0392179 0.926858
-0.123395 -0.0391737 0.866498
-0.0776112 -0.0391421 0.881526
-0.0509223 -0.0390984 0.888296
-0.144385 -0.039055 0.834981
-0.0863273 -0.0390119 0.857417
0.0121 -0.0389807 0.898806
-0.056561 -0.0389381 0.85788
-0.204754 -0.0389226 0.774336
-0.437449 -0.0388803 0.651391
-0.239958 -0.0388495 0.742344
-0.242127 -0.0388078 0.734655
-0.297477 -0.0387664 0.700359
0.291758 -0.0387359 0.987206
-0.286157 -0.0387102 0.689985
-0.151305 -0.03868 0.749656
0.0310086 -0.0386396 0.834169
0.149722 -0.0386095 0.885783
-0.311964 -0.0385696 0.648281
0.142279 -0.0385547 0.866047
-0.224573 -0.0385154 0.675946
-0.0356105 -0.0384857 0.762708
-0.118087 -0.0384469 0.714775
-0.0285581 -0.0384322 0.750212
0.14767 -0.0384029 0.830623
-0.159109 -0.0383647 0.670524
-0.268416 -0.0383502 0.606562
-0.297128 -0.0383211 0.584518
0.0143318 -0.0382836 0.733519
-0.0875589 -0.0382549 0.674893
-0.110556 -0.0382323 0.655033
0.104716 -0.0382037 0.754996
-0.0819095 -0.0381753 0.654014
-0.356876 -0.0381532 0.50815
-0.233096 -0.038125 0.562379
-0.115522 -0.0380968 0.613508
0.285925 -0.0380753 0.80583
-0.402937 -0.0380474 0.453746
-0.159817 -0.0380196 0.567656
-0.188644 -0.0380057 0.544007
-0.00410604 -0.037971 0.629443
-0.195632 -0.0379435 0.526037
-0.0154357 -0.0379298 0.606914
-0.352089 -0.0378959 0.43172
0.0078209 -0.0378687 0.604038
-0.1005 -0.0378552 0.54067
-0.341199 -0.037822 0.413415
-0.151394 -0.0377952 0.500685
-0.188694 -0.0377818 0.47284
0.217911 -0.0377552 0.668515
-0.400785 -0.0377287 0.351539
0.0758927 -0.0377097 0.581375
-0.139442 -0.0376835 0.466082
-0.0208479 -0.0376704 0.516203
-0.388985 -0.0376443 0.324512
-0.147529 -0.037613 0.438249
-0.200915 -0.0376001 0.40239
-0.0259045 -0.0375744 0.482273
-0.348637 -0.037554 0.312655
-0.0391532 -0.037536 0.458869
-0.126607 -0.0375058 0.408102
-0.0659816 -0.0374932 0.429264
-0.410993 -0.037468 0.249136
-0.135431 -0.0374477 0.378715
-0.0548774 -0.0374305 0.410427
-0.0637906 -0.0374013 0.398875
-0.127199 -0.0373889 0.358033
0.0208459 -0.0373643 0.424429
-0.444678 -0.0373441 0.183515
-0.345939 -0.0373276 0.224278
-0.234898 -0.0373034 0.272169
-0.0759565 -0.0372913 0.342514
-0.370361 -0.0372634 0.18815
-0.389206 -0.0372515 0.169606
0.00529013 -0.0372276 0.359219
-0.208906 -0.0372039 0.244482
-0.294737 -0.0371921 0.192449
-0.0677041 -0.0371686 0.298324
-0.147057 -0.0371569 0.249535
-0.082008 -0.0371337 0.274415
-0.0285491 -0.0371221 0.292034
-0.274768 -0.0370958 0.161682
-0.163624 -0.0370729 0.209598
-0.217897 -0.0370615 0.173355
-0.342279 -0.0370388 0.103504
-0.239052 -0.0370276 0.146013
-0.110525 -0.0370051 0.202611
-0.218079 -0.0369939 0.139732
-0.459324 -0.0369716 0.0114395
-0.326735 -0.0369606 0.0686339
-0.209262 -0.0369385 0.119694
-0.201178 -0.0369166 0.116054
0.0320808 -0.0369058 0.223585
0.0988474 -0.0368841 0.249279
-0.0356172 -0.0368733 0.172949
0.0747877 -0.0368518 0.220456
-0.174671 -0.0368412 0.0866298
-0.288401 -0.0368175 0.0223841
-0.189067 -0.0368069 0.0629542
-0.314561 -0.0367859 -0.00750755
-0.207118 -0.0367755 0.0371175
-0.300795 -0.0367547 -0.0174441
-0.400617 -0.0367444 -0.0764517
-0.260171 -0.0367239 -0.0139608
0.160055 -0.0269232 1.14685
0.143369 -0.0268611 1.13611
0.195957 -0.0267782 1.16311
0.173506 -0.0267463 1.14514
0.0121107 -0.0266939 1.06076
0.14311 -0.0266623 1.11955
0.132932 -0.0266102 1.11081
0.0880626 -0.0265694 1.08309
0.324902 -0.0265271 1.19648
-0.050916 -0.026496 1.00191
-0.0125715 -0.026465 1.01444
-0.100175 -0.0264341 0.963988
-0.0124532 -0.0264033 1.00121
0.18231 -0.0263531 1.09493
-0.0709298 -0.0263314 0.960348
0.0242604 -0.0263011 1.00131
0.068323 -0.026271 1.01671
-0.137381 -0.0262411 0.907223
0.0166994 -0.0262114 0.977625
-0.08306 -0.02619 0.919842
-0.213417 -0.0261606 0.848032
0.203264 -0.0261313 1.04973
0.218963 -0.0261023 1.05094
0.0295122 -0.0260917 0.946707
0.00710874 -0.0260629 0.92886
-0.226598 -0.026042 0.804164
0.13277 -0.0260135 0.977201
-0.0212227 -0.0259852 0.893545
0.0535691 -0.0259645 0.923124
-0.0365885 -0.0259365 0.871379
-0.294284 -0.0259262 0.733093
0.140186 -0.0258986 0.943655
-0.41853 -0.0258712 0.657607
-0.0996806 -0.0258508 0.809254
0.0411512 -0.0258238 0.872967
0.100834 -0.0258035 0.895044
-0.172794 -0.0257869 0.749882
0.0242242 -0.0257667 0.840641
-0.249253 -0.0257404 0.69717
-0.290994 -0.0257204 0.668561
-0.0696803 -0.0257104 0.769859
-0.164774 -0.0256845 0.715569
0.0539785 -0.0256647 0.817223
0.00750141 -0.0256392 0.787219
-0.151505 -0.0256293 0.698385
-0.227983 -0.0256042 0.653359
-0.115895 -0.0255847 0.701702
-0.178937 -0.0255599 0.663367
-0.203767 -0.0255502 0.641647
-0.292995 -0.0255309 0.589346
-0.241796 -0.0255066 0.608109
-0.0586083 -0.025497 0.690416
-0.0318033 -0.0254779 0.696143
0.0565421 -0.0254541 0.733454
-0.0985893 -0.0254399 0.647408
-0.145163 -0.0254257 0.615667
-0.220526 -0.0254023 0.571094
-0.238468 -0.0253836 0.554463
-0.291956 -0.0253743 0.518471
-0.22193 -0.0253514 0.546561
-0.156836 -0.0253329 0.571456
-0.349952 -0.0253237 0.465664
-0.145325 -0.0253013 0.561019
-0.339716 -0.0252831 0.456178
-0.242127 -0.025274 0.495753
-0.227999 -0.0252558 0.495177
-0.132826 -0.0252377 0.535125
-0.41456 -0.025225 0.385693
-0.0482082 -0.0252071 0.561234
-0.0185758 -0.0251929 0.567777
-0.0170577 -0.025177 0.560575
-0.268843 -0.0251593 0.427051
-0.27644 -0.0251505 0.414064
-0.0436431 -0.0251329 0.522835
0.00944256 -0.0251123 0.542295
0.0749042 -0.0251036 0.565849
-0.252637 -0.0250863 0.394451
-0.157136 -0.0250721 0.434032
-0.283945 -0.0250605 0.362002
-0.205545 -0.0250406 0.394069
-0.181636 -0.0250321 0.396863
-0.267243 -0.0250151 0.346434
-0.24922 -0.0249982 0.347818
-0.513563 -0.0249898 0.206494
0.0210066 -0.0249707 0.466591
-0.386262 -0.0249623 0.253809
-0.271326 -0.0249457 0.303649
-0.0639205 -0.0249292 0.399722
-0.271539 -0.024921 0.286774
-0.260607 -0.0249046 0.284609
-0.147883 -0.0248965 0.331837
-0.266264 -0.0248782 0.265392
-0.0642475 -0.0248641 0.35839
-0.182889 -0.024854 0.290315
-0.102856 -0.024838 0.322693
-0.0383309 -0.0248301 0.345832
0.0507362 -0.0248142 0.382725
-0.273219 -0.0248063 0.211628
-0.125427 -0.024789 0.278193
-0.212063 -0.0247734 0.227226
-0.210585 -0.0247656 0.218849
-0.132527 -0.0247501 0.250225
-0.248642 -0.0247424 0.183055
-0.391285 -0.0247271 0.104077
-0.492041 -0.0247195 0.0445897
-0.281243 -0.0247043 0.142329
-0.420253 -0.0246892 0.0651577
-0.392784 -0.0246817 0.0697857
-0.244426 -0.0246668 0.136295
-0.171955 -0.0246581 0.163662
-0.277142 -0.0246433 0.10339
-0.353201 -0.024636 0.0562565
-0.0992188 -0.0246213 0.175563
-0.218925 -0.0246094 0.107514
-0.221725 -0.0245995 0.0975168
-0.256628 -0.0245852 0.0723676
-0.131352 -0.024578 0.125905
-0.128389 -0.0245637 0.119682
-0.250302 -0.0245567 0.0496254
-0.48097 -0.0245425 -0.0734211
-0.177817 -0.0245355 0.0690563
-0.287932 -0.0245216 0.00627841
-0.0578552 -0.0245146 0.112218
-0.0902928 -0.0245008 0.0882701
-0.127742 -0.024494 0.0604467
-0.361891 -0.0244803 -0.0643661
0.278955 -0.0134857 1.23384
0.0593385 -0.0134546 1.12154
0.174548 -0.0134178 1.17835
0.124488 -0.0134019 1.14652
-0.00433537 -0.0133756 1.07835
0.196938 -0.0133551 1.1736
0.170115 -0.0133337 1.15508
0.0206806 -0.0133133 1.07499
0.102754 -0.0132921 1.11095
0.0765894 -0.0132765 1.09115
0.099446 -0.0132609 1.09588
0.0267851 -0.0132454 1.05285
-0.276624 -0.0132202 0.897407
-0.0820719 -0.0132049 0.987982
-0.0489568 -0.0131897 0.99784
0.0470301 -0.0131788 1.03786
0.109449 -0.0131637 1.06239
-0.0227179 -0.0131487 0.989613
-0.0878243 -0.0131338 0.950368
0.321551 -0.0131191 1.14836
0.123692 -0.0131083 1.04152
0.317191 -0.0130937 1.13158
0.0292673 -0.0130791 0.980913
0.172703 -0.0130647 1.04592
-0.0192597 -0.0130541 0.942069
0.0480855 -0.0130398 0.969032
0.0134914 -0.0130345 0.942239
0.109523 -0.0130204 0.983543
-0.0392383 -0.0130063 0.902435
-0.182558 -0.0129959 0.822949
-0.0673066 -0.012982 0.87384
-0.060229 -0.0129717 0.869569
-0.170551 -0.012958 0.807664
0.265221 -0.0129528 1.01612
-0.125679 -0.0129393 0.813914
-0.130651 -0.012929 0.803647
-0.0143256 -0.0129157 0.855042
0.0938741 -0.0129025 0.90235
-0.045893 -0.0128974 0.823076
-0.0287235 -0.0128873 0.823906
-0.11746 -0.0128743 0.772737
-0.00907574 -0.0128643 0.819186
-0.0555374 -0.0128543 0.788218
-0.190752 -0.0128465 0.712171
-0.0726553 -0.0128339 0.764376
-0.0311408 -0.012824 0.777413
0.0904073 -0.0128141 0.830471
0.0545583 -0.0128066 0.804066
0.183794 -0.0127969 0.860978
-0.205304 -0.0127847 0.659538
-0.190034 -0.0127798 0.657865
-0.227396 -0.0127701 0.631492
0.0302408 -0.0127582 0.753396
-0.232304 -0.0127486 0.614438
-0.198121 -0.0127416 0.622979
0.150589 -0.0127321 0.789657
-0.232367 -0.0127226 0.590505
-0.190061 -0.0127158 0.603083
-0.185312 -0.0127064 0.59779
-0.0258229 -0.012697 0.66987
-0.294448 -0.0126904 0.526956
-0.0248117 -0.0126811 0.654116
-0.387067 -0.0126718 0.465331
-0.385538 -0.0126672 0.456857
-0.0799794 -0.0126562 0.602593
-0.125395 -0.012647 0.572235
-0.0924989 -0.0126425 0.579458
0.0173248 -0.0126318 0.627286
-0.0474196 -0.0126227 0.587269
-0.115049 -0.0126182 0.544243
-0.198346 -0.0126092 0.494955
-0.301354 -0.0125988 0.436322
0.0719779 -0.0125944 0.613788
-0.246601 -0.0125855 0.446862
-0.478089 -0.0125767 0.323483
-0.0451445 -0.012571 0.531226
-0.185174 -0.0125622 0.453577
-0.279324 -0.0125578 0.39732
-0.356957 -0.0125491 0.350872
-0.271657 -0.0125394 0.386297
-0.230414 -0.0125351 0.397746
-0.10403 -0.0125265 0.453306
-0.0837916 -0.0125191 0.455392
-0.118831 -0.0125137 0.42911
-0.133867 -0.0125043 0.41431
0.109412 -0.0125001 0.526792
-0.231507 -0.0124917 0.3487
-0.185515 -0.0124833 0.364062
-0.255494 -0.0124792 0.319924
-0.19032 -0.0124709 0.344877
-0.149059 -0.012466 0.356652
-0.102623 -0.0124578 0.372234
-0.0817383 -0.0124496 0.375037
-0.150476 -0.0124456 0.331531
-0.110969 -0.0124375 0.343644
-0.260475 -0.0124334 0.259759
-0.407669 -0.0124254 0.178521
-0.126103 -0.0124174 0.31166
-0.422049 -0.0124129 0.154779
-0.134782 -0.012405 0.290762
-0.375464 -0.0124011 0.161298
-0.122005 -0.0123932 0.280375
-0.261953 -0.0123893 0.201281
-0.223911 -0.0123816 0.212647
-0.281206 -0.0123739 0.176341
-0.234496 -0.01237 0.190581
-0.389227 -0.012362 0.105697
-0.326043 -0.0123582 0.128175
-0.29475 -0.0123506 0.136151
-0.128418 -0.012344 0.211317
-0.204078 -0.0123394 0.164701
0.0177591 -0.0123319 0.267939
-0.242685 -0.0123282 0.128608
-0.349521 -0.0123209 0.0675041
-0.0458461 -0.0123172 0.210235
-0.0944965 -0.0123099 0.178218
-0.381077 -0.0123063 0.0258229
-0.200298 -0.012299 0.108515
-0.220534 -0.0122919 0.0906922
-0.112869 -0.0122883 0.135421
-0.237211 -0.0122812 0.0655383
-0.234083 -0.0122777 0.057999
-0.441342 -0.0122706 -0.0533494
-0.273929 -0.0122671 0.0212548
-0.154959 -0.0122602 0.0730122
-0.1375 -0.0122567 0.0726397
-0.117481 -0.0122498 0.0749137
0.0216407 -0.0122464 0.135372
-0.121284 -0.0122396 0.056165
0.15771 0 1.19912
0.270638 0 1.25588
0.104768 0 1.17035
0.143465 0 1.18581
-0.0392253 0 1.0906
-0.130544 0 1.0411
0.19388 0 1.19785
0.111786 0 1.15164
0.161925 0 1.17126
-0.137557 0 1.01638
0.287806 0 1.2223
0.223128 0 1.1832
0.0357971 0 1.08571
0.00671557 0 1.06442
-0.0468512 0 1.03088
-0.0126811 0 1.04121
0.108905 0 1.094
0.00117488 0 1.0334
0.121203 0 1.08667
-0.0908502 0 0.973898
0.123504 0 1.07432
-0.0462435 0 0.981514
0.115089 0 1.05543
-0.0160291 0 0.983122
-0.111978 0 0.928385
0.0414009 0 0.997181
-0.0764971 0 0.931468
-0.097588 0 0.914146
-0.0780713 0 0.91604
-0.122984 0 0.886803
0.0107807 0 0.944197
0.184494 0 1.02427
-0.0702087 0 0.890111
-0.0524972 0 0.891145
0.0489386 0 0.935047
-0.00666701 0 0.899438
-0.0704259 0 0.859758
-0.000316068 0 0.886358
0.0175498 0 0.888448
-0.251363 0 0.746213
-0.117575 0 0.806247
-0.175507 0 0.768603
-0.338189 0 0.679667
0.0299147 0 0.855966
-0.00226595 0 0.832974
-0.240709 0 0.706011
-0.120363 0 0.756825
0.0101012 0 0.815139
-0.234241 0 0.685242
-0.0874709 0 0.750906
-0.22007 0 0.67605
-0.30271 0 0.627757
-0.210382 0 0.666214
-0.100268 0 0.712831
-0.288483 0 0.610852
-0.288874 0 0.602962
-0.128557 0 0.67543
0.0547739 0 0.758464
-0.401373 0 0.522707
0.116859 0 0.774759
-0.228246 0 0.593259
-0.0542875 0 0.672239
-0.228043 0 0.578263
0.0431006 0 0.704983
-0.34641 0 0.502157
-0.102026 0 0.616686
-0.13908 0 0.589932
-0.0747302 0 0.613959
-0.227425 0 0.529956
-0.10692 0 0.582035
0.0648798 0 0.659705
-0.305486 0 0.466872
-0.0542754 0 0.584356
-0.132945 0 0.536707
-0.176304 0 0.507381
-0.0305982 0 0.571029
-0.0297213 0 0.563825
-0.321335 0 0.41075
-0.340128 0 0.392159
-0.23974 0 0.434713
-0.104978 0 0.494454
-0.401608 0 0.337275
-0.201526 0 0.429676
-0.241297 0 0.400612
-0.128456 0 0.449396
-0.335127 0 0.338422
-0.0684602 0 0.462849
0.00869405 0 0.493786
-0.0252704 0 0.46891
-0.399312 0 0.272983
-0.157915 0 0.386042
-0.0668156 0 0.422438
-0.0515208 0 0.422643
-0.233754 0 0.323882
0.0758297 0 0.469527
-0.389096 0 0.22942
-0.113358 0 0.358147
-0.127354 0 0.343504
-0.319445 0 0.23994
-0.294808 0 0.243121
-0.433645 0 0.166051
-0.299058 0 0.224212
-0.0817991 0 0.325188
-0.250754 0 0.233053
-0.189372 0 0.254617
0.116476 0 0.399938
-0.151811 0 0.256669
-0.317084 0 0.166366
-0.243359 0 0.195512
-0.322596 0 0.146819
-0.181358 0 0.209763
-0.323655 0 0.129497
-0.309746 0 0.128773
-0.398452 0 0.0753049
-0.0907657 0 0.221465
-0.187819 0 0.16525
0.0512784 0 0.275686
-0.0558507 0 0.214428
-0.14505 0 0.160718
-0.391076 0 0.0300058
-0.565601 0 -0.0663656
-0.356457 0 0.0305006
-0.218832 0 0.0915996
-0.244761 0 0.0695294
-0.302524 0 0.0329325
-0.210972 0 0.0696034
-0.290742 0 0.0219958
-0.262025 0 0.0272501
-0.233045 0 0.0340091
-0.177723 0 0.0525662
-0.284706 0 -0.00866481
-0.384774 0 -0.067803
-0.208021 0 0.0128252
0.28547 0.013596 1.28646
0.267443 0.0135546 1.27759
0.0562928 0.0135131 1.17228
0.327887 0.0134867 1.3041
0.0235392 0.0134603 1.14798
-0.116366 0.0134339 1.07411
0.191739 0.0134134 1.22261
0.0814302 0.0133919 1.16224
0.014361 0.0133715 1.12317
0.146762 0.0133501 1.18418
0.242654 0.0133344 1.2253
0.315861 0.0133188 1.25509
0.128527 0.0133033 1.15462
-0.0454662 0.013278 1.06371
0.155586 0.0132626 1.15743
-0.0315885 0.0132515 1.0558
0.0144348 0.0132363 1.07202
0.0180508 0.0132212 1.06703
0.0141495 0.0132061 1.05828
-0.165633 0.0131912 0.961591
0.101081 0.0131763 1.08814
0.0277354 0.0131654 1.04351
-0.0476352 0.0131507 0.999023
-0.165049 0.0131361 0.933507
-0.104507 0.0131216 0.95696
0.0551865 0.0131108 1.02889
0.0232484 0.0130965 1.0061
-0.0622935 0.0130823 0.956502
-0.106731 0.0130716 0.926396
0.101018 0.0130576 1.02344
0.126851 0.0130436 1.0295
0.119185 0.013033 1.01781
0.0360108 0.0130225 0.968369
-0.0750464 0.013014 0.904352
-0.298499 0.0130004 0.785757
-0.334129 0.01299 0.760115
-0.15989 0.0129766 0.840353
0.116011 0.0129633 0.9714
-0.113896 0.0129558 0.847733
-0.0227266 0.012945 0.885674
0.0916372 0.0129347 0.935065
-0.0218621 0.0129218 0.871378
0.0103171 0.0129116 0.879689
-0.146977 0.0129015 0.79327
0.0125731 0.0128939 0.864466
0.174141 0.0128837 0.937491
0.0481944 0.0128713 0.867542
-0.319365 0.0128612 0.676014
-0.36893 0.0128539 0.64261
-0.0664305 0.012844 0.786123
-0.126657 0.0128319 0.748982
-0.176442 0.012822 0.716361
-0.310283 0.0128171 0.640103
-0.045615 0.0128052 0.765385
-0.103025 0.0127954 0.728966
-0.345909 0.0127877 0.599151
0.0171961 0.012779 0.772678
-0.247313 0.0127693 0.632722
-0.0257405 0.0127596 0.73581
0.0130624 0.0127531 0.746498
-0.0741471 0.0127435 0.695203
-0.333744 0.0127324 0.558256
-0.0698421 0.0127276 0.680927
-0.0206217 0.0127182 0.697857
-0.0928011 0.0127073 0.654583
-0.3839 0.0126994 0.500866
-0.149381 0.0126933 0.609356
-0.222115 0.0126826 0.565766
0.00538034 0.0126747 0.671401
-0.0848682 0.0126688 0.617474
-0.152772 0.0126584 0.576256
-0.177974 0.0126504 0.555598
-0.150902 0.0126447 0.560295
-0.147293 0.0126356 0.554442
-0.0207273 0.0126277 0.609682
-0.239217 0.0126211 0.491947
-0.291348 0.0126121 0.458228
-0.3694 0.0126041 0.411214
-0.274964 0.0125979 0.44985
-0.407007 0.012589 0.376177
-0.0414794 0.0125846 0.549739
-0.241602 0.0125758 0.442031
-0.233304 0.0125664 0.438766
-0.129647 0.012562 0.481403
-0.140035 0.0125533 0.468562
-0.377515 0.0125447 0.342175
-0.228978 0.0125404 0.407263
-0.224449 0.0125313 0.402055
-0.251357 0.0125239 0.380569
-0.0829029 0.0125186 0.456007
-0.352201 0.0125101 0.313711
-0.0683729 0.0125059 0.446459
-0.294184 0.0124972 0.326017
-0.0315492 0.0124892 0.449579
-0.304884 0.0124847 0.303857
-0.265867 0.0124765 0.315715
-0.191895 0.0124724 0.343548
-0.155738 0.012464 0.35402
-0.108914 0.0124559 0.369775
-0.191992 0.0124518 0.319089
-0.542211 0.0124438 0.136323
-0.214419 0.0124397 0.291076
-0.0654064 0.0124317 0.357924
0.00572437 0.0124238 0.385829
-0.137721 0.0124198 0.30497
-0.493809 0.0124119 0.119264
-0.277339 0.012408 0.218366
-0.228513 0.0124001 0.235116
-0.160014 0.0123924 0.261697
-0.247039 0.0123885 0.209057
-0.0851505 0.0123808 0.282331
0.0219347 0.0123769 0.326749
-0.0694816 0.0123693 0.273367
-0.262179 0.0123617 0.16934
-0.0362589 0.0123579 0.27318
-0.0969407 0.0123504 0.235156
-0.233844 0.0123466 0.157587
0.0658776 0.0123392 0.299761
-0.405339 0.0123355 0.0550378
-0.0446264 0.0123281 0.227702
-0.245905 0.012321 0.119275
-0.307616 0.0123173 0.0793038
-0.485804 0.0123101 -0.0174984
-0.248712 0.0123065 0.0919343
-0.316761 0.0122993 0.0501954
-0.284106 0.0122957 0.0574112
-0.454922 0.0122886 -0.035718
-0.0429411 0.0122815 0.162544
-0.288578 0.012278 0.0306147
-0.368701 0.012271 -0.0171824
-0.188718 0.0122675 0.0636983
-0.305204 0.0122606 -0.00228829
-0.442164 0.0122572 -0.0798787
-0.280104 0.0122503 -0.00660077
-0.365773 0.0122469 -0.0585457
-0.268066 0.0122402 -0.0174537
0.000190904 0.0272721 1.1674
0.277703 0.0271895 1.30615
0.330422 0.0271065 1.33263
0.0433896 0.0270535 1.18505
0.364775 0.0269913 1.34303
0.114855 0.0269386 1.21406
0.154032 0.0268951 1.22836
0.175937 0.0268542 1.2337
0.329224 0.0268111 1.30508
0.149925 0.0267794 1.20855
0.149805 0.0267278 1.20452
0.016716 0.0266965 1.1311
0.193979 0.0266654 1.21287
0.240225 0.0266344 1.22913
0.0519301 0.0265923 1.12977
0.0500462 0.0265616 1.12198
0.13316 0.0265311 1.15668
-0.0682458 0.0265008 1.04913
0.0469471 0.0264707 1.09987
0.137871 0.0264407 1.13847
0.011405 0.0264186 1.06724
0.098632 0.026389 1.10401
-0.161339 0.0263595 0.967165
0.0460216 0.0263303 1.06398
0.17437 0.0263013 1.12128
-0.00162875 0.0262795 1.02534
0.0547177 0.0262508 1.04664
0.337696 0.0262223 1.18124
-0.0321219 0.0262008 0.988424
-0.230308 0.0261726 0.882441
0.0440091 0.0261448 1.01269
-0.218198 0.0261234 0.873708
-0.141358 0.0260959 0.905215
-0.202732 0.0260686 0.867596
-0.034825 0.0260535 0.942758
-0.150202 0.0260311 0.877424
0.00633621 0.0260101 0.947852
0.131589 0.0259835 1.00352
-0.02136 0.0259626 0.919221
-0.0180118 0.0259364 0.913922
-0.127792 0.0259211 0.850375
-0.190787 0.0259002 0.811101
-0.0396108 0.0258796 0.878892
-0.128529 0.0258541 0.827422
-0.0393712 0.0258337 0.864216
-0.0666201 0.0258182 0.842033
-0.203496 0.0257985 0.765722
-0.0932612 0.0257738 0.813783
-0.13657 0.0257536 0.784366
-0.173818 0.0257335 0.757987
-0.228247 0.0257194 0.722074
-0.0696706 0.0256994 0.793618
-0.0310629 0.0256756 0.805814
0.0486064 0.0256597 0.837282
0.00124058 0.0256423 0.80548
-0.115289 0.0256226 0.739488
-0.343505 0.0256031 0.617658
0.0218057 0.0255871 0.792007
0.0162028 0.0255705 0.781024
-0.117949 0.025548 0.706747
-0.457956 0.0255318 0.528529
-0.199946 0.0255191 0.648738
-0.263101 0.0254972 0.609924
-0.166747 0.0254781 0.650404
-0.0688992 0.0254686 0.690041
-0.0629639 0.0254472 0.685736
0.061955 0.0254283 0.740508
-0.0319756 0.0254119 0.685447
0.00406762 0.025398 0.69498
0.0447332 0.0253794 0.707632
-0.161833 0.0253629 0.59631
-0.240288 0.0253515 0.548191
-0.124213 0.0253313 0.598872
-0.177603 0.0253147 0.564195
-0.0423522 0.0253038 0.622891
-0.202857 0.0252841 0.535236
-0.121742 0.0252674 0.567867
-0.12676 0.0252569 0.556389
-0.264272 0.0252389 0.479972
-0.103656 0.0252225 0.552369
-0.30052 0.0252109 0.445176
-0.2411 0.0251932 0.467226
-0.154691 0.0251766 0.502576
-0.144197 0.0251659 0.498964
-0.235673 0.0251483 0.445567
-0.340026 0.0251396 0.384192
-0.217609 0.0251222 0.437746
-0.0537642 0.0251044 0.512102
-0.483445 0.0250958 0.288072
-0.292432 0.0250786 0.375922
-0.0799338 0.025062 0.474437
-0.392321 0.0250531 0.309142
-0.167801 0.025036 0.413771
-0.336231 0.0250196 0.32181
-0.184515 0.0250108 0.388582
