ply
format ascii 1.0
comment Created by Open3D
element vertex 1737
property double x
property double y
property double z
end_header
-0.232783 0.0983214 0.0222307
-0.0812128 0.0982947 0.0888357
-0.183382 0.0982418 0.0298847
-0.301571 0.0982154 -0.03839
-0.0726665 0.098163 0.0681869
0.285513 0.124838 1.45734
0.294713 0.124374 1.46386
0.166506 0.123946 1.40066
0.297527 0.123705 1.46158
0.292377 0.123372 1.45723
0.260317 0.123132 1.43667
0.101895 0.122986 1.35017
0.367553 0.122748 1.4785
0.143411 0.12255 1.36079
0.0673673 0.122315 1.31828
0.267907 0.122171 1.41131
0.0652481 0.121939 1.30548
0.115897 0.121797 1.32358
0.109919 0.121656 1.31337
0.116009 0.121463 1.31082
0.115586 0.121323 1.30339
0.155116 0.121185 1.31595
0.166222 0.120995 1.31592
0.121161 0.120858 1.28618
0.146229 0.120722 1.2915
0.107216 0.120587 1.26477
0.0846947 0.120453 1.24629
0.105343 0.120268 1.25102
0.119185 0.120136 1.2507
-0.16875 0.120006 1.09949
0.00401286 0.119903 1.17774
0.166813 0.119774 1.2519
-0.00358557 0.119646 1.15945
0.0606357 0.119518 1.18429
0.0139984 0.119417 1.15289
0.0703643 0.119292 1.1738
0.0735126 0.119167 1.16809
0.0703562 0.119044 1.1592
-0.000482602 0.118944 1.11575
0.111048 0.118823 1.1642
0.0985652 0.118703 1.15062
0.0516249 0.118604 1.11914
0.139041 0.118505 1.15485
-0.0879729 0.118407 1.03336
0.0444722 0.118289 1.09225
-0.073207 0.118191 1.02544
-0.0189221 0.118107 1.04419
0.0368202 0.117993 1.06466
-0.00882648 0.117896 1.03389
0.0551935 0.117785 1.05847
-0.0664437 0.117688 0.989721
0.0511812 0.117593 1.04061
-0.20052 0.117497 0.906849
0.0293768 0.117423 1.01317
-0.0394304 0.117316 0.971266
-0.142482 0.117222 0.911844
-0.11484 0.117127 0.917777
-0.154411 0.117033 0.89011
-0.0202889 0.11694 0.949299
-0.100215 0.116874 0.900515
0.00660368 0.116773 0.946334
-0.058069 0.116688 0.905867
0.0505234 0.116596 0.952314
-0.150722 0.116536 0.842727
-0.0362182 0.116439 0.892322
-0.270439 0.116348 0.767371
-0.0630047 0.116262 0.863077
-0.0700374 0.116208 0.850444
-0.18946 0.116115 0.783002
-0.0771792 0.116025 0.831319
-0.180301 0.115938 0.771856
-0.229862 0.115848 0.739269
-0.120263 0.1158 0.784786
-0.0752855 0.115712 0.79947
-0.285855 0.115623 0.686386
-0.224191 0.115579 0.707835
-0.195259 0.115492 0.714514
-0.145565 0.115405 0.731554
0.00158756 0.115318 0.797348
-0.0677847 0.115274 0.753301
-0.153236 0.11519 0.702724
-0.125322 0.115104 0.708909
-0.31603 0.115061 0.604209
-0.0992979 0.114979 0.704678
-0.207028 0.114894 0.643049
-0.00171644 0.114814 0.737756
-0.0306706 0.114772 0.71395
0.00351918 0.114688 0.723287
-0.162182 0.114611 0.632437
0.0105476 0.114528 0.711045
-0.242595 0.114486 0.575163
-0.00191514 0.114411 0.687451
-0.150853 0.114329 0.605229
-0.205328 0.114288 0.568692
-0.124334 0.114216 0.601081
-0.173311 0.114135 0.568843
-0.0755876 0.114094 0.608416
-0.22704 0.114013 0.524947
-0.0751922 0.113944 0.592701
-0.226707 0.113864 0.509197
-0.0951643 0.113825 0.565694
-0.0391952 0.113758 0.585447
-0.189105 0.113679 0.502746
-0.10176 0.11364 0.537153
-0.214856 0.113562 0.472864
-0.263898 0.113498 0.440042
-0.319125 0.113459 0.40317
-0.175871 0.113382 0.467055
-0.282088 0.113305 0.406204
-0.1399 0.113283 0.467422
-0.185053 0.113207 0.437099
-0.331442 0.113131 0.356159
-0.254175 0.113093 0.385551
-0.16828 0.113036 0.420055
-0.222776 0.112961 0.385056
-0.278704 0.112924 0.347856
0.0235477 0.11285 0.491233
-0.169614 0.112776 0.386902
-0.334219 0.112758 0.294595
-0.195444 0.112685 0.356226
-0.208481 0.112613 0.341949
-0.149619 0.112577 0.362157
-0.0858434 0.112504 0.386288
-0.244089 0.112454 0.298546
-0.261329 0.112418 0.280707
-0.152036 0.112347 0.327586
-0.16778 0.112277 0.311945
-0.0943626 0.112241 0.339441
-0.173588 0.112171 0.292059
-0.0273874 0.112125 0.356438
-0.225981 0.11209 0.247929
-0.0825526 0.112021 0.311861
-0.150136 0.111953 0.270284
-0.302609 0.111919 0.184842
-0.0984691 0.111851 0.279124
-0.265229 0.111783 0.187953
-0.175136 0.11175 0.223798
-0.213048 0.111683 0.197048
-0.0241731 0.111674 0.281231
-0.145307 0.111608 0.212858
-0.119103 0.111543 0.21815
-0.13085 0.11151 0.203077
-0.337273 0.111445 0.0920518
-0.128599 0.11138 0.18857
0.00768633 0.111348 0.247516
0.0344423 0.111284 0.253071
-0.097374 0.11122 0.179333
-0.169818 0.111188 0.133917
-0.350847 0.111125 0.0355681
-0.300389 0.111062 0.052957
-0.140525 0.111031 0.123697
-0.236915 0.110969 0.0676546
-0.189551 0.110966 0.0809381
-0.219084 0.110905 0.0583095
-0.261055 0.110844 0.0294555
-0.110231 0.110813 0.0956712
-0.159779 0.110753 0.0630214
-0.268526 0.110693 0.000765011
-0.161766 0.110664 0.0449487
-0.148848 0.110604 0.0435166
-0.198032 0.110575 0.00972804
-0.146073 0.110516 0.0278078
0.0940415 0.138864 1.38123
0.328666 0.138346 1.50039
0.344398 0.137974 1.50631
0.140956 0.137603 1.4027
0.183583 0.137336 1.4194
0.270632 0.13707 1.45833
0.3648 0.136847 1.49969
0.170907 0.136583 1.39818
0.0814235 0.136422 1.34613
0.184118 0.136161 1.39292
0.224524 0.136001 1.40584
0.180096 0.135744 1.37906
0.110403 0.135586 1.33694
0.200434 0.13537 1.37631
0.190176 0.135214 1.36391
0.0592084 0.135001 1.29279
0.0428766 0.134847 1.27737
0.159682 0.134694 1.32851
0.30415 0.134542 1.39349
0.0403704 0.134332 1.25596
0.0329436 0.134183 1.24499
0.11511 0.134034 1.2788
0.152629 0.133886 1.29028
-0.101571 0.13374 1.1559
0.136552 0.133595 1.26767
-0.0560124 0.13348 1.16323
0.100741 0.133309 1.2351
-0.100331 0.133166 1.12729
0.0259994 0.133024 1.18316
-0.08248 0.132884 1.12161
0.114731 0.132771 1.21213
0.00731192 0.132632 1.15111
0.0748959 0.132495 1.17758
-0.0824939 0.132383 1.09082
-0.0858733 0.132247 1.0818
-0.0733917 0.132136 1.08
-0.0790238 0.132036 1.06887
0.077672 0.131904 1.13982
-0.00625034 0.131774 1.09044
-0.0336222 0.131665 1.06875
0.0139215 0.131537 1.08509
-0.0491532 0.131411 1.04609
-0.056751 0.131302 1.03431
-0.206348 0.131194 0.951546
0.155878 0.131086 1.1247
-0.0166557 0.130979 1.03049
0.0731196 0.130895 1.06674
0.0594242 0.130775 1.05236
-0.165139 0.130656 0.932526
-0.0174196 0.13055 0.99846
-0.0919651 0.130457 0.952904
-0.0805636 0.130381 0.949778
-0.0643287 0.130267 0.950285
-0.164334 0.130162 0.892383
-0.136108 0.130058 0.898605
-0.154567 0.129954 0.881492
0.127863 0.129851 1.01483
-0.0784254 0.129785 0.902651
0.014646 0.129677 0.94148
-0.0739327 0.129575 0.889325
0.0846248 0.129478 0.960591
-0.0237966 0.129419 0.897192
-0.214056 0.129315 0.794285
-0.0713113 0.129215 0.857809
-0.136743 0.129116 0.817191
-0.0568636 0.129064 0.847781
-0.242726 0.128964 0.747017
-0.202077 0.128865 0.759514
-0.293186 0.128766 0.706139
-0.0106438 0.128667 0.839594
-0.122797 0.128618 0.774118
-0.151083 0.128521 0.752124
-0.220788 0.128424 0.709468
0.0781398 0.128378 0.849453
-0.0127223 0.128281 0.796225
-0.0593888 0.128189 0.764951
0.0036214 0.128093 0.788663
-0.0861417 0.127997 0.735992
-0.275295 0.127956 0.631854
-0.167066 0.127861 0.678183
-0.0501771 0.127814 0.727277
-0.174075 0.127727 0.657293
-0.246465 0.127633 0.61332
0.0819696 0.127549 0.769449
-0.129858 0.127503 0.6542
-0.10555 0.12741 0.658583
-0.127856 0.127329 0.639289
-0.13084 0.127237 0.630025
-0.241717 0.127191 0.565268
-0.23981 0.127112 0.558025
-0.103754 0.127022 0.618285
-0.026844 0.126977 0.647433
-0.248969 0.126887 0.528609
-0.363192 0.126811 0.463238
-0.269461 0.126722 0.50234
-0.183717 0.126678 0.53592
-0.244431 0.126605 0.497243
-0.14285 0.126517 0.54027
-0.0550526 0.126474 0.574885
-0.0591679 0.126404 0.564445
-0.146287 0.126317 0.513122
-0.152426 0.126274 0.500777
-0.211882 0.126188 0.463289
-0.180382 0.126122 0.470585
-0.0826058 0.126079 0.510205
-0.0796806 0.125994 0.503905
-0.0184552 0.125909 0.526756
-0.0770222 0.125888 0.487451
-0.330354 0.125805 0.353019
-0.198089 0.125721 0.411385
-0.164602 0.125638 0.420361
-0.18666 0.12562 0.399247
-0.161621 0.125538 0.403994
-0.135579 0.125456 0.409241
-0.210724 0.125415 0.362425
-0.128175 0.125334 0.395927
-5.97911e-05 0.125278 0.451293
-0.307615 0.125238 0.288275
-0.0732018 0.125158 0.397701
-0.220371 0.125078 0.316335
-0.152708 0.125039 0.340933
-0.163932 0.124987 0.326541
-0.147714 0.124909 0.326858
-0.219375 0.12487 0.281797
-0.266875 0.124792 0.250255
-0.149505 0.124715 0.301144
-0.198347 0.124676 0.267499
-0.220331 0.124599 0.248711
-0.264922 0.124553 0.217519
-0.107316 0.124515 0.287098
-0.135191 0.124439 0.265351
-0.259817 0.124364 0.195225
-0.252792 0.124327 0.189519
-0.283952 0.124253 0.166123
-0.163723 0.124179 0.218418
-0.284335 0.124142 0.148898
-0.237029 0.124101 0.163526
-0.172676 0.124028 0.187866
0.0539627 0.123992 0.291969
-0.238533 0.12392 0.137881
0.0194861 0.123848 0.259045
-0.307813 0.123813 0.0861824
-0.035319 0.123742 0.21458
-0.0282651 0.123707 0.208896
-0.261731 0.123637 0.0843077
-0.199687 0.123567 0.10747
-0.191742 0.123532 0.102233
0.00348545 0.123463 0.19198
-0.214274 0.123395 0.0752273
-0.168912 0.123361 0.0887004
-0.182143 0.123293 0.0742057
-0.346085 0.123259 -0.0169726
-0.0887443 0.123227 0.10244
-0.206589 0.12316 0.0356156
-0.08808 0.123094 0.0869612
-0.0645994 0.123062 0.0894875
-0.170045 0.122996 0.0288474
-0.02454 0.122964 0.0923862
-0.149273 0.122899 0.022094
0.363347 0.153035 1.53282
0.24995 0.152465 1.47786
0.136165 0.152056 1.41895
0.324302 0.151647 1.51105
0.239715 0.151353 1.46407
0.374832 0.151107 1.52584
0.214874 0.150816 1.44122
0.219731 0.150525 1.43902
0.158624 0.150237 1.40383
0.188018 0.15006 1.41118
0.275 0.149819 1.44896
0.171428 0.149644 1.38985
0.20533 0.149363 1.40216
0.0819857 0.14919 1.33318
0.172357 0.148954 1.37267
0.102164 0.148783 1.33027
0.2161 0.148614 1.37993
0.105962 0.14842 1.31819
0.0428389 0.148214 1.28031
-0.0150733 0.148048 1.24404
-0.0195897 0.147883 1.23447
0.0855583 0.14772 1.27973
-0.0449987 0.147529 1.20786
0.0103079 0.147333 1.22907
0.00337693 0.147173 1.21826
0.0516591 0.147015 1.23505
0.163852 0.146889 1.28298
0.0221764 0.146733 1.20479
0.00625747 0.146578 1.18947
0.048465 0.146425 1.20319
0.099968 0.1463 1.22083
-0.0409781 0.146149 1.14297
-0.0474057 0.145999 1.13235
0.0859288 0.145851 1.1916
-0.0949761 0.145728 1.09307
-0.0748876 0.145581 1.09569
-0.0299558 0.145437 1.1107
-0.0127342 0.145315 1.11126
-0.215286 0.145173 1.00252
-0.0395803 0.145052 1.08235
-0.0532406 0.144931 1.0675
0.0447147 0.144811 1.10848
0.0999226 0.144671 1.12861
0.0013164 0.144576 1.07066
-0.0429846 0.144442 1.04095
-0.0105487 0.144323 1.04919
-0.163451 0.144191 0.96516
-0.0531094 0.144073 1.01237
0.0148492 0.143955 1.0384
-0.0400148 0.143838 1.00302
-0.0733669 0.143756 0.977446
-0.0764586 0.14363 0.968238
-0.00334174 0.143515 0.996868
0.0138751 0.143399 0.997557
-0.0525452 0.143284 0.956435
-0.0859543 0.14317 0.931827
-0.0586973 0.143098 0.936347
0.0497489 0.142984 0.982674
0.0239989 0.142871 0.961911
-0.0111018 0.142758 0.93648
-0.158679 0.142694 0.853433
-0.168916 0.14258 0.840489
0.0038226 0.142468 0.918985
-0.223888 0.142358 0.797223
-0.061933 0.142301 0.868783
-0.069099 0.14219 0.857348
-0.0613359 0.14208 0.853384
-0.0564952 0.141971 0.847948
-0.0766271 0.141861 0.830043
-0.11765 0.141809 0.800044
-0.0140497 0.1417 0.844013
-0.00887574 0.141596 0.838661
-0.0356432 0.141488 0.817451
-0.0358774 0.141434 0.807931
-0.031606 0.141333 0.802084
-0.0874741 0.141226 0.766336
0.119186 0.14118 0.86006
-0.0131248 0.141075 0.786095
0.0359055 0.140978 0.802535
-0.151645 0.140873 0.700954
-0.126277 0.140769 0.705835
-0.137707 0.140728 0.690428
-0.186968 0.140624 0.657999
-0.100674 0.140573 0.691789
-0.0306372 0.140482 0.718633
-0.0419584 0.14038 0.70518
-0.235508 0.140292 0.600176
-0.028391 0.140241 0.694391
-0.0438801 0.14014 0.678859
-0.213429 0.140056 0.585801
-0.103386 0.139956 0.633033
-0.155267 0.139906 0.597767
-0.15641 0.139824 0.588854
-0.0704916 0.139725 0.624027
-0.231221 0.139676 0.534346
-0.135126 0.139578 0.574615
-0.212182 0.1395 0.527681
-0.246746 0.139403 0.502616
-0.148938 0.139354 0.542218
-0.0893883 0.139279 0.563525
-0.0789136 0.139183 0.560979
-0.258001 0.139136 0.462142
-0.194257 0.139064 0.485481
0.0573761 0.138969 0.603513
-0.272649 0.138922 0.429214
-0.292233 0.138828 0.411642
-0.252817 0.13876 0.422745
-0.0719495 0.138714 0.503898
-0.23832 0.138621 0.41293
-0.185768 0.138529 0.431422
-0.135816 0.138464 0.447716
-0.281918 0.138419 0.365394
-0.238254 0.138328 0.379437
-0.113065 0.138237 0.434243
-0.028332 0.138222 0.466378
-0.391327 0.138132 0.277085
-0.152033 0.138043 0.388936
-0.125511 0.137998 0.39294
-0.129989 0.13791 0.382906
-0.242401 0.137853 0.317852
-0.0502721 0.13781 0.404662
-0.141491 0.137722 0.351248
-0.236197 0.137636 0.29609
0.0456384 0.137593 0.427761
-0.113773 0.13754 0.339116
-0.163963 0.137455 0.306205
-0.125073 0.13737 0.317831
-0.306849 0.137328 0.217699
-0.148608 0.137243 0.289
-0.100788 0.137202 0.303671
-0.257603 0.137154 0.216219
-0.229548 0.137071 0.222413
-0.306261 0.136989 0.17622
-0.356627 0.136948 0.141799
-0.0174486 0.136866 0.303549
-0.188336 0.136785 0.210263
-0.102591 0.136744 0.243902
-0.142195 0.136702 0.21493
-0.0372272 0.136623 0.259555
-0.111935 0.136583 0.212966
-0.168176 0.136504 0.176983
-0.238934 0.136425 0.133737
-0.117378 0.136386 0.185283
-0.187027 0.136308 0.142587
-0.251363 0.136231 0.102542
-0.117262 0.136192 0.160363
-0.177545 0.136116 0.122339
-0.19744 0.13604 0.104504
-0.211899 0.136002 0.0880474
-0.133829 0.135927 0.119189
-0.196178 0.135852 0.0801145
-0.29992 0.135856 0.0175359
-0.341336 0.135782 -0.0110875
-0.115564 0.135709 0.0938762
-0.0998186 0.135672 0.0925168
-0.328243 0.135599 -0.0296249
-0.0608871 0.135563 0.0948217
-0.235005 0.135491 -0.000174444
-0.195837 0.13542 0.011465
-0.214743 0.135385 -0.00722044
-0.106512 0.135314 0.0389422
0.210261 0.16726 1.47326
0.230727 0.166638 1.48513
0.316891 0.166191 1.52611
0.37836 0.165869 1.55207
0.198162 0.165476 1.45883
0.352521 0.165156 1.53129
0.494149 0.164837 1.59739
0.40249 0.16452 1.54686
0.0762553 0.164255 1.37796
0.0311257 0.164013 1.34909
0.320166 0.16375 1.48784
0.0743851 0.163559 1.35759
0.296961 0.163252 1.46416
0.266803 0.163064 1.44172
0.266984 0.162806 1.43607
0.161667 0.16262 1.37605
0.10444 0.162435 1.34008
0.0837221 0.162181 1.32399
0.0104404 0.161998 1.27999
0.218004 0.161817 1.37642
-0.0240933 0.161607 1.24872
0.0060255 0.16139 1.25732
-0.0238991 0.161213 1.23498
0.032685 0.161037 1.25589
0.213249 0.160863 1.33879
0.185948 0.160691 1.31773
0.0944367 0.160553 1.26379
0.154819 0.160383 1.28658
0.0473066 0.160209 1.22551
0.00213708 0.16004 1.19555
-0.0576813 0.159872 1.15825
0.136796 0.159706 1.24808
0.0501049 0.159542 1.19731
0.0600211 0.159406 1.19416
0.217509 0.159244 1.26547
-0.0560513 0.159126 1.12023
0.166174 0.15895 1.22428
-0.118066 0.158834 1.07365
-0.0860892 0.158679 1.08212
0.0383363 0.158526 1.13679
0.0300876 0.158374 1.12511
-0.0398907 0.158243 1.08208
-0.0623864 0.158111 1.06281
-0.0462565 0.157963 1.0633
-0.117613 0.157832 1.01962
0.00556738 0.157702 1.07321
-0.0606563 0.157607 1.03126
-0.103781 0.157465 1.00204
-0.0514398 0.157336 1.02023
-0.0290192 0.157196 1.02376
-0.0863976 0.157069 0.987106
-0.181547 0.156941 0.931577
-0.159026 0.156814 0.934891
-0.0220537 0.156734 0.994271
0.0339254 0.156601 1.01449
-0.0292044 0.156476 0.97499
0.0182633 0.156351 0.990799
-0.108837 0.156226 0.919332
0.0533484 0.156102 0.992516
-0.0883288 0.156033 0.91235
0.118464 0.155909 1.00784
-0.110713 0.155786 0.885359
0.106571 0.155664 0.986113
-0.211815 0.155602 0.817456
0.00597895 0.15548 0.918475
-0.0951674 0.15536 0.859998
0.0110512 0.155239 0.905238
-0.228367 0.155179 0.776072
0.0101104 0.155062 0.88737
0.0258729 0.154942 0.887396
0.151338 0.154828 0.942145
-0.00246923 0.15471 0.857392
0.00500507 0.154657 0.85152
-0.16815 0.15454 0.757099
-0.0897395 0.154431 0.788234
-0.154344 0.154314 0.748094
-0.124974 0.154256 0.753371
0.0337818 0.154151 0.824633
-0.131068 0.154035 0.73438
-0.0190987 0.15399 0.780632
-0.0945805 0.153876 0.735068
-0.108585 0.153776 0.719854
-0.0546427 0.153662 0.739003
-0.0361063 0.153606 0.738894
-0.0516565 0.153509 0.722857
-0.0844101 0.153397 0.698665
0.00225202 0.153341 0.732632
-0.0395492 0.153248 0.703416
-0.140587 0.153137 0.645088
-0.176665 0.153047 0.618678
-0.0221492 0.152992 0.686584
-0.225111 0.152882 0.577298
-0.424196 0.152796 0.469328
-0.172167 0.152687 0.587536
-0.110604 0.152633 0.608982
-0.186368 0.15255 0.562613
-0.177733 0.152443 0.559126
-0.206105 0.152389 0.535613
-0.0291971 0.152309 0.61552
-0.270519 0.152203 0.487055
-0.205308 0.152098 0.511858
-0.14491 0.152074 0.531932
-0.268879 0.151969 0.462143
-0.24342 0.151866 0.467069
-0.112366 0.151814 0.52329
-0.0862453 0.151741 0.527669
-0.0260046 0.151639 0.549984
-0.191674 0.151537 0.459344
-0.0735074 0.151518 0.508185
-0.154174 0.151417 0.460042
-0.227255 0.151317 0.415692
-0.268498 0.151266 0.385781
-0.263422 0.151201 0.379494
-0.0914144 0.151102 0.457683
-0.278341 0.151052 0.354935
-0.154659 0.150954 0.408964
-0.316426 0.150893 0.319175
-0.200807 0.150844 0.367704
-0.243867 0.150747 0.338354
-0.0302083 0.150651 0.437363
-0.238179 0.150603 0.324106
-0.34881 0.150545 0.259799
-0.0377292 0.15045 0.407509
-0.416185 0.150356 0.21045
-0.113029 0.150309 0.352761
-0.199118 0.150256 0.300638
-0.272326 0.150163 0.256192
-0.28579 0.150117 0.240194
-0.383796 0.150024 0.183349
-0.285765 0.149932 0.224519
-0.154424 0.149887 0.280931
-0.0315487 0.149839 0.333184
-0.145367 0.149749 0.268417
-0.197972 0.149659 0.234253
-0.120587 0.149614 0.263687
-0.0684441 0.149525 0.281895
-0.0841243 0.149437 0.266188
-0.268122 0.149393 0.164936
-0.170921 0.149351 0.204228
-0.143321 0.149264 0.210145
-0.274376 0.14922 0.135362
-0.179124 0.149134 0.175101
-0.104448 0.149048 0.204548
-0.334143 0.149006 0.0804491
-0.145653 0.148921 0.166799
-0.176112 0.148837 0.143669
-0.219721 0.148795 0.112616
-0.0655517 0.148711 0.181796
-0.190495 0.148669 0.110078
-0.107116 0.148635 0.142283
-0.291609 0.148553 0.0421115
-0.0700852 0.148472 0.144942
-0.192294 0.148431 0.0745859
-0.105993 0.148351 0.109799
-0.174195 0.148271 0.0677535
-0.285299 0.148231 0.00295053
-0.172927 0.148152 0.0511855
-0.295274 0.148073 -0.0179457
-0.149187 0.148034 0.0458468
-0.0377207 0.147956 0.0936143
-0.275833 0.147878 -0.0334148
-0.0776266 0.14784 0.0564368
-0.146917 0.147763 0.0138102
0.574118 0.182733 1.66045
0.223461 0.181538 1.4969
0.418197 0.180999 1.5931
0.244049 0.180436 1.50543
0.183728 0.180031 1.47154
0.403722 0.179604 1.57833
0.354301 0.179258 1.54883
0.36482 0.178913 1.54931
0.111976 0.17857 1.41812
0.158729 0.178281 1.43566
0.120538 0.178072 1.40913
0.2677 0.177735 1.47796
0.184147 0.177528 1.42876
0.038006 0.177244 1.3499
0.0870146 0.17704 1.367
0.118353 0.176712 1.37788
0.0645011 0.17651 1.34355
0.165191 0.176233 1.3881
0.071084 0.176034 1.33364
0.0610294 0.175837 1.32121
-0.00645016 0.175607 1.28078
0.130543 0.17537 1.34277
0.0439296 0.175177 1.29205
0.0618477 0.174986 1.29358
0.072782 0.174796 1.29162
0.0530522 0.174607 1.27431
0.0650831 0.174419 1.27292
0.187267 0.174196 1.32737
0.114422 0.174011 1.2835
-0.0135734 0.173829 1.21204
0.15222 0.173648 1.28746
0.0836818 0.173469 1.24569
0.0814916 0.173321 1.23644
0.0287418 0.173144 1.20257
0.0719364 0.17297 1.21664
0.0506367 0.172823 1.19787
0.05699 0.172651 1.19352
-0.0401798 0.172505 1.13683
-0.0603624 0.172335 1.1192
0.164958 0.172191 1.22378
-0.110747 0.172023 1.07837
0.0563478 0.17188 1.15385
-0.0110481 0.171715 1.11258
0.0848383 0.171605 1.15173
-0.130119 0.171446 1.03659
0.0286534 0.171304 1.10794
-0.0807574 0.171148 1.04556
-0.095032 0.171007 1.0304
-0.0402185 0.170867 1.0498
-0.13171 0.170726 0.99606
-0.180729 0.170632 0.96251
-0.00229483 0.170435 1.04509
-0.0278312 0.170345 1.02322
-0.171125 0.170199 0.943783
-0.00172018 0.170061 1.02052
0.0764794 0.169924 1.05166
-0.1941 0.169788 0.908417
0.114509 0.16971 1.0534
-0.05469 0.169572 0.960918
0.154827 0.169436 1.05774
0.052637 0.169302 0.998709
-0.164313 0.169234 0.880718
-0.118406 0.169101 0.89575
-0.0214518 0.168967 0.936313
-0.129251 0.168834 0.874508
-0.203252 0.168704 0.829557
-0.126741 0.168572 0.859916
-0.0693861 0.16851 0.879013
-0.0934304 0.168379 0.859103
-0.0577877 0.168255 0.868896
-0.12609 0.168125 0.826864
0.0997496 0.16806 0.930323
-0.0494923 0.167939 0.847635
-0.16058 0.16782 0.783979
-0.282048 0.167692 0.715377
-0.0573803 0.167628 0.818271
-0.175313 0.167513 0.75115
-0.0704863 0.167387 0.795707
-0.105119 0.167275 0.770187
0.000502323 0.167212 0.813577
-0.150782 0.167103 0.729687
-0.217921 0.166978 0.688269
-0.126356 0.166854 0.726209
-0.0277475 0.16681 0.765653
0.00461182 0.166687 0.773993
-0.0450594 0.166585 0.740808
-0.1654 0.166463 0.672799
-0.074086 0.166402 0.709071
0.0874278 0.166303 0.781426
-0.139223 0.166183 0.660269
0.0558463 0.166123 0.74843
0.123334 0.166027 0.773718
-0.0291883 0.165908 0.689629
-0.21065 0.165875 0.588851
-0.0632344 0.165757 0.654732
-0.133775 0.16564 0.611638
0.026494 0.165551 0.683202
-0.184612 0.165493 0.568297
-0.165973 0.165377 0.569795
-0.108266 0.165292 0.590018
-0.0967293 0.165177 0.58796
-0.137708 0.16512 0.558133
-0.303248 0.165038 0.466671
-0.0756486 0.164925 0.572645
-0.0808131 0.164868 0.560733
-0.196935 0.164791 0.493917
-0.165001 0.164679 0.502057
-0.0876112 0.164567 0.532926
0.0171892 0.164549 0.575009
-0.232632 0.164438 0.442268
-0.168921 0.164328 0.466295
-0.231286 0.164312 0.424739
0.044322 0.164204 0.554708
-0.15398 0.164095 0.447724
-0.276703 0.164041 0.377056
-0.0999258 0.163975 0.45648
-0.15126 0.163868 0.422973
-0.13231 0.163762 0.424609
-0.0811959 0.163709 0.440866
-0.0429395 0.163647 0.45095
-0.0506145 0.163542 0.439266
-0.194375 0.163437 0.359538
-0.308241 0.163385 0.293312
-0.145761 0.163328 0.365424
-0.22335 0.163225 0.318772
-0.0312976 0.163174 0.405508
-0.237141 0.163072 0.294731
-0.0986395 0.163019 0.354768
-0.199289 0.162968 0.295155
-0.208008 0.162868 0.282928
-0.193807 0.162768 0.282159
0.0359239 0.162669 0.389153
-0.126607 0.16267 0.297172
-0.136225 0.162571 0.28448
-0.211516 0.162474 0.23895
-0.21525 0.162425 0.227803
-0.175885 0.162328 0.239599
-0.194865 0.162232 0.22222
-0.231023 0.162237 0.193339
-0.0284324 0.162142 0.286733
-0.0477452 0.162047 0.269171
-0.116137 0.161953 0.227067
-0.0341775 0.161906 0.25877
-0.204133 0.161813 0.165881
-0.111272 0.16172 0.204395
-0.0648696 0.161674 0.218324
-0.129349 0.161638 0.176527
-0.423949 0.161546 0.0212917
-0.0316463 0.161501 0.208167
-0.346155 0.161411 0.0429737
-0.218355 0.161321 0.0989294
-0.06941 0.161232 0.165452
-0.22982 0.161188 0.0759738
-0.113982 0.1611 0.125938
-0.163923 0.161012 0.0930058
-0.00326561 0.160968 0.164063
-0.0788612 0.160882 0.118298
-0.226753 0.160796 0.0363782
-0.0807544 0.160753 0.100106
-0.247738 0.160667 0.00863418
-0.133594 0.160583 0.057719
-0.104398 0.160541 0.0630454
-0.319442 0.160457 -0.0524715
-0.183078 0.160374 0.00770885
-0.152626 0.160332 0.0136626
-0.108016 0.16025 0.027957
0.426336 0.196016 1.61278
0.520508 0.19535 1.66016
0.303793 0.194829 1.54953
0.424924 0.194307 1.60788
0.188546 0.193788 1.48751
0.172766 0.193414 1.47476
0.246914 0.193043 1.50699
0.206412 0.19273 1.48084
0.290003 0.192362 1.51781
0.244938 0.192137 1.4878
0.113089 0.191774 1.41704
0.336037 0.191551 1.52105
0.228218 0.191245 1.46129
0.0523932 0.190941 1.36754
0.143225 0.190672 1.40648
0.120043 0.190455 1.38744
0.145739 0.190156 1.39444
0.0829805 0.189942 1.35561
0.0932728 0.18973 1.3533
0.247045 0.189436 1.42434
0.120789 0.189227 1.35375
0.0249635 0.189019 1.29838
0.0843348 0.188813 1.32059
0.187485 0.188609 1.36468
0.0515359 0.188364 1.29005
0.106611 0.188162 1.31011
0.120516 0.187925 1.31031
0.0454628 0.187763 1.26455
0.186446 0.187567 1.32753
0.0380404 0.187372 1.2458
0.186113 0.18718 1.31229
-0.160866 0.18702 1.13062
0.0202839 0.18683 1.21365
-0.0826218 0.186642 1.15462
-0.0343576 0.186456 1.17117
0.0738633 0.186298 1.21714
-0.0181001 0.186115 1.16356
0.0392056 0.185934 1.18459
0.0282069 0.185755 1.17144
0.132977 0.185599 1.21573
0.0353835 0.185443 1.15884
0.00668644 0.185268 1.13684
-0.00216187 0.185113 1.12434
-0.1925 0.184941 1.0215
-0.052964 0.184787 1.08321
-0.111926 0.184679 1.04475
0.0454304 0.184513 1.11567
0.0528799 0.184361 1.11136
0.0749973 0.184198 1.11464
0.142347 0.184047 1.14029
0.127988 0.183897 1.1251
0.0869823 0.183747 1.0966
0.0640968 0.183656 1.07591
0.0557255 0.18344 1.06518
0.00463657 0.183353 1.03033
0.0364148 0.183205 1.03824
-0.104514 0.183058 0.959804
-0.086592 0.182908 0.960872
-0.0471024 0.182761 0.97266
-0.0453627 0.182687 0.964005
0.0299414 0.182542 0.993712
-0.0307736 0.182398 0.955395
-0.090441 0.182254 0.917626
-0.00697674 0.182185 0.949768
-0.0732359 0.182041 0.908714
0.0321514 0.181904 0.953375
-0.140507 0.181761 0.859129
-0.0110395 0.181698 0.914203
-0.101417 0.181556 0.861107
-0.0952493 0.181425 0.856079
-0.0357803 0.181285 0.877914
-0.0338109 0.181157 0.870743
-0.13566 0.181087 0.810346
-0.101797 0.180962 0.819082
-0.0888049 0.180824 0.817691
0.00466389 0.180703 0.856183
-0.0882561 0.180634 0.80027
-0.0191109 0.180498 0.826967
-0.344448 0.18038 0.656012
-0.103225 0.180245 0.768752
-0.0942936 0.180197 0.763319
-0.119105 0.180063 0.743046
-0.234006 0.179952 0.677213
-0.183716 0.179819 0.694493
0.0252755 0.179752 0.789574
-0.100637 0.179645 0.718185
-0.131218 0.179513 0.695037
-0.11291 0.179409 0.695705
-0.245948 0.179344 0.619785
-0.0789821 0.179243 0.694732
-0.0325733 0.179113 0.710081
0.0362555 0.179049 0.735106
-0.240999 0.178952 0.587888
-0.0918442 0.178824 0.654615
-0.127309 0.17873 0.628235
0.0524997 0.178667 0.708761
-0.0298641 0.178541 0.659731
-0.0894645 0.17845 0.621225
-0.136953 0.178326 0.58963
-0.115484 0.178263 0.591001
-0.15001 0.178177 0.564972
-0.263288 0.178054 0.500482
-0.20775 0.177993 0.518896
-0.145938 0.17791 0.540975
-0.308777 0.177788 0.451705
-0.10709 0.177728 0.543201
-0.359569 0.177649 0.40807
-0.0624451 0.177529 0.54878
-0.106227 0.177454 0.517935
-0.232758 0.177394 0.445327
-0.109354 0.177276 0.499174
-0.0254433 0.177204 0.53211
-0.0532545 0.177087 0.510341
-0.0756473 0.177029 0.489812
-0.00385668 0.176913 0.517848
-0.218322 0.176846 0.401519
-0.151179 0.176731 0.427222
-0.275214 0.176674 0.35588
0.0732795 0.176611 0.520961
-0.219296 0.176497 0.366798
-0.207742 0.176441 0.363254
-0.14839 0.176328 0.385057
-0.0257521 0.17627 0.43713
-0.00562441 0.176159 0.439309
-0.217068 0.176104 0.324272
-0.118533 0.175993 0.365656
-0.286814 0.175939 0.272186
-0.197092 0.175885 0.307733
-0.197994 0.175776 0.299388
-0.110866 0.175668 0.335058
-0.212539 0.175619 0.274806
-0.313716 0.175566 0.214906
-0.14857 0.175459 0.289571
-0.0351948 0.175354 0.338349
-0.156477 0.175301 0.268404
-0.0381219 0.175249 0.318279
-0.191312 0.175153 0.233554
0.0439733 0.175049 0.34327
-0.21617 0.174998 0.203894
-0.150646 0.174895 0.228728
-0.181647 0.174794 0.205295
-0.111174 0.174805 0.229545
0.0532079 0.174705 0.303791
-0.146855 0.174605 0.195811
-0.0997894 0.174505 0.211391
-0.225926 0.174456 0.139022
-0.198173 0.174357 0.144943
-0.219359 0.174259 0.126389
-0.282134 0.17421 0.0857043
-0.231746 0.174179 0.101135
-0.162149 0.174082 0.127953
-0.0121662 0.173987 0.194959
-0.156257 0.173939 0.113612
-0.229638 0.173844 0.0689315
-0.0909607 0.17375 0.130274
-0.174056 0.173703 0.0794262
-0.0830059 0.17361 0.116949
-0.312524 0.173518 -0.00581725
-0.0688622 0.173426 0.107999
0.0051142 0.17338 0.135688
-0.263611 0.173289 -0.00669559
-0.174603 0.173199 0.0297808
-0.107645 0.173154 0.0539602
-0.0968494 0.173065 0.051323
-0.0771453 0.172976 0.0531327
-0.108339 0.172932 0.0282355
-0.293337 0.172844 -0.0723143
0.446266 0.210568 1.63727
0.387937 0.2097 1.61095
0.468017 0.209141 1.64863
0.371314 0.208582 1.59798
0.198852 0.20818 1.50681
0.295809 0.207779 1.55037
0.178309 0.207288 1.48831
0.0718166 0.206892 1.43017
0.296217 0.206649 1.53484
0.139435 0.206257 1.45156
0.241981 0.205925 1.49692
0.0750198 0.205686 1.40593
0.322747 0.205301 1.52489
0.273539 0.205065 1.49279
-0.00475122 0.20474 1.34776
0.0823599 0.204507 1.38382
0.278589 0.204134 1.47698
0.0224539 0.203905 1.34141
0.249764 0.203678 1.44756
0.0619051 0.203363 1.34773
0.134975 0.203139 1.37675
0.134021 0.202916 1.36876
0.0102642 0.202696 1.29936
0.263958 0.202432 1.4195
-0.0368387 0.202214 1.26159
0.122821 0.201957 1.33463
0.0375027 0.201783 1.2837
0.0773119 0.201571 1.29605
-0.0220946 0.20136 1.23878
0.102085 0.201137 1.29357
0.156958 0.200928 1.31347
0.023435 0.200721 1.23915
0.189444 0.20057 1.31357
0.158352 0.200346 1.29085
0.125838 0.200143 1.26702
-0.0257624 0.199944 1.18362
0.0723135 0.199804 1.22393
0.120175 0.199577 1.24083
-0.035507 0.199419 1.15466
0.200384 0.199251 1.26448
-0.0351612 0.199063 1.13899
0.131304 0.198876 1.21449
-0.00191215 0.19871 1.13978
-0.147152 0.198528 1.05941
-0.000837919 0.198363 1.12448
-0.00918991 0.198198 1.11223
0.128319 0.198019 1.17322
0.00716898 0.197855 1.10458
0.0755263 0.19775 1.12959
-0.016295 0.197578 1.07582
-0.0277548 0.197416 1.06205
-0.00403369 0.197255 1.06588
-0.0168756 0.197087 1.05158
0.0215643 0.196927 1.06278
-0.00469729 0.196767 1.04164
-0.249222 0.19668 0.909931
0.00116455 0.196521 1.02714
-0.161608 0.196363 0.937764
0.062295 0.196206 1.04173
-0.163244 0.196049 0.920983
0.0914683 0.195971 1.03877
-0.0227871 0.195817 0.973643
-0.0671354 0.195665 0.943428
-0.119713 0.195511 0.909184
-0.13962 0.195363 0.891151
0.0287516 0.195209 0.967392
0.0335181 0.195141 0.960071
-0.0738289 0.194989 0.898461
-0.115439 0.194848 0.8695
-0.12673 0.194697 0.855926
-0.136554 0.194634 0.841237
-0.110857 0.194484 0.846165
-0.176714 0.19435 0.804998
-0.0526164 0.194201 0.859133
0.00899868 0.194144 0.880086
0.0107925 0.193996 0.873075
-0.0169783 0.193869 0.850865
-0.123519 0.193722 0.789692
-0.191655 0.193671 0.745687
-0.0459273 0.193525 0.810654
-0.0431807 0.193405 0.80361
-0.177108 0.193261 0.728752
-0.26792 0.193189 0.6739
-0.140491 0.193072 0.729149
0.00195177 0.192958 0.791857
-0.0758842 0.192816 0.745051
-0.0800569 0.192746 0.733534
-0.22232 0.192636 0.653837
-0.020432 0.192496 0.7469
-0.235195 0.192459 0.629361
0.0371106 0.19232 0.757635
-0.189534 0.192217 0.635645
0.0746325 0.192079 0.759849
-0.101886 0.191942 0.663714
-0.183526 0.191912 0.61264
-0.13913 0.191776 0.626963
0.0260589 0.191681 0.700776
-0.0530573 0.191613 0.651822
-0.048125 0.191479 0.646416
-0.149498 0.191387 0.58689
-0.065317 0.191254 0.621105
-0.085 0.191188 0.601882
-0.184595 0.191101 0.543186
-0.217052 0.190969 0.519081
-0.119634 0.190951 0.557335
0.0106565 0.190821 0.614602
-0.193186 0.190691 0.504805
-0.104595 0.190612 0.540079
0.00997923 0.190547 0.587998
-0.0245436 0.190419 0.562859
-0.167636 0.190344 0.482227
-0.214879 0.190217 0.45072
-0.0702951 0.190154 0.513655
-0.263252 0.190083 0.408026
-0.222668 0.189958 0.420428
-0.0331717 0.189896 0.505824
-0.0885354 0.189828 0.468926
-0.3502 0.189705 0.330199
-0.183774 0.189641 0.404131
-0.243264 0.18958 0.365035
-0.30774 0.189458 0.324895
-0.227934 0.189338 0.356896
-0.200623 0.189278 0.361192
-0.130918 0.189219 0.386699
-0.127273 0.1891 0.380612
-0.182016 0.189044 0.343811
-0.101714 0.188927 0.376039
-0.143663 0.188868 0.345725
0.0397487 0.188751 0.429509
0.0325583 0.188701 0.416402
-0.0157318 0.188643 0.382918
-0.0675709 0.188528 0.349066
-0.145647 0.188414 0.302094
-0.192597 0.188368 0.269023
-0.28985 0.188311 0.211059
-0.171336 0.188199 0.26237
-0.121024 0.188087 0.279576
-0.131051 0.188046 0.26488
-0.125347 0.187991 0.258396
-0.0742349 0.187881 0.275988
-0.188098 0.187771 0.21109
-0.100876 0.187663 0.246731
-0.104926 0.18768 0.233569
-0.17852 0.187573 0.188789
-0.129977 0.187466 0.205073
-0.170554 0.187413 0.175453
-0.0859956 0.187307 0.209743
-0.141983 0.187202 0.173756
-0.210892 0.187149 0.129973
-0.208204 0.18712 0.121413
-0.172556 0.187016 0.131225
-0.336981 0.186913 0.0409953
-0.136737 0.186811 0.133095
-0.106164 0.18676 0.139051
-0.293691 0.186659 0.0372597
-0.20408 0.186559 0.0740333
-0.124125 0.186509 0.104681
-0.113025 0.186409 0.102194
-0.0446421 0.18631 0.128341
-0.167176 0.186261 0.057746
-0.207268 0.186241 0.0276067
0.0256551 0.186145 0.136001
-0.0443067 0.186048 0.0929475
-0.067794 0.185953 0.0731241
0.0302032 0.185905 0.112786
0.0291793 0.18581 0.104187
-0.210737 0.185716 -0.0238653
-0.183499 0.18567 -0.0195832
-0.183942 0.185577 -0.0279074
0.518914 0.225196 1.68822
0.549009 0.224271 1.70597
0.394545 0.223674 1.62629
0.35615 0.223078 1.60471
0.257953 0.222483 1.55326
0.27341 0.222055 1.556
0.275446 0.221695 1.55099
0.24084 0.221271 1.52874
0.396042 0.220849 1.60139
0.340595 0.220493 1.56768
0.287548 0.220077 1.53621
0.288376 0.219822 1.52907
0.16902 0.219412 1.46442
0.282041 0.21916 1.51338
0.440374 0.218814 1.5866
0.211549 0.218565 1.46465
0.136283 0.218168 1.42198
0.328986 0.217976 1.5099
0.167665 0.21769 1.42242
0.0526837 0.217395 1.35827
0.063351 0.217106 1.3569
0.0580965 0.216869 1.3467
0.0643043 0.216633 1.34225
0.00608902 0.216351 1.30639
0.223825 0.216118 1.40769
0.242128 0.215888 1.40926
0.0300067 0.21566 1.29561
0.0567857 0.215433 1.3014
0.197507 0.215194 1.36441
0.0347604 0.214969 1.27546
0.227493 0.214747 1.36424
0.122843 0.214526 1.30431
0.238794 0.214308 1.35466
0.0120398 0.214092 1.23365
0.0502031 0.213909 1.24453
0.0424876 0.213696 1.23302
-0.048583 0.213486 1.17982
-0.133954 0.213305 1.12896
0.132537 0.213097 1.25453
0.027811 0.212893 1.19446
0.210406 0.212758 1.27681
0.173183 0.212512 1.25129
0.236451 0.212382 1.27392
0.0222794 0.212187 1.15903
-0.12946 0.211995 1.07533
-0.10485 0.211819 1.07954
0.0189339 0.211643 1.13333
-0.105634 0.211455 1.0632
-0.126895 0.21128 1.0445
0.0843258 0.211174 1.1408
-0.0388622 0.210923 1.07258
-0.0969622 0.210821 1.03416
-0.118595 0.210644 1.01538
0.0891887 0.210473 1.11122
-0.0092483 0.210302 1.05397
-0.0173696 0.210132 1.04188
0.0725419 0.210045 1.07725
-0.0849056 0.209791 0.992113
0.01098 0.209707 1.03044
-0.0680555 0.209539 0.982923
-0.12854 0.209375 0.94463
-0.0438967 0.209291 0.977369
0.000153442 0.20913 0.99131
-0.0435096 0.208971 0.961356
0.0380547 0.208806 0.994162
0.0226695 0.208652 0.978309
-0.0948975 0.208488 0.911559
0.00352276 0.208419 0.950986
-0.113421 0.208256 0.884557
-0.121944 0.208108 0.872057
-0.167801 0.208028 0.839599
-0.140546 0.207884 0.84495
-0.0646 0.207723 0.874982
-0.0428037 0.207583 0.877559
-0.210118 0.207446 0.785537
-0.132761 0.207288 0.81628
-0.102994 0.207209 0.821666
-0.0301583 0.207076 0.849676
0.0763777 0.206946 0.894491
-0.0800975 0.20679 0.808328
-0.187066 0.206712 0.745365
-0.18116 0.206587 0.739818
-0.202044 0.206464 0.72083
-0.159173 0.206311 0.734348
-0.241019 0.206234 0.683962
0.0132476 0.206116 0.802501
-0.130689 0.205965 0.722624
-0.147322 0.205925 0.704118
-0.107869 0.205775 0.715939
-0.213487 0.205664 0.654434
0.00828707 0.205515 0.757416
-0.0136671 0.205481 0.736159
0.0177332 0.205334 0.743955
-0.169724 0.20523 0.641429
-0.182343 0.205083 0.627214
-0.252466 0.20501 0.582728
-0.0722362 0.204911 0.66399
-0.158682 0.204766 0.612865
-0.00959752 0.20467 0.678498
-0.192613 0.204599 0.577575
-0.134995 0.204506 0.597423
-0.145782 0.204364 0.584124
-0.155421 0.204293 0.569899
-0.0254072 0.204205 0.625885
-0.132538 0.204065 0.564415
-0.212861 0.20398 0.515175
-0.00603081 0.203842 0.61068
-0.171177 0.203773 0.518712
-0.163071 0.203692 0.513625
-0.0401511 0.203556 0.567174
0.0197209 0.203547 0.586435
-0.0811982 0.203411 0.52806
-0.00514358 0.203276 0.558173
-0.217095 0.203203 0.442934
-0.0845155 0.203137 0.499839
-0.0876916 0.203067 0.488933
-0.170035 0.202935 0.439834
-0.0181005 0.202803 0.507874
-0.0533982 0.202804 0.479389
-0.121553 0.202673 0.437379
-0.174257 0.202544 0.403094
-0.0322205 0.202547 0.463221
-0.0393906 0.202419 0.451696
0.0128873 0.202291 0.469894
-0.117479 0.202234 0.395189
0.0486655 0.202171 0.468888
-0.0921833 0.202045 0.390515
-0.204684 0.201992 0.324675
-0.180512 0.201867 0.3288
-0.0892099 0.201805 0.365082
-0.027423 0.201756 0.386318
-0.144203 0.201634 0.319957
0.0151357 0.201512 0.391653
-0.238805 0.201527 0.253561
0.106293 0.201407 0.418127
-0.105004 0.201287 0.304493
-0.0894875 0.201227 0.302886
-0.195118 0.201186 0.240261
-0.038182 0.201068 0.310731
-0.067846 0.200951 0.287898
-0.135485 0.200892 0.244713
0.0825495 0.200857 0.343837
-0.0466942 0.200741 0.2712
-0.0569426 0.200626 0.258057
-0.0466338 0.200512 0.255189
-0.170267 0.200538 0.18205
-0.0898136 0.200425 0.214242
-0.159136 0.200313 0.171541
-0.163963 0.200201 0.161085
-0.0296007 0.200146 0.218899
-0.0837605 0.20009 0.182455
-0.173878 0.200011 0.128619
-0.131556 0.199902 0.141714
-0.123418 0.199847 0.136413
-0.360335 0.199739 0.00988379
-0.0854966 0.199632 0.139227
-0.231778 0.199525 0.0580064
-0.154434 0.199472 0.0873107
-0.095824 0.199455 0.106391
-0.238312 0.19935 0.0270454
-0.00431565 0.199246 0.135936
-0.108446 0.199194 0.0744969
-0.122776 0.199091 0.0592183
-0.0559081 0.198989 0.0845321
-0.0872222 0.198888 0.0607488
-0.112059 0.198837 0.0389564
-0.0379483 0.198737 0.0678783
-0.21627 0.198637 -0.029423
-0.0761428 0.198538 0.0324936
-0.045998 0.198489 0.0381906
-0.239136 0.198391 -0.0665335
0.440181 0.2399 1.66358
0.292376 0.238917 1.59224
0.438193 0.238107 1.66524
0.377355 0.237473 1.63235
0.230867 0.237016 1.55404
0.368963 0.236561 1.61803
0.358956 0.236003 1.60958
0.206252 0.235553 1.5282
0.340124 0.235172 1.5891
0.221662 0.234831 1.52327
0.263372 0.234453 1.5381
0.410127 0.234014 1.60646
0.103847 0.23364 1.44732
0.253827 0.233372 1.51472
0.206015 0.232942 1.48576
0.237894 0.232678 1.49411
0.14088 0.232371 1.43871
0.0721171 0.232053 1.39764
0.0651241 0.231794 1.38656
0.0101912 0.231435 1.3531
0.146827 0.23118 1.41383
0.357138 0.230927 1.51138
0.0989115 0.230624 1.37548
0.0722767 0.230374 1.35458
0.100751 0.230079 1.36196
0.157925 0.229834 1.38292
-0.037577 0.229592 1.27753
0.109508 0.229337 1.34367
0.0626088 0.229096 1.31261
0.216664 0.228857 1.38201
0.130989 0.22862 1.33153
-0.119586 0.228386 1.19859
0.0870765 0.228155 1.29425
0.105427 0.227926 1.29574
0.149378 0.227699 1.31001
0.0486057 0.227505 1.2514
-0.05029 0.227281 1.19423
0.192187 0.227061 1.30773
0.167536 0.226868 1.28721
-0.232681 0.226651 1.07936
0.0135446 0.226436 1.19469
-0.0296926 0.226245 1.16491
0.0657494 0.226034 1.20484
0.141084 0.225903 1.23339
0.121693 0.225637 1.21686
0.172332 0.225511 1.233
0.0369 0.22531 1.15739
0.0799975 0.225124 1.17082
0.100723 0.224927 1.17326
-0.0681991 0.224742 1.0807
-0.0334648 0.224557 1.08998
-0.00978096 0.224364 1.09388
0.131399 0.224263 1.15497
-0.0575126 0.22408 1.05244
0.0451669 0.223896 1.09574
-0.181186 0.223715 0.974503
0.0850574 0.223534 1.09958
-0.0467504 0.223443 1.02404
-0.00461505 0.223175 1.03864
0.00427015 0.223089 1.03339
-0.00123999 0.22291 1.02261
0.0643543 0.222739 1.04728
-0.149769 0.22257 0.932047
-0.0981095 0.222394 0.949868
-0.0649505 0.222317 0.956656
-0.126363 0.222141 0.917952
-0.207006 0.22198 0.869388
-0.0318678 0.221893 0.947387
-0.116783 0.221736 0.89665
0.037491 0.221563 0.965808
0.007666 0.221409 0.942576
-0.0644087 0.221259 0.898176
-0.135805 0.221088 0.854506
-0.0590151 0.221027 0.882927
-0.0653538 0.220857 0.871794
-0.190942 0.220715 0.800553
0.0326896 0.220547 0.904411
-0.0891403 0.220492 0.833443
-0.228982 0.220325 0.75557
-0.124236 0.22019 0.799409
-0.0521846 0.220024 0.827487
-0.0970391 0.219976 0.794924
-0.0779388 0.219811 0.796532
-0.0839315 0.219684 0.784908
-0.121885 0.219602 0.756443
0.0389895 0.219479 0.828208
0.0598341 0.219317 0.830695
-0.191795 0.219197 0.696157
-0.0424999 0.219117 0.761331
-0.0469921 0.219001 0.750315
-0.102523 0.218842 0.714618
0.0460581 0.21873 0.780086
0.0546328 0.218573 0.776442
-0.165316 0.218543 0.656068
0.0170457 0.218386 0.739319
-0.121062 0.218282 0.66134
-0.0348414 0.218127 0.696519
-0.0722479 0.218103 0.667324
-0.0620127 0.21795 0.66451
0.0257321 0.217853 0.699353
-0.0777792 0.217777 0.638157
-0.125979 0.217683 0.604978
-0.0190362 0.217533 0.650514
-0.159825 0.217458 0.570688
-0.136322 0.217368 0.573303
-0.0585392 0.21722 0.604259
-0.134005 0.217134 0.557332
-0.00510011 0.216987 0.613844
-0.121683 0.216979 0.544822
-0.0937497 0.216833 0.550845
-0.086439 0.216754 0.545197
0.0495812 0.21661 0.605257
-0.245535 0.216538 0.448284
-0.133531 0.216464 0.494921
0.0561902 0.216322 0.581829
-0.166036 0.216322 0.459837
0.143144 0.216181 0.606469
-0.140685 0.216111 0.455146
0.025147 0.215975 0.530028
-0.13143 0.215905 0.442332
-0.043262 0.215842 0.476876
-0.0151465 0.215705 0.482962
-0.0103927 0.215646 0.47574
-0.260221 0.215578 0.341418
0.0104265 0.21551 0.467337
-0.0522844 0.215387 0.427745
-0.0368797 0.21532 0.426042
-0.0373071 0.215268 0.416113
-0.0196289 0.215135 0.416953
-0.188916 0.215069 0.322906
-0.0164875 0.214955 0.400738
-0.0644928 0.21489 0.36733
-0.0184298 0.214845 0.380523
0.0499811 0.214716 0.406706
-0.0482169 0.214652 0.348203
0.038344 0.214611 0.381579
-0.0392776 0.214484 0.334735
-0.0245521 0.214421 0.332693
-0.104566 0.214321 0.284079
-0.0459843 0.214259 0.303961
-0.159064 0.214197 0.238015
0.100704 0.214102 0.359215
0.0477828 0.213979 0.32469
-0.0541755 0.21401 0.262272
-0.112146 0.213889 0.22521
0.0305342 0.213768 0.288471
0.0197827 0.213708 0.273684
0.0014101 0.213623 0.255645
-0.0434459 0.213564 0.223801
0.0585405 0.213446 0.266694
0.0775576 0.213424 0.265956
0.177462 0.213308 0.30779
-0.0873262 0.21325 0.165977
-0.106275 0.213135 0.148381
-0.062055 0.213118 0.160164
-0.126266 0.213004 0.119917
-0.0670979 0.212891 0.141355
-0.00359393 0.212835 0.163684
-0.105081 0.212723 0.10479
-0.229295 0.212712 0.032258
-0.167205 0.212602 0.0551313
0.0044764 0.212492 0.132795
0.087888 0.212438 0.165072
0.0422228 0.212329 0.134056
-0.0603769 0.212222 0.0745672
-0.0589692 0.212115 0.067076
0.0452295 0.212062 0.109747
-0.0668738 0.211956 0.0454936
-0.266752 0.211851 -0.0626538
-0.155983 0.211747 -0.0154843
-0.0836535 0.211643 0.0124588
-0.106759 0.211592 -0.00852441
-0.0103795 0.211489 0.0314358
0.59522 0.254864 1.75336
0.297389 0.25364 1.60943
0.375722 0.252782 1.64858
0.446042 0.25211 1.68118
0.203434 0.251626 1.55473
0.382163 0.251032 1.64056
0.333263 0.250551 1.61101
0.43428 0.250073 1.65644
0.292528 0.249669 1.57947
0.0907064 0.249195 1.47349
0.187153 0.248726 1.51664
0.31316 0.248328 1.57358
0.074757 0.248041 1.44674
0.206355 0.247581 1.50745
0.173256 0.247299 1.48326
0.409827 0.246909 1.59551
0.139487 0.24663 1.45272
0.250051 0.246185 1.50284
0.177555 0.245911 1.45895
0.108568 0.245639 1.41682
0.152919 0.245261 1.43294
0.138254 0.244993 1.41796
0.148343 0.244725 1.41539
0.109697 0.244407 1.38922
0.2255 0.244144 1.43948
-0.0962544 0.243837 1.27164
0.113683 0.243581 1.36892
0.335302 0.243326 1.47203
0.0450979 0.243053 1.31954
0.119656 0.242801 1.34915
0.188377 0.242551 1.37582
0.0987737 0.242303 1.32331
0.237742 0.242058 1.38507
0.00286077 0.241816 1.25989
-0.080153 0.241576 1.21063
0.156039 0.24137 1.32047
0.085732 0.241133 1.27755
0.0187571 0.2409 1.23628
0.0444302 0.240669 1.24131
0.237944 0.240465 1.32985
0.0486325 0.240238 1.22737
-0.0667874 0.240036 1.16147
-0.0607727 0.239812 1.15664
0.117803 0.239592 1.23806
0.0938022 0.239459 1.21681
-0.161836 0.239174 1.08219
-0.0553992 0.239047 1.1261
-0.00334393 0.238838 1.14416
-0.0283298 0.238641 1.12353
0.0826967 0.238444 1.17091
-0.0165081 0.23824 1.11332
-0.0753121 0.238044 1.07581
0.166072 0.237843 1.18848
0.0664305 0.237743 1.12902
-0.242798 0.237549 0.966311
0.0752307 0.237356 1.11724
-0.0616496 0.237163 1.04073
0.0338228 0.236974 1.08035
-0.106538 0.236878 1.00052
0.0352524 0.236598 1.06486
-0.0803057 0.23651 0.997316
0.0951847 0.236321 1.07702
-0.153427 0.236143 0.944498
7.25695e-05 0.236049 1.01163
-0.0414131 0.235781 0.984223
-0.170434 0.235703 0.909844
0.0487595 0.235517 1.01142
-0.0257361 0.23535 0.965849
-0.00421581 0.235258 0.967019
0.122915 0.235094 1.02222
-0.0423992 0.234934 0.931166
-0.0220757 0.234752 0.933326
0.0114212 0.234596 0.941631
-0.136618 0.234506 0.858049
-0.0354754 0.234354 0.900137
-0.0743226 0.234174 0.872727
-0.0667998 0.234027 0.867961
-0.0873494 0.233938 0.848143
-0.106672 0.233794 0.829914
-0.068796 0.233653 0.840239
-0.0530532 0.233477 0.840134
-0.153796 0.233428 0.779551
-0.0920781 0.233253 0.802439
-0.0849786 0.233121 0.797285
-0.0338338 0.232948 0.81489
0.0977876 0.232819 0.871948
-0.140177 0.232734 0.743459
0.0303675 0.232609 0.819934
-0.187335 0.232487 0.702238
-0.0984063 0.232318 0.738737
-0.195939 0.232285 0.679547
-0.0783588 0.232117 0.730374
-0.115941 0.232004 0.702641
-0.248358 0.231837 0.628469
-0.0324069 0.23181 0.725933
-0.125259 0.231645 0.671544
-0.0913619 0.23154 0.679451
-0.0618641 0.231376 0.686236
-0.064376 0.231356 0.674378
-0.125433 0.231193 0.635886
0.126222 0.231095 0.75257
0.0882962 0.231015 0.724141
0.034056 0.230921 0.687828
0.0585733 0.230761 0.692119
-0.000592166 0.230671 0.653289
-0.212476 0.230592 0.537889
-0.0112254 0.230505 0.629217
-0.0953685 0.230349 0.579171
-0.202759 0.230343 0.514648
-0.0948922 0.230188 0.560605
-0.121088 0.230109 0.538104
0.0399923 0.229955 0.610662
-0.0185977 0.229956 0.570448
0.0746618 0.229804 0.609091
-0.0262989 0.229731 0.549103
-0.120225 0.229656 0.492692
-0.0857707 0.229587 0.500362
0.0208789 0.229438 0.545688
-0.0901436 0.229373 0.480564
-0.204801 0.229299 0.41379
0.0304825 0.229237 0.521769
-0.0499548 0.229164 0.472105
-0.0853624 0.229032 0.446115
0.0140507 0.22896 0.486376
-0.0504264 0.228904 0.44437
-0.0406226 0.228833 0.439827
-0.127198 0.22871 0.388131
-0.174905 0.22873 0.353009
-0.115419 0.22859 0.374703
0.0714905 0.22852 0.458711
-0.206522 0.228404 0.311177
-0.16217 0.22843 0.321999
-0.0536308 0.228292 0.3682
-0.029725 0.228252 0.370137
-0.090699 0.228184 0.330194
0.00951152 0.228079 0.371604
-0.0736736 0.22811 0.318543
-0.183293 0.227977 0.255629
-0.150001 0.227944 0.262121
-0.181096 0.227878 0.237107
0.0178008 0.227848 0.326357
-0.0550633 0.227783 0.280455
0.0175419 0.227756 0.306516
-0.0894677 0.227666 0.24406
-0.0604029 0.227706 0.246952
-0.0367551 0.227642 0.249291
-0.162367 0.227621 0.176131
-0.0569924 0.227601 0.218431
0.0958124 0.227689 0.282179
0.0592762 0.227842 0.249902
0.448382 0.270116 1.68984
0.379405 0.268635 1.66265
0.284431 0.26773 1.61501
0.295768 0.26702 1.61802
0.343292 0.26639 1.63813
0.288295 0.265683 1.60806
0.385583 0.265175 1.65155
0.393559 0.264669 1.65039
0.354766 0.264241 1.62484
0.32318 0.26374 1.60393
0.180396 0.263243 1.5274
0.26092 0.262821 1.56156
0.401627 0.262331 1.62677
0.256008 0.26203 1.54628
0.196949 0.261548 1.51158
0.227528 0.261202 1.51988
0.232003 0.260842 1.51534
0.176921 0.260497 1.48084
0.197294 0.260144 1.48422
0.128606 0.259855 1.4422
0.202038 0.259513 1.47202
0.225928 0.259171 1.4771
0.0923803 0.258835 1.40339
0.206527 0.258549 1.45287
0.174205 0.25827 1.42903
0.248144 0.257944 1.45902
0.150633 0.257672 1.40255
0.0817858 0.257402 1.3604
0.275085 0.257135 1.44931
0.0984734 0.25687 1.35325
0.0770292 0.256579 1.33518
0.103464 0.256316 1.34067
0.0606051 0.256056 1.3115
0.00615161 0.255798 1.27651
0.0240747 0.255543 1.27769
0.0972951 0.255291 1.30651
0.0439208 0.255042 1.272
0.158085 0.254796 1.32125
-0.0135024 0.254579 1.2272
0.122792 0.254337 1.2875
0.033843 0.254097 1.23515
-0.010478 0.253883 1.20477
0.0291397 0.253647 1.21669
0.00259367 0.253415 1.19551
-0.0973628 0.253276 1.13622
0.254258 0.252973 1.30521
-0.00301078 0.252841 1.16721
0.171522 0.252621 1.24645
0.135502 0.252412 1.22028
-0.0262004 0.252196 1.13138
0.0861636 0.251987 1.17941
0.178419 0.25178 1.2174
0.121147 0.251569 1.1807
-0.0620565 0.251464 1.07941
-0.00469338 0.251156 1.10156
-0.0772904 0.251054 1.05555
0.0295698 0.250854 1.10082
-0.0501351 0.25065 1.05287
0.0682967 0.250454 1.10389
-0.043033 0.250353 1.03856
0.134103 0.250161 1.1189
0.0316273 0.249972 1.05941
-0.168984 0.249772 0.951035
0.00724451 0.249588 1.03086
-0.00545751 0.249488 1.01487
-0.0906992 0.249308 0.96392
-0.182374 0.24913 0.909717
0.0255154 0.248934 1.00562
0.124984 0.248762 1.04695
0.0800442 0.248664 1.01487
0.0391544 0.248495 0.985983
-0.105997 0.24833 0.904925
0.016259 0.248168 0.95753
-0.0626182 0.247977 0.910065
0.0356011 0.247914 0.949047
0.126253 0.247724 0.986355
-0.00847124 0.247571 0.910387
-0.13399 0.247476 0.838057
0.0345396 0.247327 0.913676
-0.0220719 0.247181 0.87668
0.0331504 0.246994 0.896284
-0.00988253 0.246853 0.866031
-0.147851 0.246668 0.789045
-0.0300534 0.246623 0.837617
-0.14337 0.246439 0.772961
0.0838491 0.246306 0.877744
-0.0751358 0.246215 0.788718
-0.0025839 0.246086 0.816123
-0.0521358 0.245959 0.782431
-0.0850277 0.24578 0.75799
-0.231147 0.245747 0.674438
-0.156935 0.245569 0.703552
-0.152387 0.245452 0.696815
0.064363 0.245363 0.795677
-0.0586086 0.245249 0.725134
-0.116522 0.245138 0.687074
