ply
format ascii 1.0
comment Created by Open3D
element vertex 1716
property double x
property double y
property double z
end_header
-0.169701 0.0495234 0.229449
-0.21366 0.0494932 0.199759
-0.231805 0.0494781 0.181546
-0.208633 0.0494527 0.184985
-0.235801 0.0494378 0.162259
-0.157689 0.0494082 0.193591
-0.163022 0.0493788 0.183195
-0.342282 0.0493641 0.084427
-0.248947 0.0493349 0.12336
-0.18444 0.0493204 0.146478
-0.237866 0.0492916 0.112025
-0.267937 0.0492629 0.0892438
-0.204652 0.0492486 0.111752
-0.170856 0.0492202 0.120898
-0.232768 0.049206 0.0808087
-0.162657 0.0491779 0.108106
-0.291485 0.0491639 0.03456
-0.30226 0.0491361 0.0214066
-0.232 0.0491085 0.048764
-0.206055 0.0490947 0.0526048
-0.242109 0.0490674 0.026797
-0.251365 0.0490537 0.0130375
-0.217872 0.0490267 0.021995
-0.206972 0.0490132 0.0183136
-0.188142 0.0489865 0.0199302
0.275957 0.0686354 1.37351
0.215445 0.0683765 1.34577
0.340942 0.0681914 1.40705
0.198361 0.0680583 1.33148
0.180356 0.0679255 1.31822
0.249205 0.0677931 1.34841
0.234339 0.0676613 1.33676
0.173107 0.0675811 1.29908
0.0944866 0.0674504 1.25557
0.073331 0.067371 1.23795
0.145412 0.0672418 1.26978
0.101407 0.0671632 1.24075
0.135002 0.067085 1.25052
0.135129 0.0669785 1.2452
0.0625295 0.0669011 1.20189
0.0184649 0.0668241 1.17284
0.0519731 0.0667476 1.18258
0.0245625 0.0666432 1.1635
0.0362966 0.0665677 1.16236
0.032613 0.0664927 1.1535
-0.00975742 0.0664182 1.12529
0.0411429 0.066362 1.14268
0.1239 0.0662883 1.17704
0.0526256 0.0662151 1.13438
-0.0319543 0.0661424 1.08505
-0.0247603 0.0660869 1.08064
-0.0199108 0.066015 1.07603
0.0565089 0.0659438 1.10719
-0.0155856 0.0658732 1.06409
0.0156117 0.0658183 1.07172
-0.0145304 0.0657485 1.04958
0.0217519 0.0656795 1.06064
-0.0860362 0.0656251 0.998807
-0.0846754 0.0655569 0.992399
-0.0888354 0.0654894 0.983211
0.00646951 0.0654356 1.02295
-0.0216879 0.0653953 1.00015
-0.0472177 0.0653423 0.979451
0.00137665 0.0652766 0.996614
-0.0700276 0.0652116 0.953753
-0.00985174 0.0651586 0.975966
-0.0790477 0.0650947 0.934191
-0.128372 0.0650532 0.900981
-0.0961913 0.0650007 0.90922
-0.0718864 0.064953 0.913241
-0.0923305 0.064891 0.8958
-0.072602 0.064839 0.897832
-0.0896171 0.0647873 0.8815
-0.0880656 0.0647357 0.874457
-0.0537721 0.0646922 0.883292
-0.0567067 0.064641 0.874017
-0.0769769 0.0645821 0.856585
-0.00934081 0.0645391 0.882104
-0.0340498 0.0645059 0.860844
-0.116033 0.0644482 0.81253
-0.145823 0.0643979 0.789855
-0.126305 0.0643478 0.791839
0.0166962 0.0643163 0.854377
-0.0118293 0.0642607 0.832725
-0.169664 0.0642112 0.746045
-0.113492 0.0641618 0.766374
-0.192023 0.0641182 0.718989
-0.156273 0.0640831 0.728207
-0.14021 0.0640299 0.728778
-0.123582 0.0639856 0.729069
-0.105874 0.0639571 0.728868
-0.0966654 0.0639053 0.725974
-0.233764 0.0638572 0.649692
-0.155466 0.0638332 0.679522
-0.125043 0.0637827 0.687194
-0.209674 0.0637352 0.637155
-0.13101 0.0636905 0.668593
-0.207131 0.0636623 0.621541
-0.165365 0.0636153 0.634709
-0.119019 0.0635703 0.650047
-0.184888 0.0635441 0.60803
-0.193594 0.0634976 0.595968
-0.143773 0.0634514 0.613173
-0.230078 0.063428 0.560773
-0.113839 0.0633822 0.611189
-0.254495 0.0633365 0.53316
-0.105367 0.0633137 0.598465
-0.152804 0.0632684 0.567053
-0.214589 0.0632232 0.528468
-0.117301 0.0632007 0.567867
-0.155228 0.0631558 0.541217
-0.164892 0.0631112 0.528701
-0.16012 0.0630898 0.521796
-0.148734 0.0630455 0.519804
-0.158378 0.0630014 0.507298
-0.20258 0.0629575 0.477514
-0.211582 0.0629374 0.463672
-0.20496 0.0628939 0.459299
-0.173126 0.0628722 0.466003
-0.126435 0.062829 0.481668
-0.146834 0.0627887 0.4636
-0.248292 0.0627673 0.403665
-0.126909 0.0627247 0.456674
-0.094774 0.0626823 0.465058
-0.160449 0.0626612 0.423026
-0.195292 0.0626228 0.397665
-0.200459 0.062581 0.387394
-0.257315 0.0625602 0.349777
-0.265282 0.0625187 0.338107
-0.203674 0.0624775 0.361224
-0.186876 0.0624569 0.360443
-0.215526 0.0624206 0.338095
-0.160831 0.0624003 0.356264
-0.190541 0.0623598 0.333717
-0.161476 0.0623195 0.340556
-0.17556 0.0622994 0.324344
-0.254972 0.0622594 0.276943
-0.203528 0.0622253 0.294551
-0.202454 0.0622056 0.285921
-0.248847 0.0621662 0.25502
-0.155115 0.0621466 0.292723
-0.290246 0.0621076 0.217452
-0.197569 0.0620688 0.256082
-0.280617 0.0620495 0.205401
-0.235037 0.0620111 0.220479
-0.211151 0.0619987 0.222762
-0.173369 0.0619606 0.233933
-0.189424 0.0619228 0.218181
-0.252439 0.061904 0.177521
-0.202348 0.0618665 0.194838
-0.195249 0.0618293 0.190655
-0.196509 0.0618107 0.180876
-0.214519 0.0617738 0.164135
-0.268311 0.0617555 0.128092
-0.276355 0.0617189 0.116329
-0.194551 0.0616826 0.149484
-0.222686 0.0616645 0.126272
-0.181058 0.0616367 0.138709
-0.224759 0.0616188 0.107712
-0.240332 0.0615833 0.0921608
-0.215081 0.0615479 0.0970154
-0.246497 0.0615304 0.0721627
-0.305898 0.0614954 0.0346848
-0.195526 0.061478 0.0807273
-0.240795 0.0614434 0.0503079
-0.207224 0.0614091 0.0593019
-0.201794 0.061392 0.0528733
-0.122116 0.061358 0.0849131
-0.145111 0.061341 0.0642724
-0.208866 0.0613074 0.0245871
-0.237448 0.0612907 0.00115286
-0.277442 0.0612574 -0.0266609
0.274871 0.0827588 1.3902
0.232643 0.0823882 1.37414
0.24541 0.0821391 1.38014
0.230875 0.0819168 1.37134
0.201728 0.0817571 1.35242
0.123464 0.0815978 1.30898
0.231181 0.0814392 1.35853
0.195968 0.0813426 1.3338
0.151727 0.0811852 1.30741
0.0694978 0.0810289 1.26201
0.15725 0.0809337 1.29879
0.17465 0.0808389 1.30041
0.0881668 0.0807098 1.25172
0.0661481 0.080616 1.23365
0.00835592 0.0805226 1.19769
0.103885 0.0803718 1.24114
0.0815001 0.0803029 1.22178
0.122889 0.0802111 1.23541
0.126658 0.0801199 1.23024
0.0918129 0.0800293 1.20576
-0.0125197 0.0799053 1.14817
-0.0100305 0.079816 1.14234
0.0775216 0.0797274 1.17904
0.0632508 0.0796394 1.16483
0.0178942 0.079572 1.13409
0.023027 0.079485 1.12958
0.0532823 0.0793987 1.13761
-0.0936813 0.0793131 1.05703
0.0115271 0.0792465 1.10162
-0.0364877 0.079162 1.07051
0.0569811 0.0790782 1.11012
-0.0700111 0.0789952 1.03949
-0.0583122 0.0789294 1.03737
0.00824528 0.0788475 1.0635
0.00843561 0.0787822 1.05565
0.0263637 0.078717 1.05667
-0.0234451 0.0786521 1.02383
-0.113866 0.0785891 0.970606
-0.0755883 0.0785101 0.982556
-0.0965989 0.0784458 0.964142
-0.0814802 0.078368 0.964496
-0.0794597 0.0782912 0.958275
-0.0916008 0.0782276 0.944319
-0.0238835 0.0781769 0.969641
-0.018912 0.0781203 0.963914
-0.143 0.0780458 0.894598
-0.0757739 0.077983 0.920355
-0.112009 0.0779097 0.894941
-0.0869391 0.0778579 0.899081
-0.0752159 0.0777957 0.897109
-0.137228 0.0777444 0.857714
-0.0588111 0.0776736 0.889574
-0.0464476 0.0776121 0.887936
-0.10061 0.0775597 0.852572
-0.0771515 0.077512 0.855782
-0.235749 0.0774437 0.769075
-0.0361766 0.0773831 0.861062
-0.0629157 0.0773227 0.8399
-0.12838 0.0772696 0.798997
-0.223919 0.077226 0.742567
-0.0982153 0.0771606 0.797945
-0.117375 0.0771066 0.78029
-0.127038 0.0770714 0.766386
-0.0548168 0.0770075 0.794989
-0.178503 0.0769486 0.725385
-0.124295 0.0768899 0.744731
-0.0178665 0.0768569 0.788803
-0.0703783 0.0767986 0.754797
-0.245956 0.0767377 0.659421
-0.165343 0.0766828 0.691829
-0.21481 0.0766492 0.65803
-0.0969952 0.0765919 0.709198
-0.172396 0.0765367 0.66366
-0.227826 0.0765054 0.62679
-0.112661 0.0764487 0.676642
-0.129289 0.0763923 0.6606
-0.154729 0.0763369 0.640112
-0.165221 0.0763081 0.625615
-0.14774 0.0762522 0.626639
-0.151915 0.0761966 0.616838
-0.15574 0.0761689 0.605648
-0.144268 0.076114 0.603658
-0.192172 0.076059 0.571998
-0.160343 0.0760317 0.578646
-0.166535 0.0759784 0.567772
-0.204739 0.0759241 0.540966
-0.0999609 0.0758971 0.5841
-0.235027 0.0758432 0.508868
-0.18511 0.075792 0.52599
-0.14673 0.0757653 0.535935
-0.133791 0.075712 0.534708
-0.212625 0.0756591 0.487596
-0.136683 0.0756361 0.516132
-0.164864 0.0755836 0.494345
-0.213397 0.0755314 0.462382
-0.107534 0.0755053 0.506091
-0.180243 0.075458 0.461776
-0.231985 0.0754064 0.428207
-0.185133 0.0753808 0.442417
-0.134534 0.0753296 0.460023
-0.211701 0.0752843 0.413408
-0.10396 0.075259 0.45807
-0.233121 0.0752085 0.385791
-0.23645 0.0751583 0.376428
-0.256746 0.0751333 0.357081
-0.149957 0.0750903 0.402369
-0.197797 0.0750408 0.370744
-0.2239 0.0750161 0.348499
-0.167879 0.0749671 0.368806
-0.134322 0.0749182 0.37788
-0.256615 0.0748939 0.307548
-0.153325 0.0748535 0.350997
-0.13079 0.0748294 0.353081
-0.240672 0.0747814 0.290429
-0.180555 0.0747337 0.312773
-0.231651 0.07471 0.278049
-0.202416 0.0746627 0.284952
-0.192096 0.0746156 0.282394
-0.197566 0.0746015 0.26991
-0.202871 0.074555 0.259533
-0.225683 0.0745318 0.238956
-0.163543 0.0744857 0.262299
-0.288752 0.0744398 0.191963
-0.187749 0.0744169 0.233299
-0.194458 0.0743715 0.222211
-0.19103 0.0743263 0.216187
-0.204599 0.0743038 0.200242
-0.194047 0.0742697 0.197094
-0.177986 0.0742475 0.195963
-0.0938337 0.0742032 0.230287
-0.249119 0.0741591 0.144887
-0.256386 0.0741372 0.132095
-0.158796 0.0740936 0.173128
-0.15935 0.0740719 0.163695
-0.245631 0.0740287 0.112787
-0.15041 0.0739858 0.152625
-0.218371 0.0739645 0.10949
-0.125964 0.073922 0.147915
-0.212252 0.0738798 0.0969865
-0.178119 0.0738588 0.1049
-0.156698 0.073817 0.107819
-0.204783 0.0737962 0.0746251
-0.197309 0.0737548 0.0705636
-0.220137 0.0737137 0.0513441
-0.175693 0.0736933 0.0644147
-0.195243 0.0736527 0.0468262
-0.209258 0.0736324 0.0306673
-0.216753 0.0735922 0.0190986
-0.173205 0.0735722 0.031721
-0.1762 0.0735324 0.0223931
0.342485 0.0965541 1.44749
0.194951 0.0961918 1.37596
0.247383 0.0959322 1.40051
0.233117 0.0957453 1.38895
0.190318 0.0955588 1.36315
0.302247 0.0953729 1.41473
0.201646 0.0951877 1.36007
0.109002 0.0950035 1.30939
0.138786 0.0948205 1.31993
0.111917 0.0947089 1.29934
0.169507 0.0945569 1.32263
0.0793137 0.0944463 1.27041
0.109555 0.0943362 1.27841
0.107599 0.0941582 1.27306
0.151945 0.0940497 1.28811
0.104409 0.0939418 1.25723
0.141661 0.0937942 1.27037
0.0234292 0.0936877 1.20413
0.0557214 0.0935819 1.21316
-0.0108795 0.0935017 1.17171
0.126653 0.0933968 1.23337
0.0518762 0.0932927 1.18887
-0.0355258 0.0931735 1.1387
0.00641874 0.0930471 1.15352
0.0957341 0.0929455 1.19104
0.0719588 0.0928447 1.17201
0.0916779 0.0927662 1.17381
0.00718017 0.0926665 1.12441
-0.0146563 0.0925678 1.10633
0.077988 0.0924699 1.14548
-0.161232 0.0923924 1.01786
0.00282712 0.0922958 1.0927
0.074922 0.0922187 1.12076
-0.0495587 0.0921419 1.05054
-0.00852285 0.0920652 1.06308
-0.00798332 0.0919908 1.05531
-0.0568165 0.0918975 1.02367
-0.0476171 0.0918054 1.02102
-0.0698697 0.0917297 1.00196
-0.0588493 0.0916389 1.00021
-0.0732803 0.0915492 0.985707
-0.0224838 0.0914889 1.00256
-0.0837017 0.0914142 0.964048
-0.0202467 0.0913489 0.987481
-0.040653 0.0912618 0.969953
-0.0849138 0.0911879 0.93994
-0.0769009 0.0911024 0.936598
-0.0112417 0.091029 0.961559
-0.0505742 0.0909676 0.93351
-0.075272 0.0909085 0.912693
-0.104511 0.0908258 0.890673
-0.07147 0.0907534 0.89935
-0.085573 0.0906813 0.884462
0.0106498 0.0906094 0.924744
-0.0757035 0.0905565 0.872898
-0.0783914 0.0904851 0.863733
-0.0789152 0.090414 0.855656
-0.142236 0.0903431 0.816187
-0.131438 0.0903008 0.812492
-0.163407 0.0902244 0.788986
-0.100819 0.0901543 0.812484
-0.043638 0.0900845 0.833284
-0.110649 0.0900447 0.790619
-0.192152 0.0899713 0.742272
-0.215771 0.0899023 0.722681
-0.13591 0.0898374 0.754659
-0.0561719 0.0897964 0.785476
-0.0851338 0.0897281 0.763226
-0.122654 0.0896601 0.736703
-0.145423 0.089595 0.717437
-0.0920992 0.0895569 0.734957
-0.168507 0.0894889 0.689034
-0.15138 0.0894226 0.689815
-0.156793 0.0893887 0.677807
-0.14041 0.0893222 0.678255
-0.135459 0.0892559 0.67299
-0.150001 0.0891899 0.657983
-0.160013 0.089157 0.643669
-0.183443 0.0890923 0.624188
-0.255993 0.0890271 0.580183
-0.16694 0.0889946 0.615415
-0.141293 0.0889317 0.620423
-0.200452 0.0888673 0.583119
-0.203259 0.0888031 0.573994
-0.0904318 0.0887711 0.62113
-0.166701 0.0887106 0.575124
-0.172604 0.0886472 0.564454
-0.19477 0.0886157 0.544106
-0.153827 0.0885571 0.55665
-0.175106 0.0884945 0.538294
-0.142924 0.0884634 0.54513
-0.147601 0.0884012 0.535081
-0.153933 0.088345 0.523925
-0.142677 0.0883143 0.520306
-0.157032 0.0882529 0.505419
-0.100999 0.0881987 0.525384
-0.211836 0.0881684 0.460727
-0.223281 0.0881079 0.447294
-0.261191 0.0880477 0.420628
-0.194815 0.0880177 0.44459
-0.11608 0.087966 0.475835
-0.192477 0.0879067 0.429923
-0.232977 0.0878771 0.400454
-0.182603 0.0878181 0.41793
-0.226313 0.0877888 0.386862
-0.166768 0.0877398 0.408437
-0.082429 0.0876817 0.442891
-0.101952 0.0876239 0.425412
-0.11335 0.0875951 0.410509
-0.229634 0.0875377 0.344651
-0.175905 0.08752 0.361753
-0.179162 0.0874632 0.352403
-0.189779 0.0874067 0.339371
-0.119224 0.0873786 0.365454
-0.185702 0.0873226 0.324492
-0.189387 0.0872668 0.314924
-0.145556 0.0872514 0.327004
-0.208868 0.0871962 0.287615
-0.215013 0.0871413 0.276807
-0.222382 0.087114 0.263938
-0.252422 0.0870596 0.241181
-0.147853 0.0870055 0.285726
-0.262314 0.0869786 0.219316
-0.261043 0.0869388 0.211467
-0.146568 0.0869121 0.259525
-0.224098 0.0868591 0.213008
-0.266244 0.0868063 0.18418
-0.188485 0.0867801 0.213885
-0.182627 0.0867278 0.209054
-0.19293 0.0866759 0.19614
-0.216815 0.08665 0.175027
-0.152399 0.0865985 0.199468
-0.157239 0.0865729 0.18788
-0.173962 0.0865375 0.170892
-0.239575 0.0864869 0.130302
-0.229085 0.0864618 0.126377
-0.225477 0.0864117 0.120392
-0.169004 0.0863619 0.140833
-0.235951 0.0863371 0.0981921
-0.249243 0.0862879 0.0837457
-0.190943 0.0862633 0.103729
-0.215191 0.0862146 0.0837984
-0.268085 0.0861661 0.0495379
-0.215082 0.086142 0.0668736
-0.183729 0.086094 0.0747302
-0.246455 0.0860702 0.0342023
-0.24136 0.0860227 0.0289223
-0.230392 0.0859755 0.026571
-0.245862 0.0859521 0.00967076
-0.197883 0.0859055 0.025817
-0.257145 0.0858823 -0.012979
-0.250078 0.0858361 -0.0172973
0.331632 0.110961 1.45693
0.255923 0.110468 1.42375
0.345318 0.110053 1.4706
0.223367 0.109756 1.40789
0.2399 0.109543 1.41167
0.248474 0.10933 1.41149
0.1543 0.109117 1.35996
0.239001 0.108906 1.39787
0.105795 0.108777 1.32406
0.142609 0.108568 1.33804
0.174043 0.108393 1.34819
0.18855 0.108266 1.34826
0.153832 0.108061 1.32647
0.21664 0.107936 1.3507
0.0462838 0.107811 1.25835
0.0546658 0.10764 1.257
0.0942421 0.107517 1.26963
0.135887 0.107395 1.28329
0.0840422 0.107273 1.2502
0.0678147 0.107106 1.23655
0.0746547 0.106986 1.2328
0.012154 0.106867 1.19438
0.119364 0.106748 1.2408
0.0215668 0.106657 1.18377
0.0215563 0.10654 1.17659
-0.00892607 0.106424 1.15417
0.0897415 0.106309 1.1963
0.0659297 0.106219 1.17632
0.0231176 0.106105 1.14772
-0.0526917 0.105992 1.1026
0.0094172 0.10588 1.12643
0.0171542 0.105791 1.12227
0.0416949 0.105681 1.12731
0.0513912 0.105571 1.12491
0.0276857 0.105483 1.10505
-0.032428 0.105375 1.06774
-0.0156297 0.105269 1.06886
-0.127722 0.105181 1.00484
-0.0896946 0.105076 1.01656
-0.00678123 0.104972 1.0507
0.0229056 0.104886 1.05759
-0.0433129 0.104799 1.01654
-0.030816 0.104713 1.01486
-0.128018 0.10464 0.957886
-0.0528427 0.10454 0.988095
-0.0946337 0.104455 0.959289
-0.0444946 0.104357 0.976957
-0.0790154 0.104285 0.951303
-0.0943951 0.104201 0.935728
-0.11532 0.104134 0.916719
-0.0838709 0.10404 0.924992
-0.0458102 0.103956 0.936153
-0.111313 0.103873 0.89554
-0.101355 0.10379 0.892665
-0.0676415 0.103708 0.901675
-0.103693 0.103648 0.874905
-0.0401915 0.103559 0.899114
-0.119737 0.103485 0.851212
-0.102068 0.103403 0.852222
-0.0635341 0.103349 0.862599
-0.0905121 0.103263 0.841501
-0.149783 0.103188 0.803843
-0.0702405 0.103108 0.835808
-0.118541 0.103059 0.802613
-0.0921987 0.102979 0.807983
-0.123981 0.1029 0.784295
-0.145838 0.102821 0.765576
-0.166047 0.102777 0.746263
-0.0394628 0.102699 0.801766
-0.0828347 0.102621 0.772297
-0.161942 0.102544 0.724914
-0.119188 0.102504 0.736991
-0.186647 0.102427 0.695489
-0.128034 0.10235 0.717029
-0.117873 0.102311 0.712763
-0.107606 0.102235 0.710139
-0.114215 0.102159 0.699082
-0.174835 0.102084 0.660961
-0.110011 0.102047 0.684048
-0.167753 0.101971 0.647433
-0.229029 0.101899 0.608936
-0.179524 0.101862 0.624377
-0.175323 0.101787 0.618739
-0.181299 0.101717 0.607842
-0.223656 0.101644 0.578924
-0.164741 0.101607 0.599088
-0.134335 0.101539 0.606329
-0.141004 0.101466 0.59526
-0.193011 0.10143 0.559974
-0.174252 0.101365 0.561335
-0.157844 0.101293 0.561808
-0.174438 0.101257 0.544239
-0.106901 0.101186 0.570282
-0.162568 0.101123 0.534367
-0.196229 0.101087 0.508274
-0.237831 0.101017 0.479749
-0.196609 0.100956 0.492218
-0.117576 0.100921 0.52248
-0.20327 0.100852 0.471908
-0.193277 0.100783 0.46918
-0.143657 0.100748 0.484748
-0.199047 0.100691 0.44884
-0.170972 0.100622 0.455151
-0.193086 0.100554 0.436366
-0.257393 0.100521 0.394982
-0.162846 0.100466 0.433969
-0.187505 0.100432 0.412411
-0.201665 0.100365 0.397602
-0.217116 0.100299 0.382147
-0.164173 0.100266 0.3994
-0.171903 0.100214 0.38717
-0.108747 0.100148 0.411012
-0.149975 0.100116 0.381184
-0.145766 0.100051 0.375553
-0.228509 0.0999861 0.326446
-0.212063 0.0999696 0.324747
-0.175594 0.0999056 0.335238
-0.159335 0.0998419 0.335623
-0.165589 0.0998102 0.323293
-0.178804 0.0997471 0.30894
-0.168424 0.0996843 0.306382
-0.178007 0.0996703 0.291593
-0.168011 0.0996081 0.288834
-0.158489 0.0995463 0.285835
-0.216475 0.0995156 0.247648
-0.145018 0.0994543 0.275615
-0.187346 0.0993934 0.246687
-0.268763 0.099363 0.196789
-0.185711 0.0993217 0.229649
-0.249863 0.0992917 0.188383
-0.158653 0.099232 0.226211
-0.176364 0.0991726 0.209573
-0.187189 0.0991431 0.194974
-0.129392 0.0990842 0.216087
-0.20013 0.0990258 0.172928
-0.232766 0.0989967 0.147428
-0.193181 0.0989387 0.159426
-0.157777 0.0988812 0.169328
-0.145087 0.0988525 0.166493
-0.134712 0.0987955 0.163876
-0.170466 0.0987672 0.136821
-0.14727 0.0987321 0.139574
-0.141098 0.0986761 0.134835
-0.20159 0.0986482 0.0954077
-0.0981751 0.0985928 0.139285
-0.135928 0.0985378 0.112572
-0.179717 0.0985104 0.0814967
-0.13548 0.0984559 0.0957717
-0.141502 0.0984288 0.0835805
-0.150163 0.0983749 0.071399
-0.178634 0.0983214 0.0493052
-0.0890277 0.0982947 0.0849282
-0.121947 0.0982418 0.0606023
-0.199022 0.0982154 0.0128844
-0.159044 0.098163 0.024998
0.329994 0.124838 1.47958
0.278772 0.124374 1.45589
0.290568 0.123946 1.46269
0.316212 0.123705 1.47092
0.277742 0.123372 1.44992
0.177503 0.123132 1.39526
0.259463 0.122986 1.42895
0.220647 0.122748 1.40505
0.230024 0.12255 1.40409
0.150302 0.122315 1.35974
0.131301 0.122171 1.34301
0.226916 0.121939 1.38631
0.171916 0.121797 1.35159
0.183951 0.121656 1.35038
0.133895 0.121463 1.31976
0.129783 0.121323 1.31049
0.0874196 0.121185 1.2821
0.0634604 0.120995 1.26454
0.137638 0.120858 1.29442
0.117284 0.120722 1.27702
0.114683 0.120587 1.26851
0.110976 0.120453 1.25943
0.0332009 0.120268 1.21494
0.0439184 0.120136 1.21307
0.0562496 0.120006 1.21199
-0.0150823 0.119903 1.1682
0.115399 0.119774 1.22619
0.046261 0.119646 1.18437
-0.0258708 0.119518 1.14103
-0.0619756 0.119417 1.1149
0.0984811 0.119292 1.18786
0.0539022 0.119167 1.15828
-0.0137346 0.119044 1.11716
0.0133971 0.118944 1.12269
0.0444592 0.118823 1.1309
-0.0369076 0.118703 1.08288
-0.0208875 0.118604 1.08289
-0.118273 0.118505 1.0262
-0.0630335 0.118407 1.04583
-0.0479804 0.118289 1.04603
-0.0501069 0.118191 1.03699
0.0138839 0.118107 1.06059
0.0332588 0.117993 1.06288
-0.0775088 0.117896 0.999546
-0.0570495 0.117785 1.00235
-0.0873337 0.117688 0.979276
0.0328329 0.117593 1.03144
-0.0713566 0.117497 0.97143
-0.0487012 0.117423 0.974134
-0.00484179 0.117316 0.988561
-0.0207847 0.117222 0.972692
-0.112212 0.117127 0.91909
-0.103345 0.117033 0.915643
-0.20961 0.11694 0.854638
-0.108871 0.116874 0.896187
-0.100931 0.116773 0.892566
-0.0931183 0.116688 0.888343
-0.0605351 0.116596 0.896785
0.0389941 0.116536 0.937586
-0.0883365 0.116439 0.866263
-0.0516567 0.116348 0.876762
-0.172869 0.116262 0.808145
-0.0684593 0.116208 0.851233
-0.0788062 0.116115 0.838329
-0.130279 0.116025 0.804769
-0.140407 0.115938 0.791803
-0.0098634 0.115848 0.849268
-0.167845 0.1158 0.760994
-0.183103 0.115712 0.745561
-0.152857 0.115623 0.752885
-0.146116 0.115579 0.746873
-0.110295 0.115492 0.756996
-0.149841 0.115405 0.729416
-0.122335 0.115318 0.735387
-0.0866466 0.115274 0.74387
-0.145905 0.11519 0.70639
-0.13563 0.115104 0.703755
-0.128915 0.115061 0.697767
-0.0793037 0.114979 0.714675
-0.150009 0.114894 0.671558
-0.0121482 0.114814 0.73254
-0.163738 0.114772 0.647416
-0.139428 0.114688 0.651814
-0.150863 0.114611 0.638097
-0.147432 0.114528 0.632055
-0.171642 0.114486 0.610639
-0.147097 0.114411 0.61486
-0.178015 0.114329 0.591648
-0.0421152 0.114288 0.650298
-0.143814 0.114216 0.591341
-0.183268 0.114135 0.563865
-0.0837746 0.114094 0.604322
-0.185188 0.114013 0.545873
-0.184217 0.113944 0.538188
-0.215664 0.113864 0.514719
-0.138469 0.113825 0.544041
-0.167414 0.113758 0.521338
-0.185811 0.113679 0.504393
-0.121911 0.11364 0.527077
-0.194725 0.113562 0.48293
-0.194979 0.113498 0.474502
-0.216547 0.113459 0.454459
-0.255936 0.113382 0.427022
-0.173953 0.113305 0.460271
-0.207294 0.113283 0.433725
-0.199141 0.113207 0.430055
-0.127073 0.113131 0.458343
-0.209585 0.113093 0.407846
-0.102116 0.113036 0.453137
-0.190075 0.112961 0.401406
-0.156175 0.112924 0.409121
-0.148663 0.11285 0.405127
-0.223796 0.112776 0.359811
-0.17844 0.112758 0.372484
-0.165628 0.112685 0.371134
-0.122183 0.112613 0.385098
-0.224763 0.112577 0.324586
-0.155592 0.112504 0.351414
-0.153869 0.112454 0.343656
-0.217446 0.112418 0.302648
-0.195213 0.112347 0.305998
-0.194125 0.112277 0.298773
-0.20448 0.112241 0.284382
-0.146409 0.112171 0.305648
-0.242532 0.112125 0.248865
-0.184849 0.11209 0.268495
-0.200649 0.112021 0.252813
-0.20295 0.111953 0.243877
-0.295051 0.111919 0.18862
-0.208314 0.111851 0.224202
-0.157709 0.111783 0.241713
-0.254933 0.11175 0.1839
-0.171379 0.111683 0.217883
-0.204342 0.111674 0.191146
-0.259837 0.111608 0.155593
-0.168665 0.111543 0.193369
-0.176097 0.11151 0.180454
-0.225657 0.111445 0.14786
-0.167022 0.11138 0.169358
-0.207484 0.111348 0.139931
-0.205951 0.111284 0.132874
-0.198574 0.11122 0.128733
-0.143895 0.111188 0.146879
-0.152356 0.111125 0.134814
-0.0670778 0.111062 0.169612
-0.243307 0.111031 0.0723057
-0.19404 0.110969 0.0890924
-0.115623 0.110966 0.117902
-0.228973 0.110905 0.0533653
-0.118064 0.110844 0.100951
-0.151911 0.110813 0.0748314
-0.261688 0.110753 0.012067
-0.177423 0.110693 0.0463164
-0.157606 0.110664 0.0470285
-0.218808 0.110604 0.00853632
-0.179067 0.110575 0.0192103
-0.193805 0.110516 0.00394149
0.334457 0.138864 1.50144
0.277201 0.138346 1.47465
0.177242 0.137974 1.42273
0.26785 0.137603 1.46615
0.332727 0.137336 1.49397
0.203365 0.13707 1.4247
0.20256 0.136847 1.41857
0.318103 0.136583 1.47178
0.183249 0.136422 1.39705
0.17564 0.136161 1.38868
0.171013 0.136001 1.37909
0.179567 0.135744 1.37879
0.136797 0.135586 1.35013
0.166697 0.13537 1.35944
0.0192143 0.135214 1.27843
0.175851 0.135001 1.35111
0.0850917 0.134847 1.29848
0.157057 0.134694 1.3272
0.0616382 0.134542 1.27223
0.0545236 0.134332 1.26304
0.0403712 0.134183 1.2487
0.108219 0.134034 1.27535
0.0763857 0.133886 1.25216
0.0127041 0.13374 1.21304
0.103131 0.133595 1.25096
0.0451637 0.13348 1.21382
0.10007 0.133309 1.23477
0.0547865 0.133166 1.20485
0.0538934 0.133024 1.19711
0.0584599 0.132884 1.19208
0.0661278 0.132771 1.18783
0.0518897 0.132632 1.1734
-0.0769242 0.132495 1.10167
-0.0132902 0.132383 1.12543
-0.0621996 0.132247 1.09364
0.0185362 0.132136 1.12597
-0.0708745 0.132036 1.07294
-0.0624757 0.131904 1.06974
-0.028274 0.131774 1.07943
-0.124872 0.131665 1.02313
0.0109269 0.131537 1.08359
-0.083293 0.131411 1.02902
-0.0194178 0.131302 1.05298
-0.0612323 0.131194 1.0241
-0.110369 0.131086 0.991578
0.0322577 0.130979 1.05494
-0.0173188 0.130895 1.02152
-0.0798703 0.130775 0.982717
-0.0595837 0.130656 0.985304
-0.0419033 0.13055 0.986219
-0.00609004 0.130457 0.995841
0.0353679 0.130381 1.00774
0.00853852 0.130267 0.986719
-0.0037779 0.130162 0.972661
-0.0754646 0.130058 0.928927
-0.0696554 0.129954 0.923948
-0.192805 0.129851 0.854497
-0.104857 0.129785 0.889435
0.0158328 0.129677 0.942074
-0.0835824 0.129575 0.8845
-0.0722827 0.129478 0.882137
-0.127227 0.129419 0.845477
-0.110488 0.129315 0.846069
-0.0209803 0.129215 0.882975
-0.105339 0.129116 0.832892
-0.126482 0.129064 0.812972
-0.14889 0.128964 0.793934
-0.0297331 0.128865 0.845686
-0.0934568 0.128766 0.806003
-0.0980022 0.128667 0.795915
-0.144467 0.128618 0.763283
-0.175027 0.128521 0.740152
-0.172914 0.128424 0.733405
-0.128816 0.128378 0.745975
-0.194928 0.128281 0.705122
-0.115796 0.128189 0.736748
-0.11713 0.128093 0.728287
-0.0780118 0.127997 0.740057
-0.146953 0.127956 0.696025
-0.134226 0.127861 0.694603
-0.06248 0.127814 0.721125
-0.178245 0.127727 0.655208
-0.124196 0.127633 0.674455
-0.13965 0.127549 0.658639
-0.164172 0.127503 0.637043
-0.0998735 0.12741 0.661421
-0.164197 0.127329 0.621118
-0.173117 0.127237 0.608886
-0.213917 0.127191 0.579168
-0.106269 0.127112 0.624795
-0.136321 0.127022 0.602001
-0.121484 0.126977 0.600113
-0.125464 0.126887 0.590362
-0.246106 0.126811 0.521782
-0.188249 0.126722 0.542946
-0.0571983 0.126678 0.599179
-0.2219 0.126605 0.508508
-0.079157 0.126517 0.572117
-0.224467 0.126474 0.490178
-0.166413 0.126404 0.510823
-0.115035 0.126317 0.528748
-0.181702 0.126274 0.486138
-0.0372553 0.126188 0.550602
-0.198001 0.126122 0.461776
-0.216107 0.126079 0.443454
-0.114409 0.125994 0.486541
-0.0904556 0.125909 0.490756
-0.120434 0.125888 0.465745
-0.222964 0.125805 0.406714
-0.108894 0.125721 0.455982
-0.159823 0.125638 0.422751
-0.170266 0.12562 0.407444
-0.0697923 0.125538 0.449908
-0.125386 0.125456 0.414338
-0.231492 0.125415 0.35204
-0.106705 0.125334 0.406662
-0.2066 0.125278 0.348023
-0.177867 0.125238 0.353149
-0.0908515 0.125158 0.388876
-0.187187 0.125078 0.332927
-0.0948042 0.125039 0.369885
-0.198139 0.124987 0.309438
-0.121266 0.124909 0.340082
-0.168666 0.12487 0.307151
-0.162527 0.124792 0.302429
-0.144039 0.124715 0.303877
-0.257863 0.124676 0.237741
-0.142921 0.124599 0.287416
-0.143394 0.124553 0.278283
-0.238096 0.124515 0.221708
-0.20595 0.124439 0.229972
-0.201351 0.124364 0.224458
-0.169665 0.124327 0.231082
-0.134087 0.124253 0.241056
-0.171182 0.124179 0.214688
-0.190473 0.124142 0.195829
-0.209571 0.124101 0.177254
-0.170775 0.124028 0.188816
-0.148542 0.123992 0.190717
-0.17745 0.12392 0.168422
-0.212292 0.123848 0.143156
-0.215193 0.123813 0.132492
-0.262112 0.123742 0.101183
-0.216672 0.123707 0.114692
-0.239052 0.123637 0.0956475
-0.188351 0.123567 0.113137
-0.214408 0.123532 0.0908994
-0.261224 0.123463 0.0596251
-0.147153 0.123395 0.108788
-0.215004 0.123361 0.0656545
-0.0997156 0.123293 0.115419
-0.201358 0.123259 0.0553912
-0.164659 0.123227 0.0644827
-0.200803 0.12316 0.0385087
-0.210126 0.123094 0.0259382
-0.140743 0.123062 0.051416
-0.197545 0.122996 0.0150978
-0.109825 0.122964 0.0497438
-0.197863 0.122899 -0.00220095
0.382289 0.153035 1.54229
0.313846 0.152465 1.50981
0.30993 0.152056 1.50583
0.263996 0.151647 1.4809
0.231144 0.151353 1.45979
0.238362 0.151107 1.4576
0.235099 0.150816 1.45133
0.237796 0.150525 1.44805
0.176985 0.150237 1.41301
0.0738196 0.15006 1.35408
0.158242 0.149819 1.39058
0.139388 0.149644 1.37383
0.199351 0.149363 1.39918
0.214898 0.14919 1.39963
0.179572 0.148954 1.37628
0.121231 0.148783 1.3398
0.13625 0.148614 1.34
0.120944 0.14842 1.32568
0.110373 0.148214 1.31407
0.136803 0.148048 1.31998
0.100178 0.147883 1.29435
0.0766755 0.14772 1.27529
0.121139 0.147529 1.29093
0.00876094 0.147333 1.2283
0.0711697 0.147173 1.25216
-0.00121638 0.147015 1.20861
0.110209 0.146889 1.25616
-0.0749585 0.146733 1.15623
0.0518291 0.146578 1.21226
0.048415 0.146425 1.20317
0.0684628 0.1463 1.20508
-0.035788 0.146149 1.14557
0.0151786 0.145999 1.16365
0.0028918 0.145851 1.15008
-0.0159183 0.145728 1.1326
-0.0149704 0.145581 1.12564
0.0958403 0.145437 1.1736
-0.0865494 0.145315 1.07436
-0.0724935 0.145173 1.07392
-0.0479542 0.145052 1.07816
-0.0476164 0.144931 1.07032
-0.0481379 0.144811 1.06205
-0.0224961 0.144671 1.0674
-0.00596931 0.144576 1.06701
-0.0629446 0.144442 1.03097
-0.0439032 0.144323 1.03251
-0.069793 0.144191 1.01199
-0.00290679 0.144073 1.03747
-0.109352 0.143955 0.976297
0.0279711 0.143838 1.03702
-0.0787372 0.143756 0.974761
-0.0988819 0.14363 0.957026
-0.0831701 0.143515 0.956954
-0.0515775 0.143399 0.964831
-0.0948441 0.143284 0.935286
-0.0879096 0.14317 0.93085
-0.114839 0.143098 0.908277
-0.118703 0.142984 0.898448
-0.148505 0.142871 0.875659
-0.161978 0.142758 0.861042
-0.152143 0.142694 0.856701
-0.0995841 0.14258 0.875155
-0.00658488 0.142468 0.913781
-0.0445108 0.142358 0.886912
-0.0633571 0.142301 0.868071
-0.206882 0.14219 0.788457
-0.153217 0.14208 0.807444
-0.141965 0.141971 0.805213
-0.106687 0.141861 0.815014
-0.141592 0.141809 0.788073
-0.160966 0.1417 0.770555
-0.140875 0.141596 0.772661
-0.0692638 0.141488 0.800641
-0.106755 0.141434 0.772492
-0.136575 0.141333 0.7496
-0.0995623 0.141226 0.760291
-0.122084 0.14118 0.739425
-0.146437 0.141075 0.719439
-0.111492 0.140978 0.728837
-0.103907 0.140873 0.724822
-0.01629 0.140769 0.760828
-0.146428 0.140728 0.686068
-0.0396612 0.140624 0.731652
-0.11075 0.140573 0.686751
-0.0867269 0.140482 0.690588
-0.116995 0.14038 0.667662
-0.0993294 0.140292 0.668265
-0.132547 0.140241 0.642313
-0.136549 0.14014 0.632525
-0.133944 0.140056 0.625543
-0.167398 0.139956 0.601027
-0.191553 0.139906 0.579624
-0.147098 0.139824 0.59351
-0.0823964 0.139725 0.618075
-0.139325 0.139676 0.580294
-0.14865 0.139578 0.567853
-0.1398 0.1395 0.563872
-0.0747945 0.139403 0.588592
-0.125476 0.139354 0.553949
-0.141031 0.139279 0.537703
-0.112088 0.139183 0.544392
-0.162836 0.139136 0.509724
-0.12581 0.139064 0.519705
-0.18488 0.138969 0.482385
-0.200596 0.138922 0.465241
-0.186611 0.138828 0.464454
-0.104843 0.13876 0.496732
-0.0544645 0.138714 0.512641
-0.222516 0.138621 0.420832
-0.142004 0.138529 0.453305
-0.126866 0.138464 0.452191
-0.118216 0.138419 0.447245
-0.141596 0.138328 0.427766
-0.215379 0.138237 0.383086
-0.142193 0.138222 0.409448
-0.195088 0.138132 0.375205
-0.181219 0.138043 0.374343
-0.0737607 0.137998 0.418815
-0.0906592 0.13791 0.402571
-0.144549 0.137853 0.366778
-0.256574 0.13781 0.301511
-0.187887 0.137722 0.328051
-0.167712 0.137636 0.330332
-0.169302 0.137593 0.32029
-0.20255 0.13754 0.294728
-0.165073 0.137455 0.30565
-0.0816017 0.13737 0.339566
-0.235855 0.137328 0.253196
-0.162613 0.137243 0.281998
-0.26393 0.137202 0.2221
-0.160821 0.137154 0.26461
-0.185102 0.137071 0.244636
-0.172474 0.136989 0.243113
-0.0636275 0.136948 0.288299
-0.204382 0.136866 0.210083
-0.231709 0.136785 0.188577
-0.194421 0.136744 0.197987
-0.257375 0.136702 0.157341
-0.155318 0.136623 0.20051
-0.159027 0.136583 0.18942
-0.20088 0.136504 0.160631
-0.178807 0.136425 0.1638
-0.169833 0.136386 0.159055
-0.1513 0.136308 0.16045
-0.19971 0.136231 0.128368
-0.209373 0.136192 0.114308
-0.160139 0.136116 0.131042
-0.130574 0.13604 0.137937
-0.125195 0.136002 0.131399
-0.128156 0.135927 0.122026
-0.164766 0.135852 0.0958206
-0.117222 0.135856 0.108885
-0.170649 0.135782 0.0742556
-0.213525 0.135709 0.0448958
-0.185378 0.135672 0.049737
-0.201294 0.135599 0.0338496
-0.175104 0.135563 0.037713
-0.167862 0.135491 0.033397
-0.195733 0.13542 0.0115173
-0.157363 0.135385 0.02147
-0.145246 0.135314 0.0195753
0.3105 0.16726 1.52338
0.352223 0.166638 1.54588
0.314503 0.166191 1.52492
0.324895 0.165869 1.52534
0.234495 0.165476 1.47699
0.240554 0.165156 1.4753
0.163741 0.164837 1.43219
0.206397 0.16452 1.44882
0.220495 0.164255 1.45008
0.135314 0.164013 1.40118
0.187048 0.16375 1.42128
0.124108 0.163559 1.38245
0.211011 0.163252 1.42119
0.23682 0.163064 1.42673
0.154842 0.162806 1.38
0.133412 0.16262 1.36193
0.172593 0.162435 1.37416
0.186821 0.162181 1.37554
0.0952432 0.161998 1.3224
0.0259487 0.161817 1.28039
0.14848 0.161607 1.33501
0.135699 0.16139 1.32216
0.0565663 0.161213 1.27522
0.0224656 0.161037 1.25079
0.0779754 0.160863 1.27115
0.0930924 0.160691 1.27131
0.120036 0.160553 1.27659
0.0382861 0.160383 1.22831
0.119611 0.160209 1.26166
0.0135204 0.16004 1.20124
0.021983 0.159872 1.19808
0.0544646 0.159706 1.20691
0.0852018 0.159542 1.21486
0.0912124 0.159406 1.20976
0.0193998 0.159244 1.16642
-0.0313438 0.159126 1.13258
0.00943474 0.15895 1.14591
-0.00456003 0.158834 1.1304
0.0214025 0.158679 1.13587
0.0309296 0.158526 1.13309
0.0257335 0.158374 1.12293
-0.0559373 0.158243 1.07406
0.0308195 0.158111 1.10942
-0.0428061 0.157963 1.06503
0.0336644 0.157832 1.09526
-0.0956181 0.157702 1.02262
-0.0294312 0.157607 1.04687
-0.0538894 0.157465 1.02698
-0.0694921 0.157336 1.0112
-0.0581752 0.157196 1.00918
0.0324854 0.157069 1.04655
-0.0756124 0.156941 0.984544
-0.0183425 0.156814 1.00523
-0.0885698 0.156734 0.961013
-0.0241713 0.156601 0.98544
-0.0344976 0.156476 0.972343
-0.0597323 0.156351 0.951801
-0.0380897 0.156226 0.954705
-0.0631798 0.156102 0.934252
-0.0578262 0.156033 0.927601
-0.0304867 0.155909 0.933368
-0.0990441 0.155786 0.891194
-0.0792299 0.155664 0.893213
-0.0151366 0.155602 0.915796
-0.0929391 0.15548 0.869016
-0.0996943 0.15536 0.857735
-0.0545311 0.155239 0.872446
-0.0464596 0.155179 0.867026
-0.111901 0.155062 0.826365
-0.0682301 0.154942 0.840345
-0.189183 0.154828 0.771885
-0.0967287 0.15471 0.810262
-0.101062 0.154657 0.798486
-0.0636436 0.15454 0.809353
-0.0735169 0.154431 0.796346
-0.0328015 0.154314 0.808865
-0.0861018 0.154256 0.772807
-0.0815371 0.154151 0.766974
-0.0774852 0.154035 0.761171
-0.0829548 0.15399 0.748704
-0.0594056 0.153876 0.752655
-0.0976997 0.153776 0.725297
-0.12036 0.153662 0.706145
-0.126705 0.153606 0.693595
-0.0812049 0.153509 0.708083
-0.168155 0.153397 0.656793
-0.112212 0.153341 0.6754
-0.184953 0.153248 0.630714
-0.142509 0.153137 0.644127
-0.157416 0.153047 0.628302
-0.115091 0.152992 0.640114
-0.202062 0.152882 0.588823
-0.167421 0.152796 0.597716
-0.130372 0.152687 0.608434
-0.189504 0.152633 0.569532
-0.127687 0.15255 0.591954
-0.141421 0.152443 0.577282
-0.136162 0.152389 0.570585
-0.131368 0.152309 0.564435
-0.139761 0.152203 0.552434
-0.0997682 0.152098 0.564628
-0.17146 0.152074 0.518657
-0.159663 0.151969 0.516751
-0.123233 0.151866 0.527162
-0.215941 0.151814 0.471503
-0.18225 0.151741 0.479667
-0.110764 0.151639 0.507604
-0.12234 0.151537 0.49401
-0.0579905 0.151518 0.515944
-0.202177 0.151417 0.436041
-0.155529 0.151317 0.451555
-0.134955 0.151266 0.452553
-0.119985 0.151201 0.451213
-0.127032 0.151102 0.439874
-0.154039 0.151052 0.417086
-0.0785125 0.150954 0.447037
-0.130937 0.150893 0.41192
-0.119646 0.150844 0.408285
-0.149109 0.150747 0.385733
-0.17548 0.150651 0.364727
-0.199482 0.150603 0.343455
-0.0927374 0.150545 0.387835
-0.182078 0.15045 0.335335
-0.0986307 0.150356 0.369227
-0.159452 0.150309 0.32955
-0.151631 0.150256 0.324382
-0.143907 0.150163 0.320402
-0.0939964 0.150117 0.336091
-0.145923 0.150024 0.302285
-0.204012 0.149932 0.265396
-0.133026 0.149887 0.29163
-0.125374 0.149839 0.286272
-0.0955168 0.149749 0.293342
-0.215243 0.149659 0.225617
-0.181604 0.149614 0.233179
-0.154957 0.149525 0.238639
-0.16468 0.149437 0.22591
-0.149381 0.149393 0.224307
-0.158662 0.149351 0.210357
-0.157432 0.149264 0.203089
-0.117727 0.14922 0.213686
-0.180362 0.149134 0.174482
-0.171326 0.149048 0.171109
-0.169514 0.149006 0.162764
-0.203574 0.148921 0.137838
-0.195342 0.148837 0.134054
-0.146719 0.148795 0.149117
-0.10457 0.148711 0.162286
-0.100802 0.148669 0.154924
-0.182208 0.148635 0.104737
-0.182433 0.148553 0.0966994
-0.0782956 0.148472 0.140837
-0.154384 0.148431 0.0935405
-0.161076 0.148351 0.0822572
-0.173799 0.148271 0.0679513
-0.183965 0.148231 0.0536176
-0.203499 0.148152 0.0358993
-0.18742 0.148073 0.0359814
-0.101853 0.148034 0.0695136
-0.182722 0.147956 0.0211135
-0.199759 0.147878 0.00462232
-0.0775624 0.14784 0.056469
-0.131705 0.147763 0.0214163
0.419055 0.182733 1.58292
0.447163 0.181538 1.60875
0.242383 0.180999 1.50519
0.325999 0.180436 1.5464
0.376996 0.180031 1.56818
0.278873 0.179604 1.5159
0.235025 0.179258 1.48919
0.336542 0.178913 1.53517
0.276065 0.17857 1.50017
0.171909 0.178281 1.44225
0.235028 0.178072 1.46638
0.167988 0.177735 1.4281
0.26002 0.177528 1.4667
0.197254 0.177244 1.42952
0.10517 0.17704 1.37608
0.160982 0.176712 1.39919
0.238976 0.17651 1.43078
0.144053 0.176233 1.37753
0.151789 0.176034 1.374
0.140571 0.175837 1.36098
0.137914 0.175607 1.35296
0.107232 0.17537 1.33111
0.145111 0.175177 1.34264
0.100178 0.174986 1.31275
0.122336 0.174796 1.31639
0.033217 0.174607 1.2644
0.0415033 0.174419 1.26113
0.105309 0.174196 1.28639
0.088516 0.174011 1.27055
0.117353 0.173829 1.2775
0.0141781 0.173648 1.21844
0.099331 0.173469 1.25352
0.061888 0.173321 1.22664
-0.0164612 0.173144 1.17997
0.0539647 0.17297 1.20766
0.0351949 0.172823 1.19015
0.0580062 0.172651 1.19403
0.0120413 0.172505 1.16294
0.04063 0.172335 1.16969
0.0677016 0.172191 1.17515
0.0184991 0.172023 1.14299
0.0473443 0.17188 1.14935
0.0288678 0.171715 1.13254
0.0610362 0.171605 1.13983
0.0363688 0.171446 1.11983
0.0162723 0.171304 1.10175
0.0370593 0.171148 1.10447
0.0652225 0.171007 1.11053
-0.0381314 0.170867 1.05085
-0.0357261 0.170726 1.04405
-0.0121095 0.170632 1.04682
0.0460228 0.170435 1.06925
-0.00810476 0.170345 1.03308
-0.0651746 0.170199 0.996758
-0.0626141 0.170061 0.99007
0.0311649 0.169924 1.029
-0.131709 0.169788 0.939613
-0.0336985 0.16971 0.979299
-0.0810809 0.169572 0.947722
-0.102555 0.169436 0.929045
-0.0731549 0.169302 0.935813
-0.0268478 0.169234 0.94945
0.00580934 0.169101 0.957858
-0.0961939 0.168967 0.898942
0.0371834 0.168834 0.957725
-0.0989884 0.168704 0.881689
-0.0942454 0.168572 0.876163
-0.0936803 0.16851 0.866866
-0.0843006 0.168379 0.863668
-0.0644608 0.168255 0.865559
-0.0536705 0.168125 0.863074
-0.138748 0.16806 0.811074
-0.0842436 0.167939 0.830259
-0.0558436 0.16782 0.836347
-0.0748413 0.167692 0.81898
-0.188604 0.167628 0.752659
-0.0374169 0.167513 0.820098
-0.0509963 0.167387 0.805452
-0.0783874 0.167275 0.783553
-0.0761313 0.167212 0.77526
-0.0507452 0.167103 0.779705
-0.0742827 0.166978 0.760088
-0.112811 0.166854 0.732981
-0.0959837 0.16681 0.731534
-0.126514 0.166687 0.70843
-0.117707 0.166585 0.704484
-0.146811 0.166463 0.682094
-0.0547737 0.166402 0.718727
-0.168039 0.166303 0.653693
-0.035915 0.166183 0.711923
-0.128012 0.166123 0.656501
-0.0960299 0.166027 0.664036
-0.104094 0.165908 0.652177
-0.144401 0.165875 0.621976
-0.0916698 0.165757 0.640514
-0.211303 0.16564 0.572874
-0.180905 0.165551 0.579502
-0.170214 0.165493 0.575496
-0.170942 0.165377 0.56731
-0.143818 0.165292 0.572242
-0.164925 0.165177 0.553862
-0.15668 0.16512 0.548647
-0.0523202 0.165038 0.592135
-0.181129 0.164925 0.519905
-0.262028 0.164868 0.470126
-0.138333 0.164791 0.523218
-0.135886 0.164679 0.516614
-0.0836583 0.164567 0.534902
-0.139398 0.164549 0.496716
-0.0964912 0.164438 0.510339
-0.0711071 0.164328 0.515202
-0.144114 0.164312 0.468324
-0.12307 0.164204 0.471013
-0.0754603 0.164095 0.486984
-0.149158 0.164041 0.440828
-0.157506 0.163975 0.42769
-0.11456 0.163868 0.441323
-0.122082 0.163762 0.429723
-0.150871 0.163709 0.406029
-0.0943404 0.163647 0.42525
-0.17253 0.163542 0.378308
-0.139277 0.163437 0.387087
-0.126966 0.163385 0.383949
-0.171603 0.163328 0.352503
-0.112194 0.163225 0.374351
-0.146239 0.163174 0.348037
-0.166882 0.163072 0.32986
-0.187698 0.163019 0.310239
-0.190332 0.162968 0.299633
-0.136117 0.162868 0.318873
-0.154598 0.162768 0.301764
-0.148703 0.162669 0.29684
-0.149386 0.16267 0.285782
-0.189234 0.162571 0.257976
-0.060907 0.162474 0.314255
-0.174767 0.162425 0.248044
-0.165141 0.162328 0.244971
-0.218438 0.162232 0.210433
-0.0998104 0.162237 0.258945
-0.125698 0.162142 0.2381
-0.176559 0.162047 0.204765
-0.182696 0.161953 0.193787
-0.138131 0.161906 0.206794
-0.167954 0.161813 0.18397
-0.07721 0.16172 0.221426
-0.147108 0.161674 0.177205
-0.136622 0.161638 0.17289
-0.14542 0.161546 0.160557
-0.112794 0.161501 0.167593
-0.127617 0.161411 0.152243
-0.0390976 0.161321 0.188558
-0.152433 0.161232 0.123941
-0.133182 0.161188 0.124293
-0.201877 0.1611 0.0819899
-0.14627 0.161012 0.101832
-0.138647 0.160968 0.0963722
-0.0530758 0.160882 0.13119
-0.214307 0.160796 0.0426013
-0.145011 0.160753 0.0679781
-0.256024 0.160667 0.00449126
-0.102274 0.160583 0.0733791
-0.0900313 0.160541 0.070229
-0.235939 0.160457 -0.0107197
-0.121061 0.160374 0.0387173
-0.178751 0.160332 0.000600061
-0.109727 0.16025 0.0271017
0.454365 0.196016 1.62679
0.381582 0.19535 1.5907
0.309403 0.194829 1.55234
0.30543 0.194307 1.54813
0.329353 0.193788 1.55791
0.26761 0.193414 1.52218
0.308632 0.193043 1.53785
0.167858 0.19273 1.46156
0.337118 0.192362 1.54137
0.30269 0.192137 1.51667
0.205668 0.191774 1.46333
0.159794 0.191551 1.43293
0.174997 0.191245 1.43468
0.212092 0.190941 1.44739
0.203613 0.190672 1.43667
0.175268 0.190455 1.41505
0.145837 0.190156 1.39449
0.139476 0.189942 1.38386
0.102481 0.18973 1.3579
0.0946436 0.189436 1.34814
0.101356 0.189227 1.34404
0.134218 0.189019 1.353
0.0958301 0.188813 1.32634
0.133523 0.188609 1.3377
0.132296 0.188364 1.33043
0.044329 0.188162 1.27897
0.082309 0.187925 1.29121
0.107217 0.187763 1.29543
-0.0120367 0.187567 1.22829
0.0715524 0.187372 1.26256
0.112728 0.18718 1.2756
0.00899851 0.18702 1.21555
0.0196665 0.18683 1.21334
0.0929021 0.186642 1.24239
0.0435737 0.186456 1.21013
0.0254225 0.186298 1.19292
-0.0603726 0.186115 1.14242
0.131102 0.185934 1.23054
0.124483 0.185755 1.21958
-0.0444398 0.185599 1.12702
-0.0108768 0.185443 1.13571
-0.00539401 0.185268 1.1308
0.10133 0.185113 1.17609
-0.00525397 0.184941 1.11512
-0.0520368 0.184787 1.08368
0.027892 0.184679 1.11466
-0.050957 0.184513 1.06748
-0.0857954 0.184361 1.04202
-0.00394653 0.184198 1.07516
-0.0032557 0.184047 1.06749
-0.0419696 0.183897 1.04012
-0.109846 0.183747 0.998183
-0.0495648 0.183656 1.01908
-0.0331493 0.18344 1.02075
0.0356525 0.183353 1.04583
-0.0728708 0.183205 0.983595
-0.0546744 0.183058 0.984724
-0.00182024 0.182908 1.00326
-0.131125 0.182761 0.930649
-0.0267368 0.182687 0.973318
-0.000563728 0.182542 0.978459
-0.0687781 0.182398 0.936393
0.0786696 0.182254 1.00218
-0.0708422 0.182185 0.917836
-0.00691334 0.182041 0.941875
-0.136698 0.181904 0.86895
-0.0624817 0.181761 0.898142
-0.0173695 0.181698 0.911038
-0.0332244 0.181556 0.895203
-0.114111 0.181425 0.846648
-0.178114 0.181285 0.806747
-0.107 0.181157 0.834149
-0.00674274 0.181087 0.874805
-0.0837784 0.180962 0.828091
-0.0677457 0.180824 0.82822
-0.0969798 0.180703 0.805361
-0.10157 0.180634 0.793613
-0.125764 0.180498 0.773641
-0.148652 0.18038 0.75391
-0.0464019 0.180245 0.797163
-0.0870702 0.180197 0.76693
-0.0687124 0.180063 0.768242
-0.05657 0.179952 0.765931
-0.0966524 0.179819 0.738025
-0.0731351 0.179752 0.740369
-0.0626166 0.179645 0.737195
-0.0337925 0.179513 0.74375
-0.0266537 0.179409 0.738833
-0.112944 0.179344 0.686287
-0.0372846 0.179243 0.715581
0.0187636 0.179113 0.73575
-0.0421827 0.179049 0.695887
-0.101377 0.178952 0.657699
-0.156015 0.178824 0.62253
-0.0975782 0.17873 0.6431
-0.100031 0.178667 0.632495
-0.0760307 0.178541 0.636648
-0.117137 0.17845 0.607389
-0.103645 0.178326 0.606284
-0.129302 0.178263 0.584092
-0.0923292 0.178177 0.593812
-0.0503883 0.178054 0.606932
-0.0841892 0.177993 0.580677
-0.146083 0.17791 0.540902
-0.151735 0.177788 0.530226
-0.157775 0.177728 0.517859
-0.17789 0.177649 0.49891
-0.157339 0.177529 0.501333
-0.0687806 0.177454 0.536658
-0.127059 0.177394 0.498177
-0.162683 0.177276 0.47251
-0.157955 0.177204 0.465854
-0.10959 0.177087 0.482173
-0.0952928 0.177029 0.479989
-0.144231 0.176913 0.447661
-0.153461 0.176846 0.43395
-0.151474 0.176731 0.427075
-0.146832 0.176674 0.420071
-0.100832 0.176611 0.433905
-0.169485 0.176497 0.391704
-0.0722905 0.176441 0.43098
-0.198947 0.176328 0.359779
-0.120984 0.17627 0.389514
-0.197317 0.176159 0.343463
-0.175979 0.176104 0.344816
-0.130525 0.175993 0.359661
-0.126111 0.175939 0.352538
-0.111869 0.175885 0.350345
-0.0985085 0.175776 0.349131
-0.159166 0.175668 0.310907
-0.155902 0.175619 0.303124
-0.153631 0.175566 0.294948
-0.253261 0.175459 0.237226
-0.127728 0.175354 0.292083
-0.170072 0.175301 0.261606
-0.166665 0.175249 0.254007
-0.21199 0.175153 0.223215
-0.04362 0.175049 0.299473
-0.162437 0.174998 0.230761
-0.0907777 0.174895 0.258662
-0.111682 0.174794 0.240278
-0.10388 0.174805 0.233192
-0.179255 0.174705 0.18756
-0.197496 0.174605 0.17049
-0.167257 0.174505 0.177658
-0.100468 0.174456 0.201751
-0.135668 0.174357 0.176195
-0.143722 0.174259 0.164208
-0.180523 0.17421 0.136509
-0.0770863 0.174179 0.178465
-0.237264 0.174082 0.0903956
-0.234109 0.173987 0.0839877
-0.166094 0.173939 0.108694
-0.121089 0.173844 0.123206
-0.0912415 0.17375 0.130134
-0.198574 0.173703 0.0671671
-0.205101 0.17361 0.0559021
-0.178436 0.173518 0.0612264
-0.136272 0.173426 0.0742944
-0.0888349 0.17338 0.0887135
-0.100144 0.173289 0.075038
-0.144136 0.173199 0.0450146
-0.0927141 0.173154 0.0614258
-0.16015 0.173065 0.0196728
-0.0817252 0.172976 0.0508427
-0.195606 0.172932 -0.015398
-0.0804892 0.172844 0.0341098
0.433266 0.210568 1.63077
0.381167 0.2097 1.60756
0.371348 0.209141 1.6003
0.286877 0.208582 1.55576
0.319314 0.20818 1.56704
0.265104 0.207779 1.53502
0.356656 0.207288 1.57749
0.289883 0.206892 1.5392
0.299809 0.206649 1.53663
0.231554 0.206257 1.49762
0.244753 0.205925 1.4983
0.228689 0.205686 1.48276
0.145939 0.205301 1.43649
0.166814 0.205065 1.43943
0.237754 0.20474 1.46901
0.297756 0.204507 1.49152
0.157213 0.204134 1.41629
0.156405 0.203905 1.40838
0.11418 0.203678 1.37977
0.175158 0.203363 1.40436
0.128826 0.203139 1.37368
0.0676489 0.202916 1.33557
0.144125 0.202696 1.36629
0.154008 0.202432 1.36453
0.110419 0.202214 1.33522
0.219683 0.201957 1.38306
0.132397 0.201783 1.33114
0.0685643 0.201571 1.29168
0.129384 0.20136 1.31452
0.0347452 0.201137 1.2599
0.0938064 0.200928 1.28189
0.0604169 0.200721 1.25764
0.0957885 0.20057 1.26674
0.0424628 0.200346 1.23291
0.0368783 0.200143 1.22254
0.0374755 0.199944 1.21524
-0.0154753 0.199804 1.18004
0.0377097 0.199577 1.19959
0.048233 0.199419 1.19653
0.0432248 0.199251 1.1859
-0.0136585 0.199063 1.14975
0.0317345 0.198876 1.16471
-0.00340734 0.19871 1.13903
-0.0186681 0.198528 1.12365
0.0511172 0.198363 1.15046
-0.0184788 0.198198 1.10759
0.00933572 0.198019 1.11372
0.0150385 0.197855 1.10852
-0.10619 0.19775 1.03873
0.0295344 0.197578 1.09873
0.0345961 0.197416 1.09322
-0.0717984 0.197255 1.032
-0.10656 0.197087 1.00673
-0.0686811 0.196927 1.01766
-0.0474379 0.196767 1.02027
-0.0420492 0.19668 1.01352
-0.0872898 0.196521 0.982917
-0.115246 0.196363 0.960945
-0.080243 0.196206 0.97046
-0.0606191 0.196049 0.972295
0.00559891 0.195971 0.995838
0.0014561 0.195817 0.985765
-0.0551484 0.195665 0.949421
-0.0482963 0.195511 0.944892
-0.0794642 0.195363 0.921229
0.00757673 0.195209 0.956804
-0.104116 0.195141 0.891254
-0.110219 0.194989 0.880266
-0.0280721 0.194848 0.913183
-0.0889424 0.194697 0.87482
-0.0958854 0.194634 0.861571
-0.0275073 0.194484 0.88784
-0.0767899 0.19435 0.85496
-0.117538 0.194201 0.826672
-0.141599 0.194144 0.804787
-0.0531055 0.193996 0.841126
-0.0322301 0.193869 0.843239
-0.0748415 0.193722 0.814031
-0.099418 0.193671 0.791806
-0.0848809 0.193525 0.791177
-0.121684 0.193405 0.764358
-0.0211919 0.193261 0.806711
-0.0720346 0.193189 0.771843
-0.10337 0.193072 0.747709
-0.0775824 0.192958 0.75209
-0.0519129 0.192816 0.757036
-0.0836959 0.192746 0.731714
-0.0686876 0.192636 0.730653
-0.0997905 0.192496 0.707221
-0.0746526 0.192459 0.709633
-0.0559018 0.19232 0.711129
-0.201537 0.192217 0.629644
-0.129481 0.192079 0.657792
-0.127357 0.191942 0.650978
-0.128804 0.191912 0.640001
-0.0751816 0.191776 0.658937
-0.159129 0.191681 0.608183
-0.0753346 0.191613 0.640684
-0.0383774 0.191479 0.65129
-0.0465751 0.191387 0.638352
-0.118708 0.191254 0.59441
-0.00883059 0.191188 0.639966
-0.0585318 0.191101 0.606217
-0.0977373 0.190969 0.578739
-0.16021 0.190951 0.537047
-0.226184 0.190821 0.496182
-0.081734 0.190691 0.560531
-0.0961662 0.190612 0.544293
-0.0625484 0.190547 0.551734
-0.0805359 0.190419 0.534862
-0.106562 0.190344 0.512764
-0.155623 0.190217 0.480348
-0.126367 0.190154 0.485619
-0.157112 0.190083 0.461096
