ply
format ascii 1.0
comment Created by Open3D
element vertex 1638
property double x
property double y
property double z
end_header
-0.190847 -0.112049 0.352274
-0.169833 -0.112009 0.353788
-0.267816 -0.111968 0.295825
-0.30954 -0.111952 0.26502
-0.344964 -0.11191 0.238378
-0.132955 -0.111868 0.335475
-0.323492 -0.111826 0.231321
-0.263273 -0.111805 0.251689
-0.15926 -0.111763 0.294844
-0.339017 -0.11172 0.196138
-0.395466 -0.111676 0.159107
-0.179781 -0.111633 0.258165
-0.280264 -0.111589 0.199162
-0.30054 -0.111545 0.180285
-0.311235 -0.111522 0.165284
-0.328114 -0.111478 0.148141
-0.220329 -0.111432 0.193353
-0.189499 -0.111387 0.200111
-0.297397 -0.111341 0.137527
0.0342508 -0.111318 0.293759
-0.448689 -0.111297 0.042609
-0.380305 -0.111251 0.0682237
-0.271164 -0.111204 0.11424
-0.436834 -0.111156 0.0228741
0.0519427 -0.111109 0.258755
-0.289786 -0.111061 0.0794062
-0.16376 -0.111037 0.132916
-0.395979 -0.110988 0.00835938
-0.251359 -0.110939 0.0722461
-0.137082 -0.11089 0.120985
-0.0329044 -0.110841 0.164698
0.0958267 -0.110791 0.220711
-0.250887 -0.110766 0.0379299
-0.382959 -0.110716 -0.0364201
-0.258407 -0.110665 0.0175658
-0.411514 -0.110614 -0.067254
-0.235064 -0.110563 0.012729
-0.247704 -0.110511 -0.00180874
-0.470181 -0.110485 -0.122391
-0.314654 -0.110433 -0.0528067
-0.576481 -0.104626 1.94086
-0.669349 -0.104362 1.89026
-0.546859 -0.104088 1.94768
-0.556455 -0.103804 1.93938
-0.538321 -0.103575 1.94352
-0.788521 -0.103371 1.81289
-0.693636 -0.103114 1.85626
-0.680497 -0.102887 1.85798
-0.773009 -0.102616 1.80816
-0.668087 -0.10238 1.85613
-0.541047 -0.102104 1.91633
-0.699136 -0.101863 1.83303
-0.521344 -0.101821 1.91223
-1.00764 -0.101806 1.65862
-0.596015 -0.101783 1.85421
-0.558161 -0.101791 1.86203
-0.75173 -0.101768 1.75503
-0.746303 -0.101746 1.74751
-0.444664 -0.101754 1.88724
-0.880119 -0.101731 1.65928
-0.707814 -0.101717 1.73497
-0.719453 -0.101725 1.71807
-0.561636 -0.101703 1.78674
-0.972798 -0.101711 1.57009
-0.5979 -0.101689 1.74729
-0.86454 -0.101676 1.60351
-0.625946 -0.101683 1.71175
-0.892613 -0.101662 1.56815
-0.764118 -0.101675 1.62116
-0.657915 -0.101655 1.664
-0.779491 -0.101667 1.59199
-0.867494 -0.101642 1.5379
-0.723792 -0.101653 1.59855
-0.593823 -0.101634 1.65325
-0.813123 -0.101621 1.53314
-0.683836 -0.101626 1.58678
-0.6545 -0.101613 1.59099
-0.707715 -0.101618 1.55338
-0.741442 -0.101605 1.52606
-0.769088 -0.10161 1.50125
-0.80447 -0.101597 1.47311
-0.911905 -0.101601 1.40841
-0.546756 -0.101588 1.58054
-0.584813 -0.101592 1.55054
-0.500112 -0.101599 1.5818
-0.682085 -0.101579 1.48061
-0.686025 -0.101589 1.46746
-0.538552 -0.10157 1.53097
-0.35939 -0.101576 1.6095
-0.8414 -0.10156 1.35815
-0.67289 -0.101566 1.43138
-0.665554 -0.101553 1.4246
-0.403095 -0.101556 1.54491
-0.478808 -0.101543 1.49661
-0.636061 -0.101545 1.40707
-0.488066 -0.101549 1.4701
-0.396495 -0.101535 1.50551
-0.736719 -0.101538 1.32445
-0.567145 -0.101525 1.39881
-0.864685 -0.101527 1.23916
-0.715722 -0.101514 1.30321
-0.683244 -0.101515 1.30857
-0.283967 -0.101517 1.49732
-0.762589 -0.101503 1.24761
-0.580169 -0.101504 1.32795
-0.514242 -0.101492 1.35049
-0.631034 -0.101492 1.28125
-0.43017 -0.101492 1.37085
-0.392894 -0.101479 1.37908
-0.540306 -0.101478 1.29457
-0.397499 -0.101477 1.35517
-0.798717 -0.101465 1.14415
-0.726121 -0.101463 1.16968
-0.513707 -0.101451 1.26545
-0.497879 -0.101448 1.26262
-0.603523 -0.101445 1.19906
-0.685602 -0.101434 1.14759
-0.276712 -0.10143 1.34133
-0.792688 -0.101426 1.07264
-0.481589 -0.101415 1.21775
-0.449296 -0.101411 1.22323
-0.376118 -0.101406 1.24916
-0.589193 -0.101395 1.13218
-0.262968 -0.101389 1.28466
-0.328272 -0.101383 1.24139
-0.505832 -0.101373 1.14216
-0.289127 -0.101366 1.23992
-0.553789 -0.101359 1.09701
-0.487441 -0.101349 1.11973
-0.401155 -0.101342 1.15232
-0.485127 -0.101334 1.09979
-0.653499 -0.101324 1.00515
-0.503764 -0.101315 1.06951
-0.372571 -0.101306 1.1246
-0.414328 -0.101297 1.09327
-0.431408 -0.101287 1.07425
-0.212095 -0.101277 1.17345
-0.445479 -0.101267 1.04632
-0.708441 -0.101257 0.904411
-0.494965 -0.101246 1.00074
-0.345048 -0.101235 1.06529
-0.244155 -0.101223 1.10536
-0.631236 -0.101212 0.901446
-0.523476 -0.1012 0.944945
-0.404543 -0.101188 0.994071
-0.299223 -0.101175 1.03641
-0.334961 -0.101162 1.00823
-0.357799 -0.101151 0.986437
-0.305977 -0.101137 1.00207
-0.274517 -0.101123 1.00753
-0.279571 -0.101108 0.994757
-0.378284 -0.101097 0.93504
-0.292306 -0.101082 0.96781
-0.640563 -0.101067 0.783479
-0.237062 -0.101056 0.974865
-0.283435 -0.10104 0.941507
-0.281575 -0.101023 0.932281
-0.558049 -0.101007 0.783904
-0.307554 -0.100998 0.898695
-0.479331 -0.100987 0.802462
-0.192285 -0.100969 0.935886
-0.0641237 -0.100952 0.989885
-0.344065 -0.100934 0.839848
-0.28963 -0.100922 0.856734
-0.645109 -0.100904 0.668961
-0.341171 -0.100885 0.810913
-0.268097 -0.100865 0.837451
-0.508502 -0.100854 0.706928
-0.468445 -0.100834 0.71699
-0.323317 -0.100814 0.779605
-0.265905 -0.100793 0.79838
-0.203582 -0.100772 0.819627
-0.279414 -0.10076 0.77142
-0.459336 -0.100739 0.671579
-0.460128 -0.100717 0.66132
-0.214157 -0.100694 0.774461
-0.0369085 -0.100672 0.853258
-0.686646 -0.10066 0.518129
-0.197399 -0.100648 0.75248
-0.367622 -0.100625 0.657586
-0.471259 -0.100601 0.596003
-0.231086 -0.100577 0.706344
-0.486511 -0.100553 0.568905
-0.385233 -0.100541 0.609325
-0.226599 -0.100516 0.67895
-0.283958 -0.10049 0.640598
-0.285759 -0.100465 0.630043
-0.271808 -0.100439 0.627383
-0.246636 -0.100426 0.629796
-0.451823 -0.100399 0.517591
-0.104711 -0.100373 0.681567
-0.274915 -0.100345 0.586904
-0.33698 -0.100332 0.545741
-0.281047 -0.100304 0.564178
-0.255023 -0.100276 0.567679
-0.425094 -0.100263 0.47252
-0.181962 -0.100234 0.584612
-0.226566 -0.100205 0.552856
-0.108042 -0.100176 0.602684
-0.139781 -0.100146 0.577401
0.0250425 -0.100116 0.650418
-0.308367 -0.100101 0.473679
-0.320342 -0.100072 0.458302
-0.358427 -0.100056 0.429246
-0.0197926 -0.100025 0.58924
-0.268441 -0.0999941 0.455612
-0.307875 -0.0999626 0.426612
-0.33733 -0.0999307 0.402622
-0.188678 -0.0998985 0.467706
-0.0684156 -0.099866 0.518616
-0.301619 -0.0998503 0.39205
0.0388574 -0.0998172 0.553107
-0.072766 -0.0998006 0.487383
-0.141875 -0.099767 0.44368
-0.365927 -0.0997331 0.322527
-0.575568 -0.0996989 0.2086
0.00378826 -0.0996644 0.489193
0.0972597 -0.0996296 0.526865
-0.0312521 -0.0995945 0.453567
-0.191884 -0.0995769 0.363421
-0.153262 -0.0995596 0.372889
-0.0159556 -0.0995237 0.432554
-0.250888 -0.0994875 0.306121
-0.483626 -0.099451 0.180807
-0.355085 -0.0994142 0.236154
-0.31795 -0.0993771 0.24582
-0.207354 -0.0993398 0.292239
-0.309577 -0.0993021 0.23227
-0.331285 -0.0992831 0.211694
-0.335239 -0.0992449 0.200895
-0.111875 -0.0992065 0.303777
-0.311865 -0.0991677 0.195005
-0.327839 -0.0991287 0.178263
-0.3182 -0.0991087 0.173436
-0.165975 -0.0990889 0.239899
-0.0626084 -0.0990491 0.282884
-0.149434 -0.099009 0.230795
-0.0333309 -0.0989686 0.280194
-0.15249 -0.0989279 0.211984
-0.210205 -0.0988869 0.174519
-0.448762 -0.0988456 0.0466565
-0.111409 -0.0988248 0.205773
-0.158441 -0.0987831 0.173709
-0.262733 -0.0987411 0.113039
-0.129672 -0.0986987 0.171069
-0.210651 -0.0986561 0.122102
0.0421322 -0.0986132 0.240039
-0.201545 -0.0985916 0.108718
-0.0964875 -0.0985482 0.15283
-0.254132 -0.0985045 0.065615
0.0405434 -0.0984606 0.204583
-0.452738 -0.0984163 -0.050403
-0.0440243 -0.0983941 0.144536
-0.41821 -0.0983494 -0.0508642
-0.344036 -0.0983044 -0.0220604
-0.283351 -0.0982592 2.25881e-05
-0.0779902 -0.0982136 0.0944673
-0.171723 -0.0981677 0.0393894
-0.0365698 -0.0981447 0.0976292
-0.386796 -0.0980984 -0.0856564
-0.5125 -0.0914051 1.97716
-0.612677 -0.0912036 1.92204
-0.497119 -0.0909357 1.97686
-0.68505 -0.0907598 1.87719
-0.521409 -0.0905817 1.95341
-0.647805 -0.0903795 1.8854
-0.444611 -0.0901784 1.9822
-0.826621 -0.089958 1.78705
-0.628128 -0.0897214 1.88271
-0.642937 -0.0894504 1.87285
-0.485274 -0.0892855 1.94596
-0.458023 -0.0892537 1.94969
-0.793301 -0.0892302 1.77191
-0.450103 -0.0892379 1.93237
-0.581213 -0.0892145 1.85667
-0.639684 -0.0891915 1.81729
-0.860971 -0.0891688 1.69649
-0.651787 -0.0891759 1.78997
-0.630263 -0.0891535 1.79058
-0.69299 -0.0891314 1.74905
-0.779155 -0.0891381 1.69487
-0.883827 -0.0891163 1.63237
-0.44689 -0.0891012 1.84046
-0.86739 -0.0891075 1.61913
-0.533194 -0.0890862 1.77606
-0.52361 -0.0890982 1.76958
-0.732456 -0.0890713 1.65518
-0.547265 -0.0890565 1.7374
-0.702212 -0.0890621 1.64887
-0.761488 -0.0890418 1.60905
-0.540486 -0.0890273 1.70918
-0.634446 -0.0890324 1.65116
-0.629485 -0.0890129 1.64344
-0.993343 -0.0890225 1.45032
-0.535272 -0.0890033 1.66915
-0.729443 -0.0890079 1.56104
-0.441287 -0.0889891 1.69491
-0.57836 -0.0889977 1.61521
-0.638885 -0.0889792 1.57473
-0.699964 -0.0889871 1.53306
-0.560471 -0.0889689 1.59258
-0.446964 -0.0889763 1.63822
-0.667401 -0.0889585 1.51777
-0.622452 -0.0889445 1.52988
-0.53036 -0.0889477 1.56496
-0.578486 -0.0889539 1.52982
-0.598805 -0.0889338 1.50953
-0.457435 -0.0889423 1.56905
-0.470366 -0.0889255 1.55234
-0.848904 -0.088928 1.35212
-0.672703 -0.0889141 1.42988
-0.574676 -0.0889163 1.46796
-0.640238 -0.0889025 1.42483
-0.495721 -0.0889044 1.48617
-0.68679 -0.0889081 1.37965
-0.431934 -0.0888923 1.49681
-0.624884 -0.0888954 1.38937
-0.510736 -0.0888801 1.43617
-0.494597 -0.0888825 1.4333
-0.59769 -0.0888687 1.37142
-0.424779 -0.0888696 1.447
-0.467397 -0.0888711 1.41478
-0.539569 -0.0888565 1.36841
-0.625609 -0.0888574 1.3145
-0.696936 -0.0888435 1.26853
-0.493264 -0.0888436 1.35952
-0.617823 -0.0888437 1.28639
-0.470587 -0.0888295 1.34971
-0.59989 -0.0888289 1.27424
-0.361022 -0.0888152 1.38336
-0.495307 -0.088814 1.30543
-0.50803 -0.0888125 1.28829
-0.691836 -0.088799 1.18607
-0.49651 -0.0887969 1.27298
-0.614633 -0.0887945 1.20317
-0.396068 -0.0887813 1.30214
-0.255624 -0.0887783 1.36164
-0.604255 -0.0887751 1.17662
-0.743824 -0.088762 1.09652
-0.811294 -0.0887582 1.05211
-0.311407 -0.0887541 1.29138
-0.351367 -0.0887435 1.26099
-0.395698 -0.0887366 1.22828
-0.533754 -0.0887316 1.14862
-0.531537 -0.0887218 1.1393
-0.422941 -0.0887135 1.1831
-0.478675 -0.0887077 1.14465
-0.569036 -0.0886985 1.08902
-0.338899 -0.0886922 1.19352
-0.356389 -0.0886856 1.17422
-0.149676 -0.0886737 1.26724
-0.493113 -0.0886666 1.085
-0.591725 -0.0886591 1.02518
-0.424254 -0.0886475 1.09858
-0.422025 -0.0886395 1.08921
-0.68411 -0.0886308 0.947711
-0.483846 -0.0886198 1.03749
-0.300517 -0.088611 1.11871
-0.439748 -0.0886018 1.03867
-0.415377 -0.0885924 1.04044
-0.301446 -0.088581 1.08707
-0.505006 -0.088571 0.97491
-0.432247 -0.0885607 1.00092
-0.437923 -0.0885496 0.987748
-0.492783 -0.0885387 0.949978
-0.637085 -0.0885276 0.867502
-0.228139 -0.0885161 1.06167
-0.265647 -0.0885044 1.03262
-0.14606 -0.0884924 1.08213
-0.310368 -0.08848 0.989713
-0.17851 -0.0884675 1.04539
-0.381696 -0.0884546 0.933568
-0.315517 -0.0884414 0.956441
0.0453663 -0.0884286 1.12665
-0.351472 -0.0884149 0.918045
-0.408724 -0.0884009 0.87925
-0.350529 -0.0883866 0.898194
-0.325698 -0.0883738 0.90039
-0.0473347 -0.088359 1.02945
-0.109331 -0.0883438 0.988346
-0.228195 -0.0883284 0.918825
-0.0315565 -0.0883157 1.00694
-0.379339 -0.0882997 0.822991
-0.452359 -0.0882834 0.776441
-0.466446 -0.0882668 0.759375
-0.430526 -0.0882625 0.766758
-0.232199 -0.0882456 0.855924
-0.457044 -0.0882283 0.733521
-0.383986 -0.0882108 0.760087
-0.232121 -0.0881929 0.826074
-0.210645 -0.0881801 0.826642
-0.470681 -0.0881617 0.686713
-0.414502 -0.088143 0.704908
-0.420991 -0.0881241 0.691786
-0.206245 -0.0881049 0.789301
-0.307724 -0.0880917 0.728423
-0.250535 -0.0880719 0.747193
-0.439658 -0.0880519 0.642825
-0.26216 -0.0880316 0.721786
-0.34443 -0.0880109 0.670881
-0.381763 -0.0879975 0.642108
-0.235019 -0.087987 0.705241
0.00820728 -0.0879657 0.81713
-0.527223 -0.0879441 0.539709
-0.31478 -0.0879222 0.636244
-0.206389 -0.0879001 0.680771
-0.33452 -0.0878862 0.606642
-0.135482 -0.0878635 0.696529
-0.135504 -0.0878406 0.686905
-0.0926531 -0.0878173 0.698736
0.0050473 -0.0877938 0.738011
-0.355428 -0.08777 0.548218
-0.0758286 -0.0877556 0.678007
-0.360208 -0.0877313 0.526299
-0.405573 -0.087719 0.493512
-0.450687 -0.0876942 0.461467
-0.279908 -0.0876692 0.537388
-0.226841 -0.0876439 0.554473
-0.185532 -0.0876183 0.565699
-0.18048 -0.0876033 0.558279
-0.399788 -0.0875771 0.439235
-0.206323 -0.0875507 0.526597
-0.218974 -0.087524 0.510921
-0.102968 -0.0874971 0.559594
-0.0961854 -0.0874835 0.552989
-0.164983 -0.0874562 0.509292
-0.498444 -0.0874404 0.332684
-0.182925 -0.0874125 0.481185
-0.247968 -0.0873843 0.439425
-0.0823252 -0.0873559 0.513029
-0.210581 -0.0873272 0.439705
-0.152091 -0.0872982 0.459773
-0.154749 -0.087269 0.44929
-0.290796 -0.0872542 0.371372
-0.280956 -0.0872246 0.367171
-0.0154998 -0.0871946 0.490798
-0.352477 -0.0871774 0.312559
-0.0399095 -0.087147 0.459784
-0.289825 -0.0871162 0.325788
-0.125747 -0.0870852 0.39881
-0.406763 -0.087054 0.249306
-0.200589 -0.0870382 0.342593
-0.313865 -0.0870066 0.276994
-0.254846 -0.0869746 0.297565
-0.31491 -0.0869424 0.258615
-0.094496 -0.08691 0.359927
-0.113569 -0.0868772 0.341517
-0.45118 -0.0868583 0.163115
0.0874601 -0.0868417 0.422718
-0.25457 -0.0868083 0.242885
-0.0957831 -0.0867746 0.313483
-0.0782201 -0.0867407 0.313491
-0.125842 -0.0867065 0.28093
-0.0762157 -0.0866721 0.297014
-0.353803 -0.0866548 0.148577
-0.133798 -0.0866199 0.249887
-0.125568 -0.0865848 0.245333
-0.0925146 -0.0865495 0.253213
-0.118687 -0.0865138 0.231503
-0.241115 -0.0864779 0.161688
-0.200691 -0.0864418 0.173322
0.0856965 -0.0864236 0.306962
-0.189416 -0.0863871 0.160865
-0.251866 -0.0863503 0.121122
-0.33784 -0.0863132 0.0696406
-0.205116 -0.0862759 0.127531
-0.259498 -0.0862384 0.0918922
-0.101778 -0.0862195 0.161276
-0.156467 -0.0861815 0.125522
-0.0716655 -0.0861433 0.159536
-0.301811 -0.0861048 0.0361
-0.245428 -0.0860661 0.0559521
-0.224266 -0.0860466 0.0571218
-0.349504 -0.0860075 -0.0137981
-0.0961807 -0.0859681 0.104587
-0.338168 -0.0859285 -0.0246603
-0.249513 -0.0858886 0.0114386
-0.210317 -0.0858485 0.0228313
-0.247313 -0.0858284 -0.00499735
-0.275836 -0.0857878 -0.0274247
-0.372549 -0.0781166 2.04416
-0.542255 -0.0779061 1.95567
-0.628968 -0.0777546 1.90664
-0.652584 -0.0775816 1.88997
-0.665251 -0.0773222 1.88193
-0.72989 -0.0771322 1.84548
-0.862495 -0.0769751 1.7739
-0.643184 -0.0768204 1.87823
-0.440452 -0.0767083 1.97276
-0.627247 -0.0766854 1.86928
-0.661221 -0.076656 1.84246
-0.60163 -0.0766336 1.86217
-0.731695 -0.0766114 1.78705
-0.759778 -0.0766177 1.76186
-0.797343 -0.0765893 1.73324
-0.73318 -0.0765676 1.75523
-0.818024 -0.076552 1.70249
-0.851886 -0.0765578 1.67444
-0.585172 -0.0765305 1.79793
-0.798148 -0.0765094 1.68136
-0.741871 -0.0764941 1.69919
-0.620339 -0.0764734 1.74986
-0.694878 -0.0764787 1.7015
-0.850335 -0.0764582 1.61367
-0.47582 -0.0764633 1.78984
-0.608086 -0.0764431 1.71361
-0.548623 -0.076428 1.73305
-0.624235 -0.0764326 1.68418
-0.480035 -0.0764084 1.74635
-0.708057 -0.0764218 1.62093
-0.707645 -0.0763979 1.6112
-0.930969 -0.0763831 1.48926
-0.702236 -0.0763871 1.59258
-1.10516 -0.0763683 1.381
-0.719352 -0.0763536 1.56362
-0.493031 -0.0763573 1.66576
-0.450007 -0.0763644 1.67611
-0.782515 -0.0763426 1.49987
-0.835932 -0.0763281 1.46289
-0.436338 -0.0763313 1.65169
-0.637505 -0.0763167 1.54083
-0.655861 -0.0763197 1.52067
-0.469425 -0.0763051 1.60362
-0.525767 -0.0763078 1.56447
-0.246261 -0.0762908 1.69407
-0.779087 -0.0762957 1.41659
-0.583792 -0.0762789 1.50408
-0.790144 -0.0762812 1.38995
-0.304639 -0.0762875 1.62157
-0.466512 -0.0762689 1.53056
-0.794925 -0.0762726 1.35534
-0.449253 -0.0762564 1.51801
-0.725667 -0.0762596 1.3688
-0.604139 -0.0762437 1.41939
-0.542758 -0.0762464 1.43911
-0.558641 -0.0762308 1.42099
-0.712371 -0.0762331 1.33317
-0.555006 -0.0762187 1.40162
-0.986183 -0.0762196 1.17515
-0.576546 -0.0762211 1.36905
-0.499107 -0.0762059 1.39758
-0.561602 -0.0762069 1.35544
-0.394436 -0.0761921 1.42882
-0.689573 -0.0761926 1.27039
-0.342802 -0.0761928 1.43291
-0.481253 -0.0761781 1.3535
-0.454065 -0.0761777 1.35626
-0.482651 -0.0761637 1.33175
-0.646039 -0.0761624 1.23927
-0.447498 -0.0761612 1.32775
-0.456896 -0.0761478 1.31282
-0.553048 -0.0761462 1.25397
-0.541463 -0.0761435 1.24905
-0.279232 -0.0761305 1.36991
-0.605519 -0.0761283 1.19604
-0.614236 -0.0761148 1.18146
-0.378781 -0.076112 1.28848
-0.476437 -0.0761089 1.22895
-0.310768 -0.0760957 1.30157
-0.577885 -0.0760921 1.15734
-0.464456 -0.0760883 1.2034
-0.452852 -0.0760752 1.19898
-0.336984 -0.076071 1.24629
-0.50705 -0.0760664 1.15064
-0.424961 -0.0760535 1.18146
-0.267849 -0.0760485 1.24943
-0.462401 -0.0760432 1.14157
-0.610003 -0.0760306 1.05755
-0.556391 -0.0760248 1.07381
-0.374331 -0.0760188 1.1543
-0.272229 -0.0760063 1.19513
-0.609215 -0.0759998 1.01613
-0.510418 -0.075993 1.05504
-0.323931 -0.0759808 1.13806
-0.320879 -0.0759735 1.12912
-0.365945 -0.075966 1.09613
-0.58618 -0.0759583 0.975581
-0.413622 -0.0759461 1.05165
-0.589192 -0.0759378 0.953456
-0.159868 -0.0759293 1.15773
-0.392726 -0.0759206 1.03092
-0.292695 -0.0759084 1.07074
-0.390977 -0.0758991 1.01125
-0.589732 -0.0758897 0.901537
-0.369782 -0.07588 1.00119
-0.511806 -0.07587 0.919879
-0.539058 -0.0758598 0.895966
-0.510173 -0.0758494 0.900137
-0.342161 -0.0758387 0.973887
-0.464948 -0.0758296 0.902156
-0.574623 -0.0758186 0.837086
-0.328682 -0.0758073 0.94984
-0.48169 -0.0757954 0.863153
-0.346458 -0.0757836 0.920584
-0.395894 -0.0757716 0.885696
-0.219593 -0.0757593 0.963694
-0.488849 -0.0757468 0.818929
-0.391969 -0.0757341 0.857248
-0.455482 -0.0757211 0.815387
-0.481696 -0.0757078 0.792193
-0.322665 -0.0756943 0.861637
-0.426658 -0.0756806 0.799586
-0.288434 -0.0756673 0.858625
-0.414941 -0.0756531 0.78535
-0.22006 -0.0756386 0.872786
-0.452504 -0.0756239 0.746576
-0.048351 -0.0756107 0.938595
-0.283228 -0.0755955 0.811203
-0.356606 -0.0755801 0.764577
-0.164715 -0.0755723 0.850181
-0.240387 -0.0755565 0.802436
-0.421867 -0.0755405 0.701804
-0.453887 -0.0755269 0.675777
-0.041495 -0.0755104 0.872116
-0.379878 -0.0754936 0.693086
-0.327254 -0.0754766 0.709577
-0.578325 -0.0754594 0.574239
-0.313161 -0.0754456 0.696836
-0.51255 -0.0754279 0.587374
-0.284764 -0.07541 0.691518
-0.536181 -0.0753918 0.556078
-0.437617 -0.0753734 0.595648
-0.138134 -0.0753593 0.735439
-0.50524 -0.0753499 0.541682
-0.15611 -0.0753309 0.706581
-0.314881 -0.0753117 0.617548
-0.0829565 -0.0752922 0.723883
-0.415622 -0.0752725 0.547941
-0.388294 -0.0752581 0.5517
-0.182468 -0.0752379 0.645041
-0.407103 -0.0752175 0.52317
-0.564733 -0.0751969 0.434822
-0.0233106 -0.075176 0.696019
-0.542549 -0.0751548 0.426905
-0.0588078 -0.0751442 0.658686
-0.237903 -0.0751292 0.559299
-0.0686567 -0.0751075 0.634477
-0.208531 -0.0750856 0.555114
-0.262568 -0.0750634 0.51869
-0.0524582 -0.075041 0.614359
-0.22388 -0.0750183 0.519283
-0.282039 -0.0749954 0.480858
-0.250179 -0.0749798 0.487023
-0.127092 -0.0749565 0.539261
-0.391747 -0.0749447 0.396952
-0.106321 -0.074921 0.530391
-0.101197 -0.0748971 0.5237
-0.150565 -0.0748729 0.489782
-0.530509 -0.0748485 0.290598
-0.457029 -0.0748239 0.318147
0.0547708 -0.0748075 0.564372
-0.264245 -0.0747824 0.395712
-0.359804 -0.0747698 0.338042
-0.400362 -0.0747443 0.308645
-0.0045884 -0.0747186 0.497436
-0.364379 -0.0746928 0.308465
0.029821 -0.0746666 0.496511
-0.415309 -0.0746403 0.264913
-0.354807 -0.0746137 0.286153
-0.0565413 -0.0745869 0.426296
-0.219108 -0.0745734 0.335217
-0.19981 -0.0745556 0.335334
-0.184335 -0.0745282 0.334136
-0.319437 -0.0745006 0.257672
-0.201486 -0.0744728 0.307756
-0.152331 -0.0744447 0.323465
-0.0766199 -0.0744164 0.352473
-0.166995 -0.0744022 0.297573
-0.293595 -0.0743735 0.225461
-0.165751 -0.0743447 0.280593
-0.409754 -0.0743156 0.149825
-0.236757 -0.0742863 0.227579
-0.150329 -0.0742567 0.26207
-0.187611 -0.074227 0.234729
-0.298489 -0.074212 0.169666
-0.21409 -0.0741819 0.203202
-0.201257 -0.0741515 0.200978
-0.164956 -0.0741314 0.20985
-0.369879 -0.0741006 0.0987915
-0.0413225 -0.0740696 0.254496
-0.0968998 -0.074054 0.217157
-0.394562 -0.0740227 0.0597891
-0.197539 -0.0739912 0.149787
-0.139232 -0.0739594 0.17045
-0.00584536 -0.0739274 0.228676
-0.167322 -0.0738952 0.139494
-0.238234 -0.073879 0.0945654
0.0774634 -0.0738464 0.244008
-0.399637 -0.0738137 -0.00292415
-0.516302 -0.0737807 -0.0696153
0.0111363 -0.0737475 0.185769
-0.175013 -0.0737308 0.0832865
-0.458782 -0.0736972 -0.0668951
-0.0848393 -0.0736635 0.111804
-0.276994 -0.0736295 0.00747757
-0.41767 -0.0735953 -0.0710854
-0.113266 -0.0735609 0.0729158
-0.192995 -0.0735436 0.0237244
-0.190871 -0.0735089 0.0166247
-0.458565 -0.0648963 1.99861
-0.658382 -0.0647249 1.89496
-0.777433 -0.0645522 1.83181
-0.439073 -0.0644146 1.99591
-0.696285 -0.0642788 1.86219
-0.599918 -0.0641788 1.90375
-0.617137 -0.0641248 1.88654
-0.753849 -0.064098 1.8084
-0.378283 -0.0640715 1.9864
-0.683544 -0.0640507 1.82375
-0.707412 -0.0640245 1.80203
-0.851477 -0.0639987 1.72021
-0.7486 -0.0639783 1.76162
-0.793212 -0.0639581 1.7293
-0.56985 -0.063938 1.83096
-0.696578 -0.0639131 1.75779
-0.717323 -0.0638934 1.7374
-0.757205 -0.0639029 1.70611
-0.610512 -0.0638785 1.76965
-0.748028 -0.0638591 1.69087
-0.612797 -0.0638399 1.74846
-0.742911 -0.0638209 1.67337
-0.632371 -0.0638251 1.71754
-0.75316 -0.0638062 1.64712
-0.713766 -0.0637876 1.65679
-0.53138 -0.0637955 1.73671
-0.482156 -0.0637731 1.75148
-0.592973 -0.0637586 1.68586
-0.901551 -0.0637623 1.5205
-0.615162 -0.0637442 1.65367
-0.668146 -0.0637264 1.61713
-0.63726 -0.0637298 1.62153
-0.532097 -0.0637154 1.66391
-0.799869 -0.0637185 1.51899
-0.786262 -0.0637011 1.51575
-0.776865 -0.0636869 1.51026
-0.836713 -0.0636896 1.46932
-0.496623 -0.0636727 1.62931
-0.59092 -0.0636779 1.57102
-0.3903 -0.0636612 1.66128
-0.55985 -0.0636636 1.56551
-0.696851 -0.0636471 1.48695
-0.662922 -0.0636516 1.49282
-0.379953 -0.0636353 1.62424
-0.536907 -0.0636393 1.53469
-0.660286 -0.0636233 1.46293
-0.515044 -0.0636269 1.5245
-0.342046 -0.063611 1.60094
-0.568195 -0.0636142 1.47683
-0.638472 -0.0635985 1.43162
-0.508892 -0.0635999 1.48547
-0.624019 -0.0635859 1.41776
-0.434415 -0.0635871 1.50164
-0.641658 -0.0635731 1.38788
-0.618478 -0.0635741 1.38856
-0.549208 -0.0635601 1.41306
-0.514892 -0.0635609 1.41931
-0.291281 -0.0635622 1.52019
-0.566662 -0.0635475 1.37241
-0.373572 -0.0635485 1.45805
-0.539627 -0.0635341 1.36492
-0.616898 -0.0635346 1.31541
-0.432627 -0.0635349 1.39667
-0.720703 -0.0635206 1.24254
-0.304087 -0.0635203 1.44001
-0.476095 -0.0635064 1.3439
-0.476687 -0.0635059 1.33278
-0.520207 -0.0635051 1.30021
-0.804081 -0.0634913 1.14818
-0.584337 -0.0634901 1.24727
-0.616948 -0.0634765 1.22085
-0.369713 -0.0634749 1.33371
-0.710477 -0.0634731 1.15259
-0.765996 -0.0634597 1.11472
-0.797901 -0.0634575 1.08805
-0.175877 -0.063455 1.38835
-0.359045 -0.0634417 1.28667
-0.528849 -0.0634389 1.19109
-0.494629 -0.063426 1.19808
-0.145705 -0.0634227 1.36189
-0.435393 -0.0634192 1.2064
-0.408048 -0.0634064 1.20996
-0.393761 -0.0634026 1.20649
-0.285638 -0.0633985 1.24995
-0.66066 -0.0633941 1.05186
-0.425883 -0.0633813 1.15915
-0.496793 -0.0633766 1.11313
-0.399985 -0.0633717 1.15099
-0.347424 -0.0633616 1.16703
-0.318687 -0.0633564 1.17087
-0.613975 -0.063351 1.01272
-0.317867 -0.0633386 1.15067
-0.448747 -0.0633328 1.07475
-0.419424 -0.0633267 1.07894
-0.425733 -0.0633145 1.06568
-0.465055 -0.063308 1.03559
-0.485725 -0.0633014 1.01483
-0.693913 -0.0632945 0.900326
-0.436607 -0.0632823 1.01889
-0.293657 -0.063275 1.07999
-0.209834 -0.0632675 1.11153
-0.284365 -0.0632555 1.06418
-0.197509 -0.0632476 1.09727
-0.518318 -0.0632395 0.926551
-0.424943 -0.0632312 0.962936
-0.34395 -0.0632192 0.993357
-0.318509 -0.0632105 0.995806
-0.509283 -0.0632016 0.890162
-0.139951 -0.0631898 1.06475
-0.709574 -0.0631804 0.769715
-0.428427 -0.0631709 0.900079
-0.57638 -0.0631612 0.815909
-0.261005 -0.0631512 0.96342
-0.45764 -0.0631411 0.854941
-0.22141 -0.0631308 0.962911
-0.226048 -0.0631202 0.950463
-0.189756 -0.063113 0.958273
-0.0871343 -0.0631011 0.999546
-0.366844 -0.0630901 0.849603
-0.273159 -0.0630788 0.886375
-0.231756 -0.0630674 0.897023
-0.522087 -0.0630555 0.741834
-0.346482 -0.0630437 0.819616
-0.337951 -0.0630316 0.813877
-0.423654 -0.0630194 0.76104
-0.148297 -0.0630069 0.888748
-0.464212 -0.0629942 0.720838
-0.342205 -0.0629814 0.771907
-0.252773 -0.0629683 0.806706
-0.0768775 -0.062955 0.884753
-0.438261 -0.0629416 0.69418
-0.223203 -0.0629279 0.791844
-0.416208 -0.062914 0.685495
-0.217433 -0.0629077 0.774548
-0.401603 -0.0628935 0.672644
-0.069332 -0.0628792 0.828978
-0.360021 -0.0628646 0.67385
-0.239338 -0.0628498 0.724427
-0.396583 -0.0628363 0.63596
-0.373024 -0.0628212 0.63801
-0.216948 -0.0628058 0.706337
-0.570004 -0.0627903 0.520118
-0.282992 -0.0627745 0.65395
-0.30852 -0.0627586 0.631532
-0.132911 -0.0627528 0.709
-0.3437 -0.0627366 0.59398
-0.244888 -0.0627201 0.633779
-0.479868 -0.0627035 0.506701
-0.467536 -0.0626866 0.503299
-0.280897 -0.0626696 0.587069
-0.206259 -0.0626555 0.614644
-0.357583 -0.0626381 0.529471
-0.0378527 -0.0626204 0.679844
-0.139712 -0.0626026 0.619442
-0.216785 -0.0625846 0.571453
-0.326348 -0.0625755 0.506606
-0.464257 -0.0625572 0.428231
-0.25669 -0.0625426 0.522337
-0.334386 -0.0625239 0.474107
-0.102622 -0.0625051 0.580626
-0.344468 -0.062486 0.450361
-0.193469 -0.0624667 0.516538
-0.253826 -0.0624472 0.477058
-0.208186 -0.0624275 0.490596
-0.239341 -0.0624176 0.465053
-0.259101 -0.0624024 0.445585
-0.235145 -0.0623823 0.448333
-0.281638 -0.0623619 0.415878
-0.301321 -0.0623414 0.396848
-0.157244 -0.0623206 0.459719
-0.0926991 -0.0622997 0.482845
-0.346841 -0.0622786 0.346649
-0.177831 -0.0622679 0.42128
-0.270117 -0.0622465 0.366045
-0.237361 -0.0622249 0.373353
-0.297249 -0.0622087 0.333952
-0.255872 -0.0621868 0.345611
-0.237345 -0.0621646 0.345867
-0.325701 -0.0621422 0.292703
-0.333011 -0.0621197 0.280083
-0.288696 -0.0621083 0.292461
-0.39282 -0.0620855 0.231469
-0.268343 -0.0620624 0.284799
0.00501511 -0.0620392 0.412593
0.0368591 -0.0620158 0.419651
-0.259336 -0.0619922 0.262711
-0.0817067 -0.0619684 0.342706
-0.253809 -0.0619564 0.246961
-0.286315 -0.0619388 0.22144
-0.2359 -0.0619146 0.237885
-0.159445 -0.0618901 0.267371
-0.299798 -0.0618655 0.188476
-0.46095 -0.0618406 0.0992037
-0.253467 -0.0618282 0.193324
-0.277273 -0.0618031 0.172761
-0.415658 -0.0617778 0.0949317
-0.156052 -0.0617523 0.216121
-0.267924 -0.0617266 0.151594
-0.0804407 -0.0617008 0.236767
-0.218769 -0.0616878 0.158058
-0.207774 -0.0616616 0.155024
-0.365855 -0.0616353 0.0674759
-0.0250769 -0.0616088 0.229381
-0.204838 -0.0615821 0.131039
-0.235575 -0.0615553 0.107233
-0.183571 -0.0615418 0.123767
-0.12599 -0.0615146 0.144158
-0.145558 -0.0614873 0.125997
-0.32178 -0.0614598 0.0295337
-0.318868 -0.0614321 0.0226605
-0.385308 -0.0614181 -0.0199619
-0.082002 -0.0613902 0.1234
-0.231046 -0.061362 0.0406116
0.0173257 -0.0613337 0.156555
-0.145561 -0.0613052 0.0668931
-0.200434 -0.0612765 0.0312619
-0.253061 -0.061262 -0.00437327
-0.220831 -0.0612331 0.003586
-0.648785 -0.051771 1.87812
-0.725805 -0.0516604 1.83456
-0.490729 -0.0515776 1.94557
-0.573427 -0.0515273 1.89595
-0.691521 -0.0514774 1.82864
-0.748753 -0.0514322 1.79152
-0.687605 -0.0514098 1.81235
-0.898008 -0.0513652 1.69864
-0.89468 -0.0513432 1.69057
-0.540333 -0.0513213 1.858
-0.632088 -0.0512996 1.80238
-0.886768 -0.0512605 1.66629
-0.495412 -0.0512644 1.8508
-0.92497 -0.0512221 1.62747
-0.785972 -0.0512258 1.68582
-0.519275 -0.051205 1.80942
-0.731393 -0.0511879 1.6934
-0.678779 -0.051171 1.70975
-0.600076 -0.0511543 1.73915
-0.700274 -0.0511376 1.67909
-0.839815 -0.0511211 1.59936
-0.61504 -0.0511243 1.70064
-0.562058 -0.0511079 1.71717
-0.626961 -0.0510917 1.67476
-0.494548 -0.0510946 1.72989
-0.600238 -0.0510785 1.66708
-0.541787 -0.0510626 1.68635
-0.57447 -0.0510653 1.65894
-0.864957 -0.0510495 1.50373
-0.670537 -0.0510365 1.59083
-0.860241 -0.0510389 1.48493
-0.379719 -0.0510234 1.71523
-0.606584 -0.0510257 1.59076
-0.415841 -0.0510104 1.67617
-0.489304 -0.0509975 1.62933
-0.775849 -0.0509995 1.47504
-0.53787 -0.0509846 1.58406
-0.56331 -0.0509883 1.56022
-0.364075 -0.0509735 1.64987
-0.720075 -0.0509752 1.46087
-0.63208 -0.0509606 1.4949
-0.495586 -0.0509638 1.55206
-0.587526 -0.0509493 1.49612
-0.498856 -0.0509365 1.53038
-0.293344 -0.0509378 1.62218
-0.705429 -0.0509403 1.4051
-0.362365 -0.050925 1.56673
-0.704595 -0.0509282 1.38453
-0.576606 -0.0509133 1.43861
-0.318357 -0.0509151 1.55674
-0.726063 -0.0509014 1.3429
-0.348262 -0.0509029 1.52083
-0.666584 -0.0508894 1.35168
-0.516862 -0.0508906 1.41559
-0.429938 -0.0508777 1.44903
-0.60815 -0.0508781 1.34903
-0.486229 -0.0508652 1.39998
-0.63902 -0.0508654 1.3127
-0.710312 -0.0508657 1.26617
-0.516738 -0.0508527 1.35296
-0.563688 -0.0508526 1.31863
-0.834009 -0.0508398 1.17347
-0.6869 -0.0508394 1.23619
-0.421654 -0.0508389 1.35799
-0.453468 -0.0508261 1.33209
-0.60894 -0.0508253 1.24356
-0.465322 -0.0508127 1.30537
-0.41569 -0.0508115 1.31941
-0.622758 -0.0508102 1.20512
-0.546606 -0.0507977 1.2332
-0.651532 -0.050796 1.17
-0.663848 -0.0507838 1.15384
-0.35485 -0.0507818 1.29763
-0.276528 -0.0507796 1.3261
-0.60249 -0.0507772 1.15244
-0.623293 -0.050765 1.13205
-0.5645 -0.0507623 1.1508
-0.566221 -0.0507517 1.13984
-0.18008 -0.0507488 1.32228
-0.208584 -0.0507457 1.29741
-0.314466 -0.0507339 1.23446
-0.487094 -0.0507304 1.13756
-0.501962 -0.0507268 1.11955
-0.417304 -0.0507152 1.15188
-0.483123 -0.0507112 1.10843
-0.389922 -0.0507071 1.14449
-0.468975 -0.0506956 1.09497
-0.328742 -0.0506911 1.15458
-0.502549 -0.0506865 1.05719
-0.485981 -0.0506751 1.05548
-0.499845 -0.0506702 1.03808
-0.376911 -0.0506651 1.0891
-0.398748 -0.0506598 1.06775
-0.494599 -0.0506484 1.00985
-0.311362 -0.0506428 1.09107
-0.447893 -0.0506371 1.01241
-0.290006 -0.0506311 1.08098
-0.411139 -0.0506228 1.01023
-0.329299 -0.0506166 1.0408
-0.54481 -0.0506103 0.922707
-0.438539 -0.0505991 0.965876
-0.306648 -0.0505924 1.02152
-0.494439 -0.0505856 0.917335
-0.377114 -0.0505786 0.965725
-0.496868 -0.0505674 0.895899
-0.4585 -0.0505601 0.904841
-0.314982 -0.0505526 0.966375
-0.44745 -0.050545 0.889932
-0.20405 -0.0505338 1.0017
-0.164594 -0.0505259 1.01125
-0.446373 -0.0505177 0.860198
-0.561683 -0.0505067 0.792611
-0.262705 -0.0504983 0.931971
-0.0947245 -0.0504896 1.00585
-0.379974 -0.0504809 0.853128
-0.440478 -0.0504719 0.812797
-0.360236 -0.0504628 0.842856
-0.434025 -0.0504536 0.795915
-0.395892 -0.0504468 0.804741
-0.484304 -0.0504373 0.750515
-0.409536 -0.0504262 0.778009
-0.285491 -0.0504164 0.830046
-0.336919 -0.0504064 0.794363
-0.409487 -0.0503963 0.748128
0.00817409 -0.050386 0.947025
-0.447997 -0.0503748 0.709084
-0.536033 -0.0503642 0.655166
-0.200393 -0.0503534 0.813104
-0.20958 -0.0503424 0.798647
-0.401038 -0.0503313 0.693072
-0.259217 -0.0503201 0.754154
-0.282779 -0.0503086 0.732563
-0.34463 -0.0503028 0.691374
-0.241939 -0.0502911 0.732937
-0.209501 -0.0502793 0.739392
-0.385607 -0.0502673 0.641593
-0.3093 -0.0502552 0.670019
-0.32032 -0.0502429 0.6548
-0.302798 -0.0502304 0.653871
-0.32286 -0.0502178 0.634169
-0.31567 -0.050205 0.628111
-0.293323 -0.0501921 0.629651
-0.205323 -0.050179 0.664036
-0.367441 -0.0501657 0.573382
-0.188356 -0.0501597 0.652723
-0.40752 -0.0501462 0.533574
-0.0665184 -0.0501325 0.694528
-0.441961 -0.0501187 0.497279
-0.473965 -0.0501047 0.471769
-0.208577 -0.0500906 0.594974
-0.107842 -0.0500763 0.635873
-0.2891 -0.0500632 0.535681
-0.338856 -0.0500486 0.501372
-0.197125 -0.0500339 0.562827
-0.310822 -0.0500264 0.495938
-0.366374 -0.0500115 0.458783
-0.216502 -0.0499963 0.524361
-0.317471 -0.049981 0.464538
-0.231441 -0.0499676 0.49806
-0.0985446 -0.049952 0.555209
-0.194965 -0.0499362 0.49772
-0.42721 -0.0499203 0.372339
-0.262761 -0.0499123 0.444612
-0.246327 -0.0498961 0.443604
-0.198834 -0.0498798 0.458145
-0.380223 -0.0498634 0.358267
-0.129212 -0.0498467 0.47461
-0.124827 -0.0498326 0.467421
-0.234534 -0.0498157 0.403445
-0.431127 -0.0497986 0.296047
-0.484424 -0.0497901 0.259539
-0.217202 -0.0497728 0.384083
-0.269983 -0.0497553 0.348646
-0.0562139 -0.0497377 0.446507
-0.205604 -0.0497199 0.362809
-0.0933756 -0.049702 0.409941
-0.285178 -0.0496839 0.305081
-0.288261 -0.0496657 0.294601
-0.104383 -0.0496599 0.376468
-0.09734 -0.0496415 0.371085
-0.429811 -0.0496229 0.195967
-0.153428 -0.0496041 0.325298
-0.132026 -0.0495852 0.32716
-0.0230414 -0.0495662 0.372836
-0.366462 -0.0495566 0.191434
-0.239429 -0.0495373 0.24617
-0.00328542 -0.0495179 0.355483
-0.343583 -0.0494983 0.176599
-0.169729 -0.0494785 0.254813
-0.363662 -0.0494587 0.149155
-0.219684 -0.0494487 0.211527
-0.172589 -0.0494286 0.22642
-0.417346 -0.0494083 0.0954103
-0.0678282 -0.0493879 0.261561
-0.205628 -0.0493714 0.183686
-0.145037 -0.0493507 0.205417
0.0434063 -0.0493403 0.290096
-0.257958 -0.0493194 0.130886
-0.323053 -0.0492983 0.089835
-0.447697 -0.0492771 0.0190322
-0.0787318 -0.0492557 0.195058
-0.0920119 -0.0492342 0.179984
-0.105446 -0.0492234 0.163802
-0.24452 -0.0492017 0.0858687
-0.0687239 -0.0491798 0.165394
-0.18961 -0.0491578 0.0966025
-0.036909 -0.0491356 0.164628
-0.139636 -0.0491244 0.103865
-0.35642 -0.049102 -0.0128142
-0.382659 -0.0490795 -0.0341966
-0.382333 -0.0490568 -0.0422724
-0.116777 -0.049034 0.0822912
-0.310117 -0.049011 -0.0225694
0.0646547 -0.0489994 0.155498
-0.378858 -0.0489763 -0.0744102
-0.701937 -0.0388402 1.79538
-0.525358 -0.0387571 1.87874
-0.807581 -0.0386981 1.73097
-0.390654 -0.03866 1.93124
-0.633348 -0.0386222 1.8017
-0.54373 -0.0386049 1.83681
-0.726756 -0.0385706 1.73688
-0.923186 -0.0385535 1.62897
-0.640451 -0.0385366 1.76064
-0.697069 -0.0385198 1.72263
-0.873181 -0.0384892 1.62594
-0.413764 -0.0384728 1.84595
-0.535813 -0.038459 1.77503
-0.636105 -0.0384615 1.71373
-0.510585 -0.0384453 1.7668
-0.793386 -0.0384317 1.61551
-0.369669 -0.0384182 1.81748
-0.588832 -0.0384047 1.69801
-0.702924 -0.0383914 1.63107
-0.547986 -0.0383782 1.69865
-0.686564 -0.0383802 1.61827
-0.501472 -0.038365 1.7011
-0.632166 -0.038354 1.6257
-0.358867 -0.0383411 1.75246
-0.823847 -0.0383429 1.50891
-0.574445 -0.0383301 1.62372
-0.649944 -0.0383174 1.57608
-0.65565 -0.0383191 1.56218
-0.437078 -0.0383065 1.66158
-0.650878 -0.0383096 1.54352
-0.545747 -0.0382956 1.58632
-0.346606 -0.0382847 1.67588
-0.831765 -0.0382861 1.42229
-0.497286 -0.0382739 1.57964
-0.643971 -0.0382764 1.49519
-0.622182 -0.0382643 1.49619
-0.695605 -0.0382665 1.4484
-0.597283 -0.0382534 1.48776
-0.679144 -0.0382554 1.43577
-0.469873 -0.0382435 1.53051
-0.564963 -0.0382327 1.473
-0.526141 -0.0382335 1.48145
-0.688252 -0.038235 1.38938
-0.40881 -0.0382227 1.51927
-0.687844 -0.0382246 1.3687
-0.504141 -0.0382125 1.45072
-0.694553 -0.0382135 1.34454
-0.624343 -0.0382022 1.36975
-0.513487 -0.038203 1.41423
-0.428471 -0.0381917 1.44684
-0.695739 -0.0381923 1.30228
-0.638221 -0.0381811 1.32114
-0.404612 -0.0381814 1.42705
-0.531013 -0.0381705 1.35395
-0.474546 -0.0381705 1.37131
-0.763678 -0.0381703 1.21589
-0.469673 -0.0381595 1.35299
-0.478865 -0.0381591 1.33756
-0.355305 -0.0381483 1.38944
-0.515004 -0.0381477 1.29878
-0.350452 -0.0381371 1.37116
-0.560822 -0.0381363 1.25519
-0.606904 -0.0381353 1.22137
-0.455554 -0.0381247 1.28716
-0.512759 -0.0381235 1.24781
-0.521052 -0.0381222 1.23293
-0.549951 -0.0381116 1.20859
-0.36508 -0.03811 1.29032
-0.500983 -0.0381006 1.2124
-0.576713 -0.0380988 1.16385
-0.372576 -0.0380969 1.25525
-0.533033 -0.0380867 1.16513
-0.666209 -0.0380845 1.08789
-0.568204 -0.0380822 1.12627
-0.609541 -0.0380721 1.09571
-0.294434 -0.0380696 1.24266
-0.220941 -0.0380669 1.26882
-0.317387 -0.0380569 1.21072
-0.473356 -0.038054 1.12217
-0.311485 -0.0380509 1.19256
-0.464784 -0.038041 1.10604
-0.236039 -0.0380377 1.20989
-0.379829 -0.0380343 1.1275
-0.487283 -0.0380262 1.06372
-0.266661 -0.0380226 1.16356
-0.57153 -0.0380189 1.00066
-0.276578 -0.0380092 1.13826
-0.46635 -0.0380052 1.03294
-0.367887 -0.0380011 1.07175
-0.553067 -0.0379969 0.968751
-0.564978 -0.0379872 0.952939
-0.617217 -0.0379827 0.916444
-0.450623 -0.0379782 0.989382
-0.438592 -0.0379685 0.985543
-0.446459 -0.0379637 0.971281
-0.393273 -0.0379588 0.98756
-0.409573 -0.0379537 0.969112
-0.368574 -0.0379441 0.979776
-0.450073 -0.0379388 0.92876
-0.379357 -0.0379333 0.953867
-0.600337 -0.0379277 0.833142
-0.0920599 -0.037921 1.07717
-0.347878 -0.0379152 0.939053
-0.452219 -0.0379094 0.876688
-0.262039 -0.0379034 0.9616
-0.204017 -0.0378938 0.980806
-0.211074 -0.0378876 0.967132
-0.274408 -0.0378812 0.925337
-0.517165 -0.0378748 0.793845
-0.478562 -0.0378652 0.803361
-0.0650242 -0.0378585 1.00005
-0.554844 -0.0378516 0.745078
-0.569846 -0.0378447 0.727531
-0.449522 -0.0378351 0.777926
-0.17886 -0.0378279 0.903245
-0.266256 -0.0378206 0.849552
-0.316737 -0.0378132 0.814334
-0.161793 -0.037808 0.881584
-0.281082 -0.0377998 0.812057
-0.47337 -0.037792 0.70598
-0.352422 -0.0377842 0.756538
-0.4761 -0.0377762 0.6848
-0.403093 -0.0377666 0.711584
-0.405799 -0.0377584 0.700368
-0.185433 -0.03775 0.800706
-0.38616 -0.0377416 0.690515
-0.268966 -0.037733 0.739303
-0.467914 -0.0377233 0.630146
-0.137282 -0.0377145 0.785689
-0.173644 -0.0377065 0.757646
-0.340038 -0.037701 0.664318
-0.379952 -0.0376919 0.634634
-0.117103 -0.0376827 0.756351
-0.266646 -0.0376728 0.671945
-0.018834 -0.0376634 0.78618
-0.316592 -0.0376538 0.627649
-0.260291 -0.0376441 0.646167
-0.393102 -0.0376342 0.570148
-0.294096 -0.0376243 0.610056
-0.301522 -0.0376142 0.596767
-0.000954667 -0.0376044 0.737445
-0.364633 -0.0375989 0.54553
-0.26796 -0.0375885 0.584341
-0.217738 -0.037578 0.599946
-0.364413 -0.0375674 0.517121
-0.342092 -0.0375567 0.518814
-0.306361 -0.0375458 0.527232
-0.495261 -0.0375349 0.423355
-0.347253 -0.0375238 0.487951
-0.326712 -0.0375127 0.488823
-0.314766 -0.037507 0.484769
-0.363311 -0.0374957 0.45114
-0.211297 -0.0374842 0.51781
-0.323596 -0.0374726 0.452345
-0.238794 -0.0374608 0.48545
-0.198728 -0.037449 0.496207
0.0215979 -0.037437 0.597116
-0.315263 -0.0374256 0.41938
-0.242858 -0.0374195 0.445645
-0.280681 -0.0374073 0.41753
-0.472236 -0.0373949 0.312572
-0.131184 -0.0373824 0.473937
-0.381917 -0.0373698 0.339431
-0.163123 -0.0373571 0.43971
-0.246344 -0.0373443 0.389002
-0.189821 -0.0373314 0.408188
-0.106149 -0.0373248 0.44018
-0.124045 -0.0373129 0.422053
-0.141584 -0.0372996 0.404262
-0.4473 -0.0372863 0.242403
-0.266852 -0.0372728 0.323649
-0.13155 -0.0372593 0.382343
-0.479392 -0.0372456 0.199487
-0.205512 -0.0372387 0.326666
-0.270372 -0.0372249 0.285336
-0.261189 -0.0372109 0.281049
-0.18776 -0.0371968 0.308907
-0.457285 -0.0371826 0.165311
-0.237507 -0.0371683 0.266389
-0.191139 -0.0371555 0.280575
-0.200323 -0.0371483 0.266307
-0.332286 -0.0371337 0.19157
-0.000105874 -0.037119 0.348928
-0.165449 -0.0371042 0.257546
-0.158076 -0.0370893 0.252545
-0.133121 -0.0370742 0.256358
-0.267363 -0.0370667 0.179636
-0.445915 -0.0370514 0.0817318
-0.192809 -0.0370361 0.199679
-0.207604 -0.0370207 0.1837
-0.057846 -0.0370051 0.25002
-0.17751 -0.0369895 0.181652
-0.0445137 -0.0369816 0.238625
-0.193108 -0.0369658 0.155829
-0.0962332 -0.0369498 0.195791
-0.162107 -0.0369338 0.154402
-0.118003 -0.0369176 0.168026
-0.448598 -0.0369095 -0.0067324
-0.363135 -0.0368932 0.027608
-0.258436 -0.0368768 0.0715908
-0.226545 -0.0368602 0.0791927
-0.295133 -0.0368435 0.0365791
-0.0498949 -0.0368268 0.150903
-0.349383 -0.0368184 -0.00822235
-0.236515 -0.0368014 0.0399542
-0.516443 -0.0367844 -0.108243
-0.214856 -0.0367672 0.0343417
-0.209754 -0.03675 0.0287082
-0.181336 -0.0367413 0.0336025
-0.071018 -0.0367239 0.0806157
-0.810884 -0.0258991 1.68497
-0.370873 -0.0258436 1.90017
-0.498863 -0.0258041 1.82962
-0.810826 -0.0257921 1.66397
-0.482939 -0.0257667 1.8198
-0.498331 -0.0257432 1.80379
-0.589121 -0.0257315 1.74874
-0.748601 -0.0257199 1.65934
-0.523145 -0.0257084 1.76242
-0.481026 -0.0256985 1.77364
-0.468828 -0.0256871 1.77009
-0.503705 -0.0256661 1.74414
-0.68122 -0.0256675 1.64425
-0.824609 -0.0256564 1.56291
-0.531698 -0.0256468 1.69954
-0.703609 -0.0256372 1.60377
-0.637305 -0.0256263 1.62726
-0.741539 -0.0256182 1.56518
-0.556363 -0.0256194 1.64667
-0.646451 -0.0256088 1.59197
-0.653433 -0.0255994 1.57866
-0.550495 -0.0255902 1.62032
-0.498932 -0.0255924 1.63491
-0.787541 -0.0255821 1.48093
-0.651401 -0.025574 1.53906
-0.412835 -0.0255649 1.64854
-0.483228 -0.0255658 1.60231
-0.615148 -0.0255568 1.52654
-0.588346 -0.0255585 1.52881
-0.617603 -0.0255488 1.50448
-0.539842 -0.0255407 1.53346
-0.431873 -0.0255414 1.57644
-0.672731 -0.0255327 1.44621
-0.424667 -0.025534 1.55917
-0.418862 -0.0255247 1.55235
-0.536285 -0.0255258 1.48258
-0.706278 -0.0255172 1.38779
-0.678731 -0.0255092 1.39169
-0.539684 -0.0255096 1.45026
-0.346422 -0.0255104 1.53589
-0.422842 -0.0255015 1.48793
-0.383771 -0.0255025 1.49644
-0.333213 -0.0254938 1.51196
-0.638514 -0.0254943 1.34836
-0.567624 -0.025486 1.374
-0.355865 -0.0254863 1.46895
-0.635677 -0.0254781 1.31925
-0.485631 -0.0254783 1.38336
-0.543835 -0.0254701 1.34446
-0.336473 -0.0254701 1.43727
-0.638452 -0.025462 1.27647
-0.49403 -0.0254618 1.33783
-0.477121 -0.0254616 1.33545
-0.269459 -0.0254535 1.42949
-0.372913 -0.0254531 1.36695
-0.479724 -0.0254451 1.30375
-0.375848 -0.0254445 1.3449
-0.826642 -0.0254367 1.10971
-0.472962 -0.0254359 1.27579
-0.33605 -0.025435 1.3335
-0.531267 -0.0254277 1.22604
-0.425704 -0.0254267 1.2681
-0.42815 -0.0254251 1.25624
-0.441692 -0.0254179 1.23961
-0.32598 -0.0254167 1.28678
-0.336287 -0.025409 1.27184
-0.542633 -0.0254076 1.15801
-0.482253 -0.0254061 1.17756
-0.425091 -0.0253985 1.19636
-0.628705 -0.0253969 1.08394
-0.323796 -0.0253951 1.22579
-0.487134 -0.0253876 1.13435
-0.478534 -0.0253857 1.12808
-0.470563 -0.0253837 1.1215
-0.269621 -0.0253772 1.21206
-0.656031 -0.0253751 1.00832
-0.453425 -0.0253729 1.0991
-0.42669 -0.0253655 1.10271
-0.438334 -0.0253632 1.08639
-0.523003 -0.0253607 1.03358
-0.660172 -0.0253534 0.955241
-0.361399 -0.0253508 1.09418
-0.705643 -0.0253481 0.911627
-0.422513 -0.0253408 1.04344
-0.313753 -0.0253379 1.08742
-0.51148 -0.025335 0.97817
-0.168148 -0.0253278 1.14009
-0.388015 -0.0253247 1.0198
-0.45565 -0.0253215 0.975643
-0.31639 -0.0253182 1.03495
-0.528788 -0.0253127 0.918771
-0.439168 -0.0253093 0.95328
-0.45883 -0.0253058 0.933165
-0.315462 -0.0253023 0.99458
-0.182051 -0.0252951 1.05157
-0.433037 -0.0252914 0.915845
-0.403223 -0.0252876 0.920531
-0.435864 -0.0252837 0.894006
-0.114156 -0.0252765 1.04517
-0.15163 -0.0252724 1.01626
-0.40544 -0.0252683 0.8792
-0.328427 -0.0252612 0.90802
-0.234859 -0.0252591 0.944346
-0.333379 -0.0252547 0.884972
-0.315714 -0.0252503 0.883708
-0.597809 -0.0252458 0.732581
-0.378353 -0.0252387 0.832653
-0.471086 -0.025234 0.77624
-0.277692 -0.0252293 0.862908
-0.380368 -0.0252245 0.801558
-0.304118 -0.0252173 0.830048
-0.427719 -0.0252124 0.75827
-0.279577 -0.0252073 0.82238
-0.20979 -0.0252022 0.847331
-0.248163 -0.025197 0.818219
-0.517138 -0.0251917 0.673823
-0.468166 -0.0251863 0.688419
-0.11984 -0.0251808 0.852709
-0.276378 -0.0251761 0.764445
-0.305228 -0.0251706 0.740176
-0.331048 -0.0251633 0.7177
-0.345518 -0.0251576 0.700657
-0.222655 -0.0251518 0.752298
-0.382119 -0.0251459 0.662794
-0.211187 -0.0251399 0.738506
-0.440575 -0.0251326 0.614286
-0.238539 -0.0251265 0.705587
-0.41835 -0.0251215 0.605774
-0.326104 -0.0251171 0.641899
-0.219524 -0.0251108 0.68552
-0.21012 -0.0251044 0.680572
-0.283318 -0.025097 0.634497
-0.300895 -0.0250904 0.616096
-0.23937 -0.0250838 0.637265
-0.434195 -0.025077 0.530278
-0.351839 -0.0250702 0.561901
-0.206192 -0.0250633 0.625189
-0.276725 -0.0250564 0.580406
-0.265249 -0.0250502 0.576495
-0.458343 -0.0250452 0.470109
-0.333502 -0.025038 0.523063
-0.454976 -0.0250308 0.45288
-0.212494 -0.0250235 0.564694
-0.00713886 -0.0250161 0.657965
-0.293005 -0.0250084 0.505687
-0.339481 -0.0250008 0.473082
-0.278861 -0.024994 0.49391
-0.46985 -0.0249894 0.388547
-0.316613 -0.0249816 0.45585
-0.121682 -0.0249738 0.544021
-0.429565 -0.0249659 0.380805
-0.369321 -0.0249579 0.401673
-0.0476953 -0.0249499 0.553253
-0.368665 -0.0249417 0.383556
-0.172443 -0.0249337 0.472442
-0.241069 -0.0249294 0.42825
0.00686217 -0.0249211 0.543058
-0.356393 -0.0249127 0.352293
-0.23762 -0.0249042 0.402563
-0.512388 -0.0248956 0.256085
-0.313094 -0.024887 0.346659
-0.250867 -0.0248783 0.36872
-0.14891 -0.0248739 0.409868
-0.188873 -0.024865 0.380868
-0.117763 -0.0248561 0.407427
-0.233597 -0.0248472 0.340535
-0.253733 -0.0248381 0.321514
-0.409791 -0.0248291 0.23452
-0.272152 -0.0248199 0.294429
-0.515518 -0.0248153 0.162999
-0.317747 -0.024806 0.25301
-0.164536 -0.0247966 0.320762
-0.245649 -0.0247871 0.271374
0.0169335 -0.0247775 0.393857
-0.27175 -0.0247679 0.240729
-0.233754 -0.0247631 0.250053
-0.512219 -0.0247533 0.10207
-0.321924 -0.0247435 0.188489
-0.188442 -0.0247336 0.246525
-0.347714 -0.0247236 0.158206
-0.0661474 -0.0247136 0.290329
-0.170099 -0.0247085 0.228755
-0.572041 -0.0246984 0.0191603
-0.385284 -0.0246881 0.103939
-0.0485007 -0.0246784 0.263641
-0.248778 -0.024668 0.154947
-0.0208251 -0.0246576 0.260391
-0.0177399 -0.0246523 0.252411
-0.276047 -0.0246418 0.114761
0.0245479 -0.0246311 0.256587
-0.29543 -0.0246204 0.0881496
-0.386315 -0.0246096 0.0342817
-0.171773 -0.0246042 0.132094
-0.185573 -0.0245933 0.116807
-0.260002 -0.0245823 0.0712287
-0.239515 -0.0245713 0.0731326
-0.0885737 -0.0245602 0.140287
-0.151344 -0.024549 0.10061
-0.344991 -0.0245434 -0.00559245
-0.269392 -0.0245321 0.0239536
-0.398688 -0.0245207 -0.048924
-0.224965 -0.0245092 0.0297322
-0.280264 -0.0244977 -0.00609825
-0.0956947 -0.0244919 0.0768742
-0.123615 -0.0244803 0.054772
-0.510312 -0.0129582 1.77796
-0.397875 -0.0129373 1.82791
-0.521085 -0.0129173 1.75986
-0.607109 -0.0129044 1.70882
-0.465619 -0.0128923 1.77135
-0.637211 -0.0128862 1.67595
-0.340023 -0.0128743 1.81634
-0.507547 -0.0128683 1.72297
-0.613014 -0.0128624 1.66064
-0.623234 -0.0128572 1.64577
-0.28689 -0.0128456 1.80571
-0.627654 -0.0128462 1.62421
-0.580468 -0.0128405 1.6382
-0.302458 -0.0128354 1.76746
-0.39015 -0.0128303 1.71387
-0.851608 -0.0128253 1.4734
-0.492916 -0.0128202 1.64301
-0.491528 -0.0128208 1.63262
-0.565858 -0.0128153 1.58585
-0.826212 -0.0128103 1.44594
-0.654934 -0.0128058 1.52173
-0.53005 -0.0128063 1.57312
-0.364686 -0.0128009 1.64619
-0.361935 -0.0127965 1.63773
-0.750094 -0.0127917 1.43393
-0.310546 -0.012792 1.64268
-0.288475 -0.0127872 1.64399
-0.409878 -0.0127876 1.57228
-0.562069 -0.0127828 1.48647
-0.747089 -0.0127784 1.38416
-0.497848 -0.0127786 1.4978
-0.579123 -0.012774 1.44744
-0.548145 -0.0127742 1.45196
-0.522609 -0.0127697 1.45495
-0.578376 -0.0127699 1.41611
-0.525176 -0.0127653 1.433
-0.844554 -0.0127656 1.26233
-0.601664 -0.012761 1.37407
-0.407818 -0.0127612 1.46003
-0.467989 -0.0127566 1.42026
-0.485762 -0.0127567 1.40044
-0.752261 -0.0127522 1.25748
-0.649063 -0.0127523 1.29817
-0.397446 -0.0127478 1.41428
-0.578072 -0.0127477 1.31309
-0.474938 -0.0127433 1.35494
-0.538333 -0.0127432 1.31239
-0.517306 -0.0127388 1.3132
-0.573972 -0.0127386 1.27404
-0.600071 -0.0127343 1.25128
-0.754667 -0.012734 1.16318
-0.19591 -0.0127336 1.43177
-0.435107 -0.0127293 1.30248
-0.644859 -0.0127289 1.18684
-0.500104 -0.0127284 1.24847
-0.453568 -0.0127243 1.26199
-0.567912 -0.0127238 1.19409
-0.384315 -0.0127196 1.27621
-0.489585 -0.012719 1.21287
-0.455805 -0.0127147 1.22008
-0.400859 -0.0127141 1.23688
-0.399158 -0.0127133 1.22707
-0.424324 -0.0127091 1.20481
-0.360794 -0.0127083 1.22595
-0.353827 -0.0127075 1.21882
-0.448157 -0.0127037 1.16186
-0.488427 -0.0127028 1.13113
-0.349915 -0.0127014 1.18995
-0.454049 -0.0126977 1.12808
-0.372988 -0.0126967 1.15806
-0.430245 -0.0126956 1.1189
-0.341716 -0.0126915 1.15351
-0.374807 -0.0126903 1.12646
-0.337961 -0.0126891 1.13439
-0.379256 -0.012685 1.1041
-0.282852 -0.0126837 1.14184
-0.240269 -0.0126824 1.15269
-0.256015 -0.0126783 1.13518
-0.495341 -0.0126769 1.00511
-0.455899 -0.0126762 1.01421
-0.327308 -0.0126722 1.06887
-0.389429 -0.0126706 1.02744
-0.43079 -0.0126691 0.996398
-0.353323 -0.0126675 1.02479
-0.398034 -0.0126635 0.992823
-0.33175 -0.0126618 1.01565
-0.359306 -0.0126601 0.991578
-0.348102 -0.0126561 0.987577
-0.367018 -0.0126542 0.967855
-0.44461 -0.0126524 0.91881
-0.448706 -0.0126505 0.906529
