ply
format ascii 1.0
comment Created by Open3D
element vertex 1748
property double x
property double y
property double z
end_header
-0.234478 -0.0372171 0.367822
-0.141726 -0.037209 0.404592
-0.264233 -0.0372006 0.333765
-0.278134 -0.037192 0.317271
-0.243139 -0.0371832 0.325256
-0.207783 -0.0371742 0.333453
-0.267313 -0.0371649 0.294239
-0.223346 -0.0371555 0.306805
-0.230751 -0.0371458 0.293716
-0.266597 -0.0371359 0.266439
-0.223018 -0.0371258 0.278907
-0.239726 -0.0371155 0.261263
-0.195113 -0.037105 0.274312
-0.308304 -0.0370943 0.208491
-0.181588 -0.0370833 0.262656
-0.216613 -0.0370722 0.235984
-0.16402 -0.0370608 0.253154
-0.213455 -0.0370492 0.219342
-0.263517 -0.0370375 0.18525
-0.233312 -0.0370285 0.190947
-0.244545 -0.0370194 0.175936
-0.177949 -0.0370071 0.200258
-0.202067 -0.0369946 0.179256
-0.239152 -0.0369819 0.151805
-0.198188 -0.0369689 0.163412
-0.277275 -0.0369533 0.115347
-0.284895 -0.03694 0.102729
-0.158342 -0.0369264 0.157233
-0.183771 -0.0369127 0.135779
-0.148466 -0.0368988 0.144726
-0.257718 -0.0368846 0.08143
-0.204734 -0.0368703 0.0992861
-0.151601 -0.0368557 0.117251
-0.1776 -0.036841 0.0956851
-0.174115 -0.036826 0.0888962
-0.248253 -0.0368108 0.0433301
-0.266687 -0.0367955 0.0256516
-0.142364 -0.0367877 0.0783573
-0.184754 -0.0367721 0.0487556
-0.209706 -0.0367562 0.0279081
-0.183285 -0.0367401 0.0327828
-0.247125 -0.0367239 -0.00743768
-0.998183 -0.0247095 1.74608
-1.05502 -0.0246873 1.70959
-0.954704 -0.0246649 1.75171
-0.956165 -0.0246424 1.74299
-1.05353 -0.0246196 1.68636
-1.02536 -0.0245966 1.69254
-0.999199 -0.0245734 1.69776
-1.00802 -0.0245616 1.6842
-1.08086 -0.0245378 1.64003
-1.07183 -0.0245136 1.63685
-1.01751 -0.0244889 1.65641
-0.994129 -0.0244741 1.65935
-1.08935 -0.0244477 1.60437
-1.1251 -0.0244204 1.57925
-1.06402 -0.0244063 1.60101
-1.1265 -0.024392 1.56103
-1.0933 -0.0243574 1.57131
-1.09114 -0.0243419 1.56382
-1.07585 -0.0243206 1.5636
-1.17383 -0.0242991 1.5068
-0.963538 -0.0242775 1.60415
-1.11975 -0.0242564 1.51822
-1.04189 -0.0242307 1.5499
-1.10374 -0.0242115 1.51095
-0.995171 -0.0241883 1.55771
-1.13039 -0.0241665 1.48244
-1.13523 -0.0241557 1.47102
-1.12196 -0.0241348 1.4699
-1.11173 -0.0241094 1.46785
-1.1433 -0.0240846 1.44484
-1.14594 -0.0240664 1.43549
-1.17401 -0.0240427 1.41413
-1.13239 -0.0240195 1.42758
-1.13573 -0.0239965 1.41854
-1.13641 -0.0239805 1.40996
-1.09538 -0.0239581 1.42306
-1.08792 -0.0239359 1.41937
-1.09271 -0.0239139 1.40956
-1.09185 -0.0238994 1.40163
-1.08626 -0.0238777 1.397
-1.13235 -0.0238651 1.36537
-1.1588 -0.0238898 1.33876
-1.17692 -0.0239225 1.31527
-1.05414 -0.0239546 1.36226
-1.16879 -0.0239755 1.29198
-0.963521 -0.0240069 1.38028
-1.04825 -0.0240301 1.32462
-0.970762 -0.0240606 1.34908
-1.08308 -0.0240832 1.27966
-1.06734 -0.0241129 1.27331
-1.06055 -0.0241422 1.26252
-0.9447 -0.0241537 1.30859
-0.984403 -0.0241822 1.27461
-1.05348 -0.0242033 1.22692
-0.807356 -0.0242309 1.33592
-0.954957 -0.0242513 1.24901
-1.03128 -0.0242715 1.19777
-0.873476 -0.0242913 1.2636
-0.895741 -0.0243081 1.23981
-0.866726 -0.0243274 1.2413
-0.937424 -0.0243464 1.19295
-0.841887 -0.0243713 1.2269
-0.824895 -0.0243896 1.22246
-0.895253 -0.0244076 1.17436
-0.867897 -0.0244254 1.17515
-0.854797 -0.0244428 1.16884
-0.809394 -0.0244573 1.17907
-0.849599 -0.0244686 1.14695
-0.770831 -0.0244852 1.17354
-0.827356 -0.0245016 1.13251
-0.809653 -0.0245176 1.12863
-0.787388 -0.0245334 1.12705
-0.738695 -0.0245488 1.13872
-0.796957 -0.024564 1.09694
-0.758952 -0.0245739 1.10403
-0.739639 -0.0245886 1.10109
-0.701843 -0.0246004 1.10778
-0.719223 -0.0246098 1.08723
-0.711343 -0.0246236 1.07865
-0.673135 -0.0246371 1.08528
-0.742345 -0.0246503 1.03823
-0.718619 -0.0246589 1.0383
-0.702742 -0.0246716 1.03385
-0.691496 -0.024684 1.02711
-0.577038 -0.0246921 1.07261
-0.578833 -0.0247039 1.05941
-0.652415 -0.0247116 1.01092
-0.659642 -0.0247206 0.995414
-0.629725 -0.024728 0.998715
-0.651312 -0.0247388 0.975746
-0.587822 -0.0247458 0.995872
-0.683159 -0.0247561 0.936091
-0.570311 -0.024766 0.980441
-0.649595 -0.0247725 0.929245
-0.589435 -0.0247819 0.947317
-0.535864 -0.024788 0.962591
-0.570557 -0.0247968 0.933304
-0.584384 -0.0248026 0.914921
-0.614345 -0.0248081 0.888488
-0.559449 -0.0248142 0.904411
-0.473978 -0.0248194 0.935741
-0.534436 -0.024827 0.89374
-0.570319 -0.0248318 0.864438
-0.519149 -0.0248366 0.878682
-0.455932 -0.0248434 0.898619
-0.444434 -0.0248477 0.893074
-0.526171 -0.024854 0.840609
-0.497676 -0.024858 0.843612
-0.49531 -0.0248619 0.833569
-0.581246 -0.0248674 0.779111
-0.482537 -0.0248708 0.817291
-0.45768 -0.0248742 0.818564
-0.460681 -0.0248789 0.805684
-0.484752 -0.0248819 0.782546
-0.45809 -0.0248843 0.784868
-0.429317 -0.0248856 0.788412
-0.492195 -0.0248893 0.74574
-0.439795 -0.0248917 0.760934
-0.433094 -0.0248938 0.753301
-0.39595 -0.0248968 0.760756
-0.351369 -0.0248986 0.772118
-0.428226 -0.0249003 0.722784
-0.437555 -0.0249018 0.707236
-0.412312 -0.0249038 0.708895
-0.294202 -0.0249049 0.757125
-0.353331 -0.0249059 0.716758
-0.408476 -0.0249067 0.678407
-0.430942 -0.0249074 0.656419
-0.41733 -0.0249082 0.652457
-0.452683 -0.0249085 0.624086
-0.374956 -0.0249087 0.652279
-0.392581 -0.0249087 0.632827
-0.415791 -0.0249084 0.610638
-0.346441 -0.024908 0.634741
-0.394749 -0.0249059 0.600296
-0.290651 -0.0249052 0.641825
-0.365028 -0.0249044 0.594142
-0.25932 -0.0249034 0.636527
-0.420849 -0.0249022 0.545319
-0.294688 -0.0249002 0.598102
-0.364173 -0.0248987 0.552981
-0.363457 -0.0248971 0.542988
-0.355396 -0.0248953 0.536694
-0.341083 -0.0248933 0.533553
-0.382997 -0.0248912 0.502325
-0.330642 -0.024889 0.518259
-0.314008 -0.0248866 0.516359
-0.264407 -0.0248827 0.531202
-0.324278 -0.02488 0.491119
-0.347471 -0.0248771 0.469403
-0.328389 -0.024874 0.468853
-0.241299 -0.0248708 0.502335
-0.277132 -0.0248675 0.474383
-0.279854 -0.024864 0.463017
-0.250411 -0.0248604 0.467761
-0.323239 -0.0248566 0.421398
-0.263483 -0.0248527 0.441357
-0.225027 -0.0248486 0.450696
-0.370939 -0.0248444 0.367879
-0.250564 -0.02484 0.418236
-0.247978 -0.0248355 0.409727
-0.288321 -0.0248309 0.379785
-0.279474 -0.0248251 0.374645
-0.224799 -0.0248187 0.392551
-0.30571 -0.0248123 0.342638
-0.207249 -0.0248071 0.382233
-0.306591 -0.0248016 0.322957
-0.214758 -0.024796 0.359299
-0.28819 -0.0247903 0.31304
-0.209596 -0.0247845 0.342825
-0.251572 -0.0247784 0.312356
-0.143769 -0.0247723 0.356808
-0.227742 -0.024766 0.305404
-0.237908 -0.0247596 0.290935
-0.261642 -0.024753 0.269714
-0.250405 -0.0247463 0.26601
-0.248266 -0.0247394 0.257789
-0.222351 -0.0247324 0.261489
-0.190416 -0.0247253 0.268231
-0.292858 -0.024718 0.207817
-0.215542 -0.0247106 0.237314
-0.283543 -0.024703 0.194186
-0.293432 -0.0246964 0.17994
-0.29621 -0.0246914 0.16895
-0.242689 -0.0246835 0.186667
-0.272658 -0.0246754 0.162672
-0.239593 -0.0246672 0.170228
-0.251707 -0.0246589 0.155227
-0.185023 -0.0246505 0.17966
-0.17337 -0.0246419 0.17661
-0.331651 -0.0246331 0.088628
-0.203622 -0.0246242 0.143834
-0.1642 -0.0246152 0.154771
-0.21245 -0.0246061 0.121906
-0.160505 -0.0245968 0.139173
-0.246178 -0.0245874 0.0876652
-0.290458 -0.0245778 0.0568881
-0.224056 -0.0245681 0.0814869
-0.289631 -0.0245583 0.040132
-0.204313 -0.0245483 0.0742586
-0.244147 -0.0245382 0.0458438
-0.282914 -0.024528 0.0179973
-0.200779 -0.0245228 0.0496094
-0.264014 -0.0245124 0.0095839
-0.173913 -0.0245018 0.0462621
-0.26164 -0.0244911 -0.00593881
-0.161294 -0.0244803 0.0359327
-0.971383 -0.0123653 1.7677
-0.987122 -0.0123533 1.75194
-1.01084 -0.0123423 1.73198
-1.02442 -0.0123313 1.71712
-1.04761 -0.0123202 1.69749
-0.941963 -0.012309 1.74232
-1.11501 -0.0123034 1.64656
-1.00856 -0.012292 1.69186
-1.09713 -0.0122806 1.6397
-1.02562 -0.0122689 1.66764
-1.02948 -0.0122571 1.65796
-1.09989 -0.012245 1.61508
-1.06011 -0.0122389 1.62593
-1.06432 -0.0122264 1.61629
-1.03916 -0.0122134 1.62145
-1.08004 -0.0122068 1.59214
-1.06516 -0.0121909 1.59289
-1.05767 -0.0121836 1.58796
-1.07261 -0.0121761 1.57186
-1.02571 -0.0121578 1.58927
-1.03012 -0.012147 1.57926
-1.06013 -0.0121363 1.55645
-1.06263 -0.012126 1.54732
-0.970436 -0.0121233 1.5837
-1.14465 -0.012111 1.48922
-1.15558 -0.0120968 1.47686
-1.12641 -0.012086 1.48377
-1.11519 -0.012073 1.48223
-1.03478 -0.0120634 1.51449
-1.14164 -0.0120543 1.453
-1.04978 -0.0120425 1.49154
-1.08994 -0.012031 1.46405
-1.08711 -0.012023 1.45718
-1.09742 -0.0120118 1.44454
-1.15238 -0.0120008 1.40958
-1.13843 -0.0119898 1.40906
-1.1886 -0.0119789 1.37649
-1.19463 -0.0119752 1.36419
-1.15325 -0.0119612 1.37821
-1.09575 -0.0119505 1.39947
-1.09898 -0.0119398 1.39037
-1.09941 -0.0119299 1.38253
-1.09458 -0.0119381 1.37262
-1.09428 -0.0119492 1.3597
-1.08551 -0.0119653 1.34969
-1.16133 -0.0119813 1.29741
-1.0156 -0.0119931 1.35696
-0.990507 -0.0120086 1.35518
-1.10908 -0.0120239 1.28162
-0.997928 -0.012034 1.32423
-1.04077 -0.0120489 1.28859
-1.00083 -0.0120599 1.29534
-0.943853 -0.0120744 1.30968
-0.988093 -0.0120851 1.27438
-0.940523 -0.0120956 1.28501
-0.883329 -0.0121095 1.29955
-0.919853 -0.0121186 1.26847
-0.87815 -0.0121287 1.27624
-0.880211 -0.0121386 1.26215
-0.913043 -0.0121484 1.23269
-0.859884 -0.0121613 1.24537
-0.860109 -0.0121708 1.23227
-0.916609 -0.0121801 1.19106
-0.900234 -0.0121883 1.18658
-0.92187 -0.0121973 1.16285
-0.856538 -0.0122062 1.18263
-0.850575 -0.012215 1.17274
-0.819546 -0.0122236 1.17542
-0.836157 -0.012232 1.1543
-0.798464 -0.0122403 1.16036
-0.837975 -0.0122485 1.12785
-0.746325 -0.0122539 1.16169
-0.755953 -0.0122608 1.14443
-0.729387 -0.0122686 1.14503
-0.70626 -0.0122762 1.14394
-0.779643 -0.0122837 1.09463
-0.736629 -0.0122886 1.10424
-0.790594 -0.0122958 1.06468
-0.741796 -0.0123028 1.07654
-0.733014 -0.0123097 1.06842
-0.770937 -0.0123142 1.03763
-0.690504 -0.0123209 1.0654
-0.648836 -0.0123265 1.07405
-0.665218 -0.0123308 1.05409
-0.642254 -0.012337 1.05321
-0.65056 -0.012343 1.03673
-0.654335 -0.012347 1.02312
-0.604913 -0.0123528 1.03557
-0.630843 -0.0123566 1.01092
-0.657258 -0.0123621 0.985505
-0.597037 -0.0123675 1.00344
-0.520805 -0.012371 1.02994
-0.589067 -0.0123762 0.983703
-0.629896 -0.0123795 0.951713
-0.542689 -0.0123836 0.983489
-0.442674 -0.0123868 1.02196
-0.529744 -0.0123913 0.96645
-0.501496 -0.0123943 0.969083
-0.453736 -0.0123986 0.981053
-0.566 -0.0124014 0.913473
-0.580236 -0.0124041 0.894924
-0.465936 -0.0124081 0.940261
-0.475818 -0.0124106 0.923935
-0.443879 -0.0124143 0.928162
-0.497504 -0.0124167 0.89001
-0.500523 -0.0124201 0.876833
-0.5525 -0.0124222 0.839553
-0.554802 -0.0124243 0.827129
-0.503233 -0.0124268 0.841533
-0.499403 -0.0124287 0.832226
-0.428511 -0.0124305 0.856469
-0.497466 -0.0124332 0.810535
-0.488557 -0.0124349 0.803838
-0.490862 -0.0124365 0.791554
-0.51017 -0.0124387 0.770554
-0.458312 -0.0124401 0.785404
-0.470927 -0.0124415 0.768039
-0.446955 -0.0124433 0.768793
-0.449103 -0.0124445 0.756715
-0.381452 -0.0124456 0.779558
-0.444557 -0.0124466 0.737045
-0.432326 -0.012448 0.732079
-0.443692 -0.0124488 0.715491
-0.453412 -0.0124495 0.69975
-0.441131 -0.0124502 0.695031
-0.390412 -0.0124507 0.709608
-0.309334 -0.0124512 0.739347
-0.37355 -0.0124516 0.696462
-0.351354 -0.0124519 0.696807
-0.394469 -0.0124522 0.66452
-0.34078 -0.0124525 0.680635
-0.392089 -0.0124526 0.644311
-0.409767 -0.0124526 0.624834
-0.372067 -0.0124525 0.633077
-0.428349 -0.0124522 0.594391
-0.332235 -0.0124519 0.631903
-0.307672 -0.0124516 0.633665
-0.353538 -0.0124511 0.600238
-0.378897 -0.0124507 0.57709
-0.397562 -0.0124501 0.557315
-0.436743 -0.0124491 0.527427
-0.284726 -0.0124483 0.593059
-0.318646 -0.0124475 0.565748
-0.182599 -0.0124466 0.623448
-0.292812 -0.0124456 0.558044
-0.33138 -0.0124446 0.52849
-0.34615 -0.0124435 0.510862
-0.296988 -0.0124423 0.525227
-0.367546 -0.0124407 0.479856
-0.330942 -0.0124387 0.488241
-0.280223 -0.0124372 0.503482
-0.258555 -0.0124357 0.504225
-0.232345 -0.0124341 0.507267
-0.294612 -0.0124325 0.4661
-0.336271 -0.0124307 0.435265
-0.225237 -0.0124289 0.480805
-0.285796 -0.012427 0.440577
-0.269697 -0.0124251 0.438708
-0.325853 -0.012423 0.40074
-0.365371 -0.0124209 0.371121
-0.287689 -0.0124187 0.400131
-0.278958 -0.0124165 0.394696
-0.293051 -0.0124142 0.377879
-0.292624 -0.0124118 0.368351
-0.231726 -0.0124093 0.389089
-0.275983 -0.0124068 0.35728
-0.236739 -0.0124031 0.36764
-0.245475 -0.0124001 0.353764
-0.33846 -0.0123973 0.297697
-0.191654 -0.0123945 0.361556
-0.323229 -0.0123915 0.286257
-0.265437 -0.0123885 0.305672
-0.247215 -0.0123855 0.305333
-0.291633 -0.0123823 0.273706
-0.242795 -0.0123791 0.288739
-0.245824 -0.0123758 0.27787
-0.220499 -0.0123725 0.281209
-0.303494 -0.012369 0.230422
-0.251937 -0.0123655 0.246942
-0.294109 -0.012362 0.21663
-0.24203 -0.0123583 0.233476
-0.252768 -0.0123546 0.218947
-0.156078 -0.0123528 0.257447
-0.168501 -0.0123489 0.242126
-0.207138 -0.0123451 0.21373
-0.226378 -0.0123411 0.195066
-0.195035 -0.0123371 0.201727
-0.199783 -0.012333 0.190376
-0.223745 -0.0123288 0.169451
-0.195385 -0.0123246 0.17472
-0.251947 -0.0123203 0.137563
-0.166912 -0.0123159 0.171237
-0.156783 -0.0123115 0.167493
-0.274329 -0.012307 0.0999451
-0.24299 -0.0123024 0.106874
-0.218381 -0.0122978 0.110472
-0.230172 -0.0122931 0.0959048
-0.223301 -0.0122883 0.0907029
-0.368667 -0.0122835 0.00941656
-0.270469 -0.0122785 0.0499474
-0.269893 -0.0122736 0.0417018
-0.179065 -0.0122685 0.0786172
-0.230877 -0.0122634 0.0442475
-0.241065 -0.0122608 0.0296978
-0.248422 -0.0122556 0.0176105
-0.202836 -0.0122503 0.0320302
-0.283074 -0.012245 -0.0164273
-0.228388 -0.0122396 0.00261318
-1.0698 0 1.71813
-1.01268 0 1.73837
-0.919192 0 1.77697
-0.99306 0 1.73237
-1.02843 0 1.70658
-0.996092 0 1.71466
-1.05361 0 1.67785
-1.10204 0 1.64562
-0.969822 0 1.70375
-0.998928 0 1.68127
-1.07077 0 1.63746
-1.07235 0 1.62884
-1.08333 0 1.61424
-1.02089 0 1.63783
-1.12168 0 1.57992
-1.0203 0 1.62323
-1.08639 0 1.58135
-1.08342 0 1.57574
-1.12682 0 1.54597
-1.0842 0 1.55873
-1.06134 0 1.56233
-1.13008 0 1.52016
-1.11619 0 1.5199
-1.11629 0 1.51248
-1.1564 0 1.48421
-1.04148 0 1.53388
-1.09945 0 1.49763
-1.164 0 1.45725
-1.14797 0 1.45781
-1.10347 0 1.47054
-1.17483 0 1.42742
-1.10641 0 1.45415
-1.20863 0 1.39555
-1.08571 0 1.45037
-1.1789 0 1.39621
-1.11214 0 1.42203
-1.06066 0 1.4395
-1.09006 0 1.4173
-1.10359 0 1.40202
-1.12716 0 1.38273
-1.17498 0 1.35133
-1.17218 0 1.34644
-1.15533 0 1.34519
-1.12015 0 1.34834
-1.12104 0 1.33349
-1.13576 0 1.31176
-1.05863 0 1.33701
-1.04033 0 1.33207
-1.04288 0 1.31752
-1.11196 0 1.26872
-1.07005 0 1.27544
-1.06606 0 1.26422
-1.03204 0 1.26707
-1.07988 0 1.23019
-0.946918 0 1.28352
-0.962379 0 1.26172
-0.965024 0 1.24729
-0.907891 0 1.26277
-0.923409 0 1.24105
-0.969315 0 1.20506
-0.863459 0 1.24517
-0.814807 0 1.2565
-0.909237 0 1.19632
-0.885322 0 1.19533
-0.848858 0 1.20064
-0.906318 0 1.15901
-0.856076 0 1.17126
-0.9163 0 1.12831
-0.858765 0 1.14443
-0.813546 0 1.15425
-0.812269 0 1.14212
-0.81536 0 1.12784
-0.739733 0 1.15295
-0.805301 0 1.10749
-0.767912 0 1.11425
-0.647404 0 1.16187
-0.717043 0 1.11445
-0.678702 0 1.12106
-0.691245 0 1.10307
-0.716749 0 1.0778
-0.699594 0 1.0739
-0.722899 0 1.0498
-0.646035 0 1.07644
-0.655025 0 1.05955
-0.57785 0 1.08577
-0.758675 0 0.983626
-0.691814 0 1.00475
-0.618951 0 1.02892
-0.665322 0 0.994175
-0.663546 0 0.982857
-0.682668 0 0.961659
-0.661013 0 0.960342
-0.605141 0 0.97668
-0.644229 0 0.945056
-0.564186 0 0.97352
-0.54967 0 0.968762
-0.588936 0 0.937612
-0.606694 0 0.916784
-0.492402 0 0.962457
-0.553085 0 0.920235
-0.64723 0 0.861733
-0.535763 0 0.905737
-0.521265 0 0.901602
-0.45199 0 0.924501
-0.505161 0 0.886578
-0.493635 0 0.881022
-0.476395 0 0.878005
-0.529215 0 0.840324
-0.529594 0 0.828883
-0.414091 0 0.875103
-0.519908 0 0.810992
-0.46236 0 0.828312
-0.531226 0 0.782727
-0.421941 0 0.826239
-0.477806 0 0.786962
-0.482507 0 0.773533
-0.407553 0 0.799991
-0.479468 0 0.752998
-0.363376 0 0.799846
-0.439204 0 0.750951
-0.455222 0 0.731982
-0.445138 0 0.725944
-0.361058 0 0.75708
-0.419731 0 0.716863
-0.43747 0 0.697136
-0.369072 0 0.7205
-0.397308 0 0.695491
-0.390958 0 0.68789
-0.386371 0 0.679431
-0.472089 0 0.625842
-0.43355 0 0.634383
-0.382094 0 0.649442
-0.367832 0 0.645935
-0.343253 0 0.647618
-0.356054 0 0.630672
-0.38859 0 0.60386
-0.347741 0 0.613765
-0.404057 0 0.575113
-0.30592 0 0.613714
-0.308201 0 0.602131
-0.367238 0 0.562196
-0.337805 0 0.566655
-0.394223 0 0.528096
-0.350774 0 0.539496
-0.363 0 0.523086
-0.311009 0 0.538812
-0.303654 0 0.532246
-0.289012 0 0.529352
-0.339003 0 0.494168
-0.332989 0 0.487015
-0.242355 0 0.522456
-0.330934 0 0.468076
-0.336374 0 0.455294
-0.351338 0 0.437777
-0.398893 0 0.403994
-0.267363 0 0.459782
-0.339947 0 0.413542
-0.341202 0 0.402996
-0.289748 0 0.418833
-0.326488 0 0.390603
-0.333612 0 0.37721
-0.289833 0 0.389299
-0.234352 0 0.407268
-0.253619 0 0.387893
-0.284589 0 0.362697
-0.286773 0 0.351925
-0.199068 0 0.386127
-0.270158 0 0.340963
-0.259042 0 0.337445
-0.27861 0 0.318117
-0.282032 0 0.306894
-0.311494 0 0.282682
-0.259979 0 0.298989
-0.331831 0 0.253646
-0.256584 0 0.281882
-0.216861 0 0.292389
-0.252714 0 0.26514
-0.339228 0 0.212592
-0.172218 0 0.286839
-0.263203 0 0.232121
-0.215715 0 0.246671
-0.283662 0 0.202835
-0.254835 0 0.208105
-0.240169 0 0.206328
-0.242849 0 0.195911
-0.268177 0 0.174202
-0.249249 0 0.174656
-0.188058 0 0.196273
-0.192221 0 0.185248
-0.206424 0 0.169236
-0.211693 0 0.157724
-0.19241 0 0.158523
-0.242961 0 0.124438
-0.270895 0 0.101696
-0.242856 0 0.106975
-0.252858 0 0.0932667
-0.227703 0 0.0971717
-0.206111 0 0.0993298
-0.20591 0 0.0908271
-0.269181 0 0.050623
-0.16237 0 0.0954944
-0.266922 0 0.0347195
-0.201128 0 0.0591526
-0.153101 0 0.07371
-0.245224 0 0.0192394
-0.295393 0 -0.0142194
-0.2473 0 0.00148872
-0.230096 0 0.00178782
-1.05745 0.0123677 1.72413
-0.938681 0.0123546 1.77587
-1.00606 0.0123439 1.73401
-1.00606 0.012336 1.72524
-1.01524 0.0123254 1.71249
-1.0164 0.0123148 1.70379
-1.09019 0.0123041 1.6588
-1.14719 0.0122934 1.62223
-1.06522 0.0122827 1.65518
-1.03988 0.0122718 1.65985
-1.03133 0.0122609 1.65616
-1.02881 0.0122498 1.6495
-1.0654 0.0122387 1.62334
-0.974518 0.0122273 1.66098
-1.05949 0.0122156 1.61077
-1.18244 0.0122036 1.54168
-0.99678 0.0121964 1.6258
-1.11076 0.0121829 1.56158
-1.06847 0.0121707 1.57521
-1.06027 0.0121607 1.5713
-1.13584 0.01215 1.52569
-1.09417 0.0121393 1.5387
-1.06076 0.0121294 1.54742
-1.13908 0.0121182 1.5006
-1.06501 0.0121128 1.5286
-1.13495 0.0120998 1.48646
-1.07958 0.0120903 1.50611
-1.16906 0.0120785 1.45394
-1.09823 0.012067 1.48187
-1.00775 0.0120557 1.51959
-1.15057 0.0120446 1.44063
-1.1503 0.0120336 1.4332
-1.11746 0.0120227 1.44206
-0.989097 0.0120158 1.4977
-1.08006 0.0120052 1.44463
-1.04016 0.0119945 1.457
-1.15693 0.011984 1.39105
-1.16822 0.0119734 1.37785
-1.18766 0.0119629 1.36058
-1.1644 0.0119524 1.36467
-1.1628 0.0119419 1.35795
-1.12604 0.0119314 1.36882
-1.18589 0.0119252 1.3303
-1.14865 0.0119375 1.33555
-1.17007 0.0119531 1.31059
-1.10358 0.0119651 1.3305
-1.11901 0.0119809 1.30843
-1.0691 0.0119965 1.31906
-1.17229 0.0120118 1.25318
-1.14734 0.0120232 1.25239
-1.08247 0.0120376 1.27074
-1.06238 0.0120486 1.26757
-1.1286 0.0120632 1.22029
-1.04273 0.0120739 1.25005
-0.986636 0.012088 1.26399
-0.925602 0.0120984 1.28138
-0.908158 0.0121087 1.27699
-0.935937 0.0121218 1.24921
-0.89794 0.0121318 1.25515
-0.898144 0.0121416 1.24201
-0.910424 0.0121513 1.22285
-0.867775 0.0121608 1.23117
-0.883967 0.0121733 1.20925
-0.822983 0.0121825 1.2268
-0.910858 0.0121916 1.16994
-0.919272 0.0122002 1.15294
-0.831231 0.0122089 1.18409
-0.81933 0.0122176 1.1772
-0.7646 0.0122261 1.19175
-0.751406 0.0122344 1.18556
-0.766208 0.0122426 1.1654
-0.83537 0.0122506 1.11808
-0.689021 0.0122559 1.17929
-0.789769 0.0122635 1.1163
-0.724274 0.0122711 1.13639
-0.849631 0.0122786 1.06108
-0.767042 0.012286 1.08978
-0.679483 0.0122908 1.12168
-0.638045 0.0122979 1.12985
-0.652333 0.0123048 1.11019
-0.749182 0.0123116 1.04928
-0.658126 0.012316 1.083
-0.661936 0.0123225 1.06867
-0.658539 0.0123288 1.058
-0.697311 0.012333 1.02686
-0.601612 0.0123391 1.06237
-0.656785 0.012345 1.02249
-0.742225 0.0123489 0.968068
-0.619793 0.0123546 1.01704
-0.657133 0.0123583 0.986713
-0.60837 0.0123637 0.998913
-0.597384 0.012369 0.992263
-0.654037 0.0123724 0.95234
-0.66213 0.0123774 0.936213
-0.609068 0.0123807 0.951187
-0.610213 0.0123854 0.9386
-0.602851 0.0123885 0.930766
-0.612797 0.012393 0.913845
-0.558659 0.0123959 0.929441
-0.564108 0.0124001 0.914837
-0.639301 0.0124028 0.865812
-0.577057 0.0124067 0.885124
-0.532416 0.0124092 0.896061
-0.560013 0.0124117 0.870897
-0.537775 0.0124153 0.870306
-0.561457 0.0124176 0.847146
-0.494734 0.0124208 0.868871
-0.543547 0.0124229 0.833194
-0.430415 0.012425 0.878508
-0.472656 0.0124279 0.845856
-0.469252 0.0124297 0.836357
-0.492875 0.0124315 0.813363
-0.533801 0.012434 0.781477
-0.472229 0.0124356 0.801132
-0.465894 0.0124371 0.79319
-0.481731 0.0124393 0.773959
-0.445637 0.0124407 0.780936
-0.468518 0.0124419 0.75846
-0.403451 0.0124437 0.779795
-0.383766 0.0124448 0.778656
-0.494611 0.0124458 0.712275
-0.462488 0.0124467 0.717399
-0.463515 0.012448 0.705839
-0.414551 0.0124487 0.71944
-0.377541 0.0124494 0.727087
-0.457948 0.01245 0.676049
-0.402784 0.0124508 0.69274
-0.398578 0.0124512 0.684067
-0.386942 0.0124516 0.679132
-0.446537 0.0124518 0.638605
-0.389591 0.0124521 0.656349
-0.361923 0.0124522 0.659515
-0.376924 0.0124522 0.641376
-0.43577 0.0124521 0.601346
-0.359111 0.012452 0.629093
-0.372467 0.0124517 0.611858
-0.362532 0.0124514 0.606289
-0.412582 0.012451 0.57077
-0.270475 0.0124505 0.631355
-0.347942 0.0124499 0.582179
-0.33485 0.0124493 0.578309
-0.309503 0.0124482 0.580724
-0.386449 0.0124474 0.5319
-0.271492 0.0124465 0.579054
-0.354508 0.0124455 0.527249
-0.272872 0.0124444 0.557797
-0.369556 0.0124433 0.499212
-0.340157 0.0124421 0.503696
-0.354363 0.0124409 0.486404
-0.317553 0.0124395 0.494648
-0.381897 0.0124374 0.452601
-0.338005 0.0124358 0.464455
-0.31497 0.0124343 0.46591
-0.296697 0.0124326 0.465012
-0.29938 0.0124308 0.453664
-0.33612 0.012429 0.425317
-0.336205 0.0124271 0.415326
-0.276992 0.0124252 0.435014
-0.230324 0.0124232 0.448458
-0.322587 0.0124211 0.392465
-0.310807 0.0124189 0.388524
-0.208616 0.0124166 0.429818
-0.262755 0.0124143 0.392977
-0.307245 0.0124119 0.360991
-0.18909 0.0124095 0.410357
-0.313951 0.0124069 0.338246
-0.237639 0.0124047 0.366621
-0.282459 0.012402 0.334591
-0.29303 0.0123992 0.319716
-0.221695 0.012395 0.346352
-0.265038 0.0123921 0.315167
-0.275997 0.0123891 0.300206
-0.233533 0.012386 0.311987
-0.260935 0.0123828 0.288867
-0.29627 0.0123796 0.261812
-0.274163 0.0123763 0.26351
-0.220968 0.012373 0.280784
-0.22058 0.0123696 0.271687
-0.239705 0.0123661 0.252865
-0.156217 0.0123625 0.285382
-0.212971 0.0123594 0.247619
-0.252641 0.012357 0.218113
-0.208247 0.0123533 0.231165
-0.231044 0.0123495 0.210656
-0.249453 0.0123456 0.192373
-0.216193 0.0123416 0.199958
-0.291808 0.0123376 0.153139
-0.227235 0.0123335 0.176447
-0.268371 0.0123294 0.146934
-0.22058 0.0123251 0.161918
-0.286188 0.0123208 0.120236
-0.2242 0.0123165 0.142386
-0.233485 0.012312 0.128934
-0.201392 0.0123075 0.136204
-0.214123 0.012303 0.121097
-0.243173 0.0122983 0.0978645
-0.2014 0.0122936 0.110077
-0.212038 0.0122888 0.0961197
-0.23062 0.012284 0.0782245
-0.272644 0.0122791 0.048643
-0.21036 0.0122741 0.0712502
-0.189982 0.0122691 0.0729389
-0.143574 0.012264 0.0876782
-0.257128 0.0122614 0.0214443
-0.225184 0.0122562 0.0290059
-0.278489 0.0122509 -0.00602133
-0.289239 0.0122456 -0.0197358
-0.212746 0.0122402 0.0102066
-0.99288 0.0247392 1.75598
-1.02617 0.0247184 1.7311
-1.10535 0.0246975 1.68329
-0.981981 0.0246766 1.73677
-0.987317 0.0246556 1.72592
-1.02719 0.0246346 1.69783
-0.99418 0.0246031 1.7074
-0.934045 0.0245819 1.72937
-0.97121 0.0245607 1.70271
-1.05173 0.0245395 1.6544
-1.03164 0.0245181 1.65643
-1.10859 0.0244965 1.60998
-1.02169 0.0244748 1.64549
-1.04547 0.0244528 1.62571
-1.03701 0.0244304 1.62212
-1.02445 0.0244075 1.62065
-1.16454 0.0243958 1.54157
-1.05047 0.0243714 1.59106
-1.1394 0.0243454 1.53928
-1.05657 0.0243266 1.57253
-1.0487 0.024311 1.56794
-1.02167 0.0242895 1.57365
-1.0296 0.0242641 1.56237
-1.04619 0.0242419 1.54639
-1.05664 0.0242168 1.53386
-1.07642 0.024193 1.51652
-1.05893 0.0241769 1.51689
-1.06076 0.0241549 1.50835
-1.02055 0.0241332 1.52081
-1.11586 0.0241117 1.4655
-1.16901 0.0240903 1.43127
-1.10344 0.0240691 1.45641
-1.1476 0.024048 1.42668
-1.05966 0.0240269 1.46301
-1.13363 0.0240059 1.4184
-1.16502 0.023985 1.39509
-1.17605 0.0239641 1.38198
-1.16803 0.0239432 1.3784
-1.22739 0.0239223 1.34115
-1.11156 0.0239015 1.39151
-1.17466 0.0238807 1.35241
-1.15403 0.0238599 1.3552
-1.1321 0.0238476 1.35756
-1.16484 0.023864 1.32888
-1.14123 0.0238964 1.32628
-1.07759 0.0239285 1.34371
-1.06223 0.02396 1.33705
-1.11536 0.0239912 1.29617
-0.997207 0.0240137 1.34203
-1.07206 0.024044 1.29035
-1.03186 0.0240664 1.29721
-1.03231 0.0240959 1.28278
-0.976404 0.0241177 1.29754
-0.975509 0.0241464 1.28385
-0.920738 0.0241673 1.29812
-0.996091 0.0241951 1.24638
-0.959682 0.0242156 1.25147
-0.963568 0.0242359 1.23644
-0.986603 0.0242625 1.21095
-0.860074 0.0242822 1.26118
-0.947657 0.0243015 1.20437
-0.866583 0.0243205 1.23193
-0.831698 0.0243393 1.2364
-0.842691 0.0243578 1.21795
-0.848526 0.024376 1.20211
-0.848622 0.0243939 1.18916
-0.815596 0.0244174 1.19198
-0.794351 0.0244346 1.18977
-0.802792 0.0244516 1.17273
-0.723878 0.0244627 1.20018
-0.779519 0.0244792 1.15959
-0.803934 0.0244954 1.13464
-0.727569 0.0245112 1.1601
-0.75916 0.0245268 1.13162
-0.716868 0.0245421 1.14011
-0.796403 0.0245571 1.08772
-0.800266 0.0245717 1.07319
-0.679078 0.0245814 1.1219
-0.738897 0.0245955 1.07945
-0.637875 0.0246094 1.11744
-0.677187 0.024623 1.08531
-0.71179 0.0246318 1.0562
-0.610097 0.0246449 1.09462
-0.674322 0.0246577 1.05009
-0.641483 0.024666 1.05476
-0.661747 0.0246782 1.03229
-0.636379 0.0246902 1.03267
-0.663649 0.0246979 1.00734
-0.612837 0.0247093 1.0205
-0.618564 0.0247167 1.00598
-0.567456 0.0247276 1.01935
-0.679894 0.0247381 0.950993
-0.630094 0.0247449 0.964296
-0.594051 0.024755 0.970237
-0.800527 0.0247615 0.855443
-0.632002 0.0247713 0.927629
-0.585544 0.0247775 0.939343
-0.554087 0.0247864 0.943123
-0.576924 0.0247922 0.920232
-0.534184 0.0248006 0.929722
-0.486828 0.0248061 0.941971
-0.598819 0.0248139 0.874166
-0.622348 0.024819 0.851018
-0.584026 0.0248239 0.858814
-0.530242 0.024831 0.873995
-0.464113 0.0248356 0.895741
-0.49714 0.0248422 0.867591
-0.527129 0.0248464 0.841326
-0.59584 0.0248504 0.795719
-0.486259 0.024857 0.838864
-0.509548 0.0248607 0.816018
-0.456109 0.0248642 0.831556
-0.533942 0.0248693 0.781215
-0.407872 0.0248725 0.833119
-0.475169 0.0248755 0.78836
-0.415381 0.0248798 0.806942
-0.396773 0.0248825 0.805188
-0.441394 0.024885 0.771842
-0.43162 0.0248885 0.76553
-0.424718 0.0248907 0.758
-0.454277 0.0248927 0.73226
-0.479163 0.0248946 0.70888
-0.474361 0.0248971 0.700234
-0.403334 0.0248986 0.724866
-0.396056 0.0249 0.717647
-0.359912 0.0249012 0.724883
-0.361694 0.0249037 0.71293
-0.347114 0.0249046 0.709443
-0.388763 0.0249053 0.677865
-0.373542 0.0249058 0.674746
-0.423705 0.0249064 0.638934
-0.442711 0.0249066 0.618761
-0.318063 0.0249066 0.670446
-0.421156 0.0249064 0.608292
-0.336014 0.0249061 0.640279
-0.364082 0.0249053 0.615737
-0.34232 0.0249046 0.616098
-0.27277 0.0249037 0.640378
-0.323582 0.0249027 0.604503
-0.377145 0.0249016 0.567279
-0.375369 0.0249003 0.55775
-0.305201 0.0248981 0.582575
-0.346926 0.0248965 0.551361
-0.271743 0.0248947 0.578627
-0.272273 0.0248927 0.568064
-0.315008 0.0248906 0.536426
-0.278407 0.0248884 0.544482
-0.309675 0.024886 0.518632
-0.318133 0.0248835 0.504214
-0.261247 0.0248821 0.52226
-0.320882 0.0248778 0.482565
-0.37596 0.0248748 0.444934
-0.299872 0.0248716 0.472914
-0.304781 0.0248683 0.460423
-0.362606 0.0248648 0.421504
-0.260457 0.0248612 0.4626
-0.234737 0.0248574 0.465511
-0.267877 0.0248535 0.43902
-0.255524 0.0248494 0.435306
-0.318213 0.0248452 0.394099
-0.205185 0.0248409 0.440781
-0.247048 0.0248364 0.410047
-0.222817 0.0248317 0.41239
-0.26559 0.0248269 0.381261
-0.434736 0.024822 0.286976
-0.28777 0.0248169 0.350777
-0.303488 0.0248117 0.333266
-0.340302 0.0248064 0.305238
-0.169259 0.024798 0.381682
-0.319732 0.0247923 0.296901
-0.251794 0.0247865 0.321356
-0.20172 0.0247805 0.33691
-0.28596 0.0247743 0.285339
-0.214345 0.024768 0.311727
-0.246839 0.0247616 0.286092
-0.243742 0.024755 0.278284
-0.278676 0.0247483 0.251493
-0.249249 0.0247415 0.256914
-0.195781 0.0247345 0.274388
-0.169187 0.0247273 0.278458
-0.22145 0.0247201 0.243131
-0.228402 0.0247162 0.229825
-0.286745 0.0247089 0.191475
-0.259026 0.0247013 0.196223
-0.250223 0.0246935 0.191546
-0.166827 0.0246856 0.224198
-0.207886 0.0246775 0.194656
-0.28912 0.0246694 0.14506
-0.18616 0.024661 0.187594
-0.320409 0.0246526 0.111558
-0.261358 0.024644 0.132205
-0.259407 0.0246353 0.124336
-0.287121 0.0246264 0.101669
-0.213148 0.0246174 0.129878
-0.183837 0.0246082 0.135792
-0.265623 0.024599 0.0861906
-0.174022 0.0245895 0.123317
-0.257777 0.02458 0.0728005
-0.222312 0.0245703 0.0819281
-0.251047 0.0245605 0.0589904
-0.278255 0.0245505 0.036851
-0.181735 0.0245404 0.0766109
-0.260001 0.0245302 0.0290123
-0.226747 0.0245251 0.0361814
-0.222048 0.0245146 0.0301207
-0.285933 0.0245041 -0.0101973
-0.159082 0.0244934 0.0448883
-0.248046 0.0244826 -0.00789836
-1.04452 0.0371132 1.72984
-1.05515 0.0370821 1.71627
-0.982467 0.0370509 1.74437
-1.03928 0.0370198 1.70775
-0.94693 0.036973 1.7469
-1.01499 0.0369418 1.7047
-1.00927 0.0369106 1.6994
-0.964345 0.0368793 1.71373
-1.02752 0.036848 1.67403
-1.06715 0.0368166 1.64613
-1.03986 0.0367851 1.65171
-1.11276 0.0367535 1.60722
-0.983048 0.0367218 1.66406
-1.06475 0.0366899 1.61523
-1.06673 0.0366578 1.6063
-1.02733 0.0366253 1.61811
-1.00316 0.0365921 1.62237
-1.10116 0.0365546 1.56591
-1.04243 0.0365218 1.58746
-1.07253 0.0364867 1.56481
-1.09761 0.036459 1.54408
-1.07014 0.0364278 1.54994
-1.06957 0.0363975 1.54228
-1.09189 0.0363638 1.52347
-1.12101 0.0363315 1.50117
-1.048 0.0362997 1.5299
-1.13336 0.0362681 1.47946
-1.05826 0.0362368 1.50924
-1.19048 0.0362055 1.43538
-1.09708 0.0361743 1.47433
-1.17871 0.0361432 1.42579
-1.07149 0.0361121 1.47169
-1.06175 0.036081 1.46885
-1.14314 0.0360499 1.42048
-1.11257 0.0360188 1.4281
-1.14626 0.0359878 1.4036
-1.06075 0.0359568 1.43872
-1.13898 0.0359257 1.39199
-1.12542 0.0358947 1.39117
-1.18097 0.0358637 1.35582
-1.12261 0.0358327 1.37743
-1.10523 0.0358017 1.37858
-1.17738 0.0357703 1.33501
-1.20158 0.0357949 1.3106
-1.15885 0.0358436 1.31756
-1.11206 0.0358796 1.32762
-1.1897 0.0359271 1.27444
-1.12174 0.0359739 1.2941
-1.0508 0.03602 1.31528
-1.03045 0.0360542 1.31219
-1.06351 0.0360991 1.28143
-0.948196 0.0361433 1.32489
-1.01936 0.036176 1.27611
-0.998773 0.036219 1.27227
-1.06456 0.0362508 1.22622
-0.937011 0.0362821 1.27686
-0.953064 0.0363233 1.25479
-0.96126 0.0363537 1.2376
-1.01993 0.0363837 1.1952
-0.980536 0.0364231 1.20096
-0.936722 0.0364521 1.20985
-0.830612 0.036481 1.24989
-0.848627 0.0365091 1.22791
-0.916783 0.0365369 1.18088
-0.810266 0.0365642 1.22121
-0.928861 0.0365911 1.14902
-0.833535 0.0366175 1.1838
-0.804203 0.0366436 1.18562
-0.824764 0.0366692 1.16251
-0.80488 0.0366943 1.15966
-0.836025 0.0367196 1.13125
-0.87119 0.0367439 1.10093
-0.731828 0.0367677 1.15789
-0.745916 0.0367911 1.13816
-0.776948 0.036814 1.10999
-0.840345 0.0368364 1.06567
-0.734065 0.0368512 1.10691
-0.796976 0.0368729 1.06287
-0.793793 0.0368941 1.05192
-0.723565 0.036916 1.07442
-0.789743 0.0369363 1.02885
-0.749175 0.0369496 1.03732
-0.65327 0.0369692 1.07285
-0.681637 0.0369883 1.04627
-0.663516 0.0370007 1.04357
-0.673336 0.0370191 1.02633
-0.75985 0.0370369 0.97077
-0.679815 0.0370486 0.99909
-0.611952 0.0370656 1.02078
-0.668191 0.0370783 0.980848
-0.49207 0.0370946 1.05673
-0.554055 0.0371104 1.01359
-0.597181 0.0371206 0.980429
-0.618165 0.0371357 0.957857
-0.599981 0.0371454 0.955391
-0.519236 0.0371596 0.983748
-0.583569 0.0371688 0.940065
-0.563005 0.0371823 0.938398
-0.641972 0.0371909 0.887442
-0.549828 0.0372036 0.921633
-0.541379 0.0372117 0.914428
-0.530178 0.0372255 0.908011
-0.518251 0.0372331 0.90259
-0.490401 0.0372405 0.905148
-0.448474 0.0372512 0.9144
-0.456756 0.037258 0.898938
-0.522608 0.0372679 0.854374
-0.453989 0.0372742 0.877411
-0.533884 0.0372803 0.826211
-0.532498 0.037289 0.81537
-0.496446 0.0372946 0.822194
-0.51363 0.0372999 0.802418
-0.431777 0.0373075 0.831919
-0.481265 0.0373123 0.796043
-0.527672 0.0373168 0.761729
-0.493775 0.0373233 0.767363
-0.393123 0.0373273 0.80663
-0.410856 0.0373336 0.786458
-0.488141 0.0373388 0.736616
-0.396063 0.0373421 0.771671
-0.491179 0.0373451 0.713152
-0.457334 0.0373493 0.718991
-0.414577 0.0373517 0.729464
-0.43983 0.037354 0.705954
-0.399436 0.037356 0.715291
-0.487624 0.0373587 0.660269
-0.416353 0.0373602 0.685102
-0.326539 0.0373614 0.719231
-0.359467 0.0373625 0.692012
-0.360711 0.0373633 0.680658
-0.324712 0.0373641 0.687926
-0.404859 0.0373644 0.637182
-0.453738 0.0373644 0.602103
-0.408658 0.0373641 0.614033
-0.407068 0.0373633 0.604281
-0.388045 0.0373629 0.603196
-0.337216 0.0373644 0.617802
-0.45733 0.0373631 0.547249
-0.497304 0.0373616 0.516791
-0.342726 0.0373599 0.583635
-0.312789 0.037358 0.588184
-0.347229 0.0373547 0.560703
-0.336878 0.0373522 0.555526
-0.350747 0.0373495 0.538264
-0.272138 0.0373466 0.567269
-0.322711 0.0373434 0.531709
-0.321501 0.0373401 0.522069
-0.309601 0.0373365 0.5178
-0.305099 0.0373327 0.509861
-0.34196 0.0373266 0.481511
-0.337431 0.0373222 0.473653
-0.299248 0.0373176 0.482651
-0.296231 0.0373129 0.474094
-0.320471 0.0373079 0.451937
-0.303727 0.0373026 0.450301
-0.361263 0.0372972 0.411553
-0.239869 0.0372915 0.4623
-0.261654 0.0372856 0.441486
-0.347549 0.0372795 0.388646
-0.258872 0.0372732 0.423122
-0.253221 0.0372667 0.416114
-0.266606 0.03726 0.399618
-0.344909 0.037253 0.350693
-0.309857 0.0372458 0.358475
-0.30552 0.0372384 0.35093
-0.228142 0.0372308 0.379936
-0.292578 0.0372224 0.338138
-0.296467 0.0372142 0.326586
-0.234558 0.0372058 0.347963
-0.235053 0.0371973 0.338169
-0.301425 0.0371885 0.295468
-0.18723 0.0371794 0.343081
-0.205833 0.0371702 0.324327
-0.210142 0.0371608 0.312751
-0.287793 0.0371511 0.264536
-0.237765 0.0371413 0.280193
-0.251996 0.0371312 0.263752
-0.246595 0.0371209 0.257159
-0.19304 0.0371104 0.274676
-0.237601 0.0370997 0.243166
-0.221562 0.0370888 0.24199
-0.231966 0.0370776 0.227624
-0.251596 0.0370663 0.208678
-0.229752 0.0370605 0.20977
-0.208783 0.0370489 0.211175
-0.154902 0.037037 0.229069
-0.246301 0.0370249 0.174356
-0.185784 0.0370126 0.195635
-0.229604 0.0370001 0.164778
-0.190475 0.0369874 0.17543
-0.212884 0.0369745 0.155346
-0.206581 0.0369614 0.149652
-0.177673 0.0369481 0.155295
-0.189211 0.0369346 0.140749
-0.259439 0.0369209 0.0968915
-0.10714 0.0369069 0.164332
-0.188795 0.0368928 0.11483
-0.247444 0.0368784 0.076866
-0.232693 0.0368639 0.075636
-0.253806 0.0368492 0.0565093
-0.200691 0.0368342 0.0745306
-0.254707 0.0368191 0.0390221
-0.220266 0.0368037 0.0477764
-0.184241 0.036796 0.0563299
-0.195458 0.0367803 0.0423107
-0.251565 0.0367645 0.00588132
-0.280196 0.0367484 -0.0167741
-0.188892 0.0367322 0.0205729
-0.884653 0.0494879 1.80957
-1.0195 0.0494466 1.73388
-0.944378 0.0494052 1.7632
-1.05125 0.0493432 1.70269
-0.993431 0.0493018 1.72339
-1.0076 0.0492605 1.70812
-0.968798 0.0492191 1.71935
-1.0697 0.0491777 1.66075
-0.963166 0.0491363 1.70588
-0.996823 0.0490949 1.68094
-1.03466 0.0490534 1.65393
-1.02689 0.049012 1.64973
-1.06866 0.0489496 1.622
-1.01046 0.048908 1.64308
-1.02117 0.0488663 1.62972
-1.05308 0.0488244 1.60578
-1.07407 0.0487822 1.58735
-1.01369 0.0487464 1.60924
-1.02851 0.0487051 1.59387
-1.02156 0.0486638 1.5894
-1.09815 0.0486221 1.5432
-1.05744 0.0485809 1.55565
-1.12867 0.0485435 1.51191
-1.0274 0.0485007 1.55477
-1.0367 0.0484588 1.5423
-1.04568 0.0483955 1.53131
-1.07017 0.0483542 1.51125
-1.0843 0.048313 1.49639
-1.08405 0.0482717 1.48874
-1.11846 0.0482304 1.46377
-1.06974 0.0481891 1.48038
-1.07825 0.0481478 1.4684
-1.15207 0.0481066 1.42378
-1.17795 0.0480653 1.40315
-1.14781 0.048024 1.41055
-1.13628 0.0479827 1.40865
-1.10399 0.0479414 1.41716
-1.16251 0.0479002 1.38028
-1.052 0.0478589 1.42793
-1.13065 0.0478176 1.38102
-1.07752 0.0477763 1.40002
-1.01782 0.047735 1.42232
-1.05948 0.0476938 1.39396
-1.15611 0.0477102 1.3344
-1.18626 0.0477752 1.3049
-1.09953 0.0478394 1.33389
-1.10635 0.0479032 1.31609
-1.1549 0.0479656 1.27749
-1.10656 0.0480271 1.28737
-1.00935 0.0480726 1.32272
-1.13907 0.0481325 1.24362
-1.03744 0.0481777 1.28115
-1.00733 0.048236 1.28204
-0.9527 0.0482791 1.29617
-0.984005 0.0483356 1.26641
-0.920015 0.0483775 1.28527
-0.939933 0.0484324 1.26127
-0.886904 0.0484729 1.2747
-0.934943 0.0485143 1.23751
-0.863052 0.0485668 1.25952
-0.873939 0.0486055 1.24106
-0.825852 0.0486436 1.25211
-0.844782 0.0486812 1.22967
-0.875055 0.0487181 1.20159
-0.905572 0.0487546 1.1734
-0.887492 0.0487904 1.16954
-0.861407 0.0488277 1.16957
-0.842231 0.0488624 1.16631
-0.775773 0.0488965 1.18671
-0.774174 0.04893 1.17471
-0.760358 0.0489629 1.16885
-0.71911 0.0489953 1.17673
-0.749379 0.049027 1.14888
-0.731089 0.0490582 1.14533
-0.739417 0.0490913 1.12833
-0.798678 0.0491213 1.08607
-0.77387 0.0491506 1.08587
-0.7076 0.0491699 1.10713
-0.702436 0.0491982 1.09716
-0.740183 0.0492259 1.06577
-0.72319 0.049253 1.06179
-0.645245 0.0492708 1.08895
-0.697911 0.0492969 1.05019
-0.704925 0.0493223 1.03429
-0.707962 0.0493422 1.02077
-0.700464 0.0493666 1.01218
-0.655431 0.0493905 1.0224
-0.605379 0.049406 1.03572
-0.646493 0.0494288 1.00292
-0.551913 0.0494509 1.038
-0.61933 0.0494653 0.992656
-0.699937 0.0494864 0.940206
-0.632406 0.0495001 0.962372
-0.668689 0.0495201 0.932148
-0.48682 0.0495331 1.01152
-0.611957 0.049556 0.936643
-0.589311 0.0495683 0.936447
-0.554454 0.0495862 0.941923
-0.553966 0.0495978 0.930691
-0.572609 0.0496146 0.909486
-0.590059 0.0496255 0.889329
-0.546972 0.0496412 0.899058
-0.544304 0.0496514 0.889005
-0.522133 0.0496661 0.888348
-0.507316 0.0496755 0.884416
-0.547556 0.0496846 0.852974
-0.486905 0.0496978 0.871659
-0.51729 0.0497062 0.845193
-0.441733 0.0497143 0.871716
-0.527458 0.0497305 0.816959
-0.513318 0.0497379 0.812822
-0.397547 0.0497485 0.859248
-0.496025 0.0497552 0.798854
-0.454962 0.0497615 0.80825
-0.426403 0.0497706 0.811181
-0.473319 0.0497762 0.77664
-0.405681 0.0497816 0.799398
-0.502299 0.0497891 0.739854
-0.488642 0.0497937 0.735674
-0.489637 0.049798 0.724192
-0.360118 0.0498021 0.777987
-0.441225 0.0498076 0.726349
-0.423356 0.0498109 0.724375
-0.370647 0.0498139 0.739845
-0.427691 0.0498166 0.700461
-0.333284 0.0498254 0.736304
-0.327386 0.0498273 0.728448
-0.367826 0.049829 0.697446
-0.37564 0.0498304 0.682781
-0.383187 0.049832 0.668237
-0.325431 0.0498326 0.686416
-0.44467 0.049833 0.616123
-0.351858 0.049833 0.651886
-0.285919 0.0498323 0.674268
-0.314504 0.0498315 0.649401
-0.244536 0.0498304 0.673835
-0.398017 0.049829 0.58657
-0.356367 0.0498273 0.596897
-0.318564 0.0498253 0.605325
-0.283891 0.049823 0.612215
-0.347535 0.0498191 0.570091
-0.208706 0.049816 0.629124
-0.326885 0.0498127 0.559679
-0.331289 0.0498091 0.547148
-0.287054 0.0498052 0.558964
-0.321391 0.049801 0.531521
-0.331864 0.0497965 0.516037
-0.286789 0.0497918 0.528354
-0.291655 0.0497899 0.515451
-0.256372 0.0497844 0.522941
-0.339315 0.0497786 0.471344
-0.305671 0.0497725 0.478071
-0.265456 0.0497661 0.48811
-0.367124 0.0497594 0.427237
-0.339899 0.0497524 0.430838
-0.313705 0.0497451 0.433953
-0.260885 0.0497376 0.45041
-0.260184 0.0497297 0.440837
-0.232054 0.0497216 0.445007
-0.278351 0.0497132 0.411994
-0.202209 0.0497044 0.44023
-0.271769 0.0496954 0.395643
-0.311998 0.0496861 0.365753
-0.244793 0.0496716 0.390053
-0.240452 0.0496616 0.382522
-0.28014 0.0496513 0.353007
-0.245518 0.0496407 0.360678
-0.279596 0.0496298 0.33403
-0.30173 0.0496187 0.313384
-0.207477 0.0496072 0.350963
-0.28665 0.0495955 0.30186
-0.320625 0.0495834 0.275387
-0.230387 0.0495711 0.311052
-0.208615 0.0495585 0.312516
-0.251123 0.0495456 0.281872
-0.306089 0.0495325 0.24503
-0.307005 0.049519 0.235246
-0.212617 0.0495053 0.273146
-0.359736 0.0494912 0.190324
-0.27503 0.0494769 0.223447
-0.189544 0.0494624 0.256993
-0.312677 0.0494475 0.186263
-0.178767 0.0494324 0.244086
-0.191291 0.0494169 0.228725
-0.221078 0.0494074 0.204178
-0.262128 0.0493933 0.174446
-0.230469 0.0493772 0.181262
-0.230259 0.0493608 0.172386
-0.308879 0.0493441 0.124129
-0.161197 0.0493271 0.189056
-0.207004 0.0493099 0.157273
-0.217649 0.0492924 0.143105
-0.211762 0.0492746 0.137237
-0.289003 0.0492566 0.0898383
-0.210419 0.0492383 0.120387
-0.357637 0.0492197 0.0380689
-0.231098 0.0492008 0.0926638
-0.215458 0.0491817 0.0918435
-0.251244 0.0491623 0.0653448
-0.137938 0.0491426 0.113427
-0.21867 0.0491226 0.0645253
-0.188088 0.0491024 0.071315
-0.28369 0.0490819 0.0150482
-0.137659 0.0490716 0.0786037
-0.258203 0.0490507 0.0099205
-0.200582 0.0490295 0.0303552
-0.239657 0.0490081 0.00247771
-0.185854 0.0489865 0.0210743
-1.0037 0.0618618 1.74996
-1.00214 0.0618102 1.74247
-1.02284 0.0617586 1.72387
-1.08284 0.061707 1.68564
-0.98648 0.0616296 1.72677
-1.09247 0.061578 1.66558
-0.962909 0.0615251 1.72224
-0.971629 0.0614734 1.70973
-1.04142 0.0614216 1.6667
-1.08971 0.0613699 1.63444
-0.971004 0.061318 1.6857
-1.01183 0.0612662 1.65721
-0.994361 0.0612143 1.65789
-1.07022 0.0611623 1.61192
-1.02496 0.0611102 1.62654
-0.986958 0.0610579 1.63756
-1.04195 0.060979 1.60335
-1.08057 0.0609256 1.57615
-1.08388 0.0608985 1.56537
-1.08268 0.0608424 1.55824
-1.02136 0.0607667 1.58213
-1.09937 0.0607145 1.53524
-1.02633 0.0606636 1.56384
-1.09863 0.0606075 1.52004
-1.1024 0.0605536 1.51041
-1.04506 0.0605007 1.53131
-1.05894 0.0604481 1.51661
-1.07377 0.0603959 1.50143
-1.0551 0.0603438 1.503
-1.13446 0.0602918 1.45558
-1.10527 0.0602399 1.46245
-1.11242 0.060188 1.45116
-1.06634 0.0601362 1.4665
-1.13945 0.0600844 1.42226
-1.10219 0.0600326 1.43322
-1.15914 0.0599809 1.3971
-1.11368 0.0599292 1.4122
-1.10973 0.0598775 1.40656
-1.05315 0.0598258 1.42725
-1.20753 0.0597741 1.34248
-1.16056 0.0597224 1.3584
-1.11659 0.0596708 1.37283
-1.17986 0.059619 1.33368
-1.15675 0.0596395 1.33398
-0.948789 0.0597226 1.42346
-1.09608 0.0598028 1.33542
-1.08191 0.0598819 1.32815
-1.15152 0.0599599 1.27903
-1.05392 0.0600368 1.31354
-1.02487 0.0600961 1.31467
-0.98274 0.060171 1.32151
-1.0622 0.0602263 1.26855
-1.05604 0.0602992 1.25746
-0.985351 0.060353 1.27962
-1.07632 0.0604238 1.22003
-0.875739 0.0604791 1.30701
-0.919951 0.0605478 1.27087
-0.937814 0.0605984 1.24885
-0.987859 0.0606484 1.21075
-0.945787 0.060714 1.21785
-0.953271 0.0607624 1.20109
-0.907449 0.0608101 1.211
-0.834101 0.0608609 1.23449
-0.833305 0.0609071 1.22194
-0.850783 0.0609527 1.20027
-0.886687 0.0610123 1.1686
-0.843989 0.0610562 1.17708
-0.850937 0.0610993 1.16076
-0.791744 0.0611417 1.17754
-0.742864 0.0611834 1.18919
-0.775124 0.061229 1.16004
-0.792953 0.0612559 1.13914
-0.756349 0.0612956 1.14472
-0.809591 0.0613346 1.10541
-0.694474 0.0613728 1.15031
-0.791024 0.0614102 1.0894
-0.80346 0.061447 1.07058
-0.729412 0.061471 1.09572
-0.722114 0.0615065 1.08682
-0.667136 0.0615466 1.10148
-0.661411 0.0615805 1.09185
-0.63096 0.0616137 1.09462
-0.677582 0.0616354 1.05952
-0.670043 0.0616672 1.05089
-0.766445 0.0616983 0.990323
-0.641988 0.0617186 1.04081
-0.617194 0.0617484 1.0409
-0.61658 0.0617678 1.02951
-0.620488 0.0617963 1.01531
-0.631617 0.0618303 0.997155
-0.612347 0.0618484 0.995147
-0.648639 0.0618748 0.96485
-0.609999 0.0618919 0.972566
-0.641869 0.061917 0.944544
-0.600744 0.0619413 0.953059
-0.547881 0.061957 0.967953
-0.510319 0.0619799 0.974753
-0.621778 0.0619948 0.907527
-0.574589 0.0620164 0.919208
-0.581608 0.0620303 0.904246
-0.470136 0.0620439 0.948547
-0.549981 0.0620708 0.896364
-0.494187 0.0620835 0.91287
-0.513784 0.0621019 0.891323
-0.549635 0.0621137 0.862053
-0.484523 0.0621307 0.882934
-0.515993 0.0621416 0.855902
-0.49738 0.0621522 0.85393
-0.522353 0.0621673 0.829874
-0.510543 0.0621769 0.82455
-0.468034 0.0621862 0.834595
-0.447417 0.0621994 0.833441
-0.409953 0.0622077 0.841015
-0.489198 0.0622157 0.790254
-0.445442 0.062227 0.80078
-0.433534 0.0622341 0.795649
-0.488367 0.062252 0.756443
-0.428955 0.0622582 0.775116
-0.435064 0.062264 0.761049
-0.462355 0.0622694 0.736414
-0.388232 0.0622769 0.762352
-0.372829 0.0622814 0.75912
-0.477824 0.0622855 0.69571
-0.387451 0.0622893 0.730007
-0.430763 0.0622943 0.697382
-0.429493 0.0622971 0.687186
-0.362741 0.0622996 0.709754
-0.469773 0.0623017 0.645453
-0.411438 0.0623042 0.663811
-0.379093 0.0623054 0.669259
-0.401313 0.0623062 0.647448
-0.40234 0.0623067 0.636258
-0.404439 0.0623067 0.624562
-0.368005 0.0623062 0.632165
-0.435844 0.0623137 0.587095
-0.368449 0.0623123 0.610239
-0.363855 0.0623106 0.602008
-0.323783 0.0623084 0.611541
-0.416902 0.0623046 0.554599
-0.363347 0.0623015 0.570938
-0.299606 0.0622981 0.592397
-0.403628 0.0622943 0.530001
-0.267787 0.0622902 0.587562
-0.377902 0.0622857 0.522173
-0.389025 0.0622808 0.506306
-0.318648 0.0622755 0.531216
-0.315076 0.0622699 0.522751
-0.342655 0.0622608 0.498956
-0.328063 0.0622542 0.49607
-0.363023 0.0622473 0.468435
-0.16999 0.0622401 0.554825
-0.383565 0.0622324 0.437939
-0.309394 0.0622244 0.464955
-0.269444 0.0622161 0.474888
-0.259529 0.0622073 0.469833
-0.341205 0.0621982 0.419011
-0.298392 0.0621888 0.430462
-0.341981 0.062179 0.398742
-0.264358 0.0621688 0.427657
-0.386714 0.0621582 0.356612
-0.319808 0.0621473 0.380228
-0.281609 0.0621302 0.389935
-0.238072 0.0621244 0.401511
-0.241812 0.0621157 0.389652
-0.280462 0.0621032 0.360623
-0.243474 0.0620903 0.369444
-0.195631 0.062077 0.383723
-0.210877 0.0620633 0.366488
-0.272334 0.0620493 0.326179
-0.244096 0.062035 0.330747
-0.177917 0.0620203 0.354318
-0.214 0.0620052 0.32679
-0.283566 0.0619898 0.282551
-0.273597 0.061974 0.278112
-0.255235 0.0619579 0.2779
-0.23588 0.0619414 0.278217
-0.170923 0.0619245 0.301368
-0.234076 0.0619073 0.260495
-0.27432 0.0618897 0.23111
-0.2069 0.0618718 0.255589
-0.243492 0.0618536 0.228094
-0.213804 0.061835 0.233772
-0.27542 0.061816 0.193832
-0.212676 0.0617967 0.216104
-0.229776 0.061777 0.198487
-0.186244 0.061757 0.211219
-0.210925 0.0617465 0.189125
-0.186481 0.0617263 0.19234
-0.192198 0.0617054 0.180534
-0.255707 0.0616842 0.139865
-0.113259 0.0616626 0.202209
-0.22612 0.0616407 0.136931
-0.288774 0.0616184 0.0967921
-0.280015 0.0615958 0.0923931
-0.179663 0.0615728 0.133825
-0.195045 0.0615495 0.117425
-0.292209 0.0615259 0.0601677
-0.162008 0.0615019 0.116628
-0.24974 0.0614776 0.0641561
-0.165602 0.061453 0.0976541
-0.248107 0.061428 0.0478654
-0.191998 0.0614027 0.0674193
-0.226645 0.061377 0.0416297
-0.332806 0.061364 -0.0209127
-0.213016 0.0613379 0.0305714
-0.211089 0.0613114 0.0231598
-0.209376 0.0612846 0.0156766
-0.285532 0.0612574 -0.0307057
-0.998409 0.0742293 1.75279
-0.965247 0.0741671 1.76111
-1.02966 0.0741048 1.72067
-0.948626 0.0740425 1.75297
-0.96027 0.0739802 1.73894
-1.03307 0.0739178 1.69437
-1.02914 0.0738554 1.68817
-1.04143 0.0737929 1.67389
-1.02381 0.0737302 1.67458
-0.958572 0.0736361 1.7003
-1.00635 0.0735732 1.66835
-1.05147 0.07351 1.63775
-0.993274 0.0734466 1.65884
-1.02677 0.0733828 1.63411
-0.998316 0.0733185 1.6404
-1.02515 0.0732535 1.61909
-1.01917 0.0731872 1.61425
-1.01423 0.0731188 1.609
-1.07807 0.0730833 1.56807
-1.04668 0.0729976 1.57677
-1.07187 0.0729524 1.55558
-1.08643 0.0728885 1.54047
-1.06862 0.0728119 1.54207
-1.07338 0.0727457 1.53199
-1.15295 0.0726718 1.48483
-1.15127 0.0726215 1.47737
-1.072 0.0725552 1.50936
-1.07866 0.0724902 1.49836
-1.10049 0.0724259 1.47976
-1.11366 0.0723621 1.46549
-1.08698 0.0722987 1.47114
-0.998327 0.0722356 1.50779
-1.0841 0.0721726 1.45724
-1.13994 0.0721098 1.42166
-1.21467 0.0720472 1.37665
-1.14113 0.0719846 1.40579
-1.01172 0.0719221 1.46288
-1.0506 0.0718597 1.43584
-1.12591 0.0717974 1.3906
-1.0966 0.071735 1.39768
-1.17514 0.071682 1.35046
-1.18402 0.0716193 1.3385
-1.20899 0.0715512 1.31874
