ply
format ascii 1.0
comment Created by Open3D
element vertex 1772
property double x
property double y
property double z
end_header
-0.773698 0.378881 0.989963
-0.504535 0.378655 1.11627
-0.730948 0.378657 0.992606
-0.626255 0.378552 1.03553
-0.763988 0.378461 0.957116
-0.656195 0.378381 1.00136
-0.744962 0.378398 0.946378
-0.721173 0.378336 0.94845
-0.606991 0.378361 0.994871
-0.88837 0.378388 0.843487
-0.84149 0.378351 0.85687
-0.710836 0.378424 0.911042
-0.687636 0.378465 0.911811
-0.659501 0.378554 0.914561
-0.668587 0.378603 0.8991
-0.692311 0.378709 0.875746
-0.771541 0.378767 0.825121
-0.589058 0.37889 0.904686
-0.670194 0.378956 0.85301
-0.582588 0.379098 0.884941
-0.670879 0.379258 0.828731
-0.688987 0.379416 0.807617
-0.618824 0.379582 0.83056
-0.61278 0.379758 0.821325
-0.767073 0.379929 0.731963
-0.48178 0.380123 0.862147
-0.402307 0.380331 0.889272
-0.416464 0.380586 0.869081
-0.694512 0.380811 0.717243
-0.417834 0.381068 0.842425
-0.595518 0.381311 0.74056
-0.61468 0.381568 0.717799
-0.450428 0.381894 0.785996
-0.455779 0.382154 0.770081
-0.584847 0.382491 0.691477
-0.457048 0.38278 0.741789
-0.626268 0.3831 0.643252
-0.53158 0.38346 0.676227
-0.549383 0.38383 0.652829
-0.506984 0.384211 0.659404
-0.426845 0.384601 0.684723
-0.371862 0.385001 0.697341
-0.369652 0.385454 0.682976
-0.29446 0.38587 0.705477
-0.369699 0.38649 0.650543
-0.445051 0.386927 0.597492
-0.385138 0.387579 0.609731
-0.290732 0.388247 0.638999
-0.461579 0.389566 0.52852
-0.199827 0.39138 0.628865
-0.615523 0.399852 1.2015
-0.627603 0.398306 1.19832
-0.535782 0.397271 1.24269
-0.674246 0.396377 1.17073
-0.658135 0.395545 1.17555
-0.669623 0.395175 1.16252
-0.783564 0.394496 1.10104
-0.761159 0.393831 1.10765
-0.713956 0.393484 1.12384
-1.13241 0.393144 0.90715
-0.653475 0.392812 1.13911
-0.58065 0.392489 1.16795
-0.777655 0.392175 1.06182
-0.819227 0.39187 1.03332
-0.705258 0.391576 1.08252
-0.777413 0.391433 1.0373
-0.794003 0.391156 1.02109
-0.620211 0.391012 1.09886
-0.887938 0.390758 0.956901
-0.66672 0.390755 1.05711
-0.773908 0.390519 0.995262
-0.806899 0.390523 0.968303
-0.843685 0.390414 0.940506
-0.697994 0.390319 1.00381
-0.867538 0.390237 0.90939
-0.803069 0.390167 0.931866
-0.557688 0.390191 1.04391
-0.699992 0.390139 0.96283
-0.769299 0.390172 0.917453
-0.63217 0.39014 0.975909
-0.75075 0.390181 0.905812
-0.802346 0.390271 0.868738
-0.716188 0.390319 0.900928
-0.728895 0.390426 0.883132
-0.593736 0.390385 0.94068
-0.628778 0.390511 0.911524
-0.623869 0.390673 0.901981
-0.716265 0.390814 0.843979
-0.771904 0.39089 0.804991
-0.75219 0.39105 0.802848
-0.740252 0.391223 0.796682
-0.735211 0.391401 0.787007
-0.531827 0.391592 0.876369
-0.452124 0.391776 0.903948
-0.481254 0.391985 0.876851
-0.536332 0.392255 0.836166
-0.503712 0.392482 0.839748
-0.629367 0.392722 0.764041
-0.584681 0.392997 0.773145
-0.556446 0.393328 0.773451
-0.593833 0.393599 0.74153
-0.384093 0.393878 0.833075
-0.616094 0.394234 0.702957
-0.627773 0.394513 0.683757
-0.665932 0.394882 0.650394
-0.589994 0.395261 0.673952
-0.449952 0.395651 0.729435
-0.418884 0.396051 0.730303
-0.484676 0.396516 0.682057
-0.307914 0.396934 0.755542
-0.402331 0.397412 0.692798
-0.339646 0.397848 0.709022
-0.317022 0.398494 0.702996
-0.2015 0.398952 0.745355
-0.439263 0.399849 0.606458
-0.410944 0.400553 0.602574
-0.314966 0.4017 0.627829
-0.666174 0.413632 1.176
-0.681895 0.410862 1.18088
-0.834541 0.4096 1.10465
-0.735417 0.408537 1.15266
-0.491697 0.407817 1.27009
-0.766863 0.407296 1.12642
-0.862999 0.406594 1.07384
-0.798345 0.405905 1.10157
-0.762658 0.405548 1.112
-0.735124 0.405197 1.11831
-0.795919 0.404718 1.08159
-0.719391 0.404385 1.11228
-0.755863 0.40406 1.08642
-0.765107 0.403746 1.07409
-0.838065 0.403442 1.02984
-0.929873 0.403294 0.974793
-0.77262 0.403137 1.04437
-0.816101 0.402861 1.01465
-0.648308 0.402723 1.08934
-0.759129 0.402472 1.02575
-0.772696 0.402351 1.00963
-0.810991 0.402243 0.981038
-0.560333 0.402253 1.09586
-0.755998 0.402042 0.989522
-0.705525 0.401964 1.00506
-0.711448 0.401988 0.991469
-0.73422 0.401928 0.970222
-0.614901 0.40196 1.01918
-0.771075 0.401882 0.931411
-0.791973 0.40196 0.909835
-0.676805 0.40194 0.957202
-0.652904 0.401989 0.95829
-0.797426 0.402096 0.87463
-0.694395 0.40211 0.91561
-0.756668 0.402174 0.873462
-0.757023 0.402312 0.861586
-0.573993 0.402385 0.941997
-0.703599 0.402541 0.865311
-0.835438 0.402721 0.787274
-0.563691 0.402894 0.911086
-0.572336 0.402986 0.895467
-0.700172 0.403179 0.819286
-0.56108 0.403461 0.875701
-0.692723 0.403582 0.798282
-0.692149 0.403893 0.785136
-0.57847 0.404095 0.82958
-0.427268 0.404338 0.892386
-0.60034 0.404675 0.792122
-0.497067 0.404944 0.830678
-0.643578 0.40524 0.744068
-0.593087 0.405527 0.756027
-0.62333 0.405899 0.726783
-0.570373 0.406274 0.739078
-0.458086 0.40657 0.781797
-0.566101 0.406959 0.713442
-0.38923 0.407358 0.787402
-0.454724 0.407768 0.740054
-0.469479 0.408189 0.71795
-0.484783 0.40881 0.693557
-0.392701 0.409257 0.72456
-0.519752 0.409768 0.645335
-0.482489 0.410232 0.64871
-0.419081 0.410919 0.662887
-0.336448 0.411628 0.68643
-0.399852 0.412587 0.634385
-0.42605 0.413577 0.600582
-0.739951 0.423418 1.16163
-0.601143 0.42197 1.23229
-0.594711 0.421021 1.23272
-0.814131 0.420129 1.11981
-0.695233 0.419394 1.1748
-0.944404 0.418669 1.04571
-0.809302 0.417958 1.10867
-0.799315 0.417589 1.10625
-0.743208 0.417228 1.12684
-0.733577 0.416731 1.12535
-0.835139 0.416387 1.06701
-0.866472 0.416051 1.04372
-0.82533 0.415726 1.0566
-0.82937 0.415411 1.04681
-0.696061 0.415108 1.10562
-0.912416 0.414816 0.989516
-0.672435 0.414674 1.1003
-0.691051 0.414535 1.08177
-0.879509 0.414274 0.979387
-0.765632 0.414279 1.02587
-0.81716 0.414037 0.991795
-0.712322 0.413938 1.03468
-0.659453 0.41383 1.05166
-0.817075 0.413749 0.963152
-0.796348 0.413682 0.963714
-0.754829 0.413714 0.973795
-0.724962 0.413627 0.9791
-0.678606 0.413706 0.99119
-0.660925 0.41363 0.990304
-0.731616 0.413662 0.94428
-0.771478 0.413718 0.913458
-0.699229 0.413776 0.938665
-0.786367 0.413901 0.883575
-0.738149 0.413858 0.897675
-0.736333 0.414002 0.886876
-0.751093 0.414159 0.867672
-0.61992 0.414242 0.922097
-0.85908 0.414418 0.790508
-0.851161 0.414612 0.782277
-0.668497 0.414805 0.861422
-0.591888 0.415004 0.887468
-0.611325 0.415119 0.866261
-0.536731 0.415441 0.890157
-0.660375 0.415651 0.815945
-0.596852 0.415895 0.834992
-0.579329 0.416154 0.830895
-0.651999 0.416513 0.780742
-0.498843 0.416824 0.843938
-0.608285 0.417114 0.776024
-0.732372 0.417499 0.699874
-0.536617 0.417814 0.784284
-0.470038 0.418211 0.803307
-0.489491 0.41862 0.77919
-0.55332 0.41904 0.73276
-0.320795 0.41947 0.834383
-0.575252 0.419979 0.691742
-0.383353 0.420429 0.772822
-0.43126 0.420952 0.733268
-0.499239 0.421421 0.684183
-0.398316 0.422112 0.717363
-0.553973 0.422828 0.62199
-0.415492 0.423565 0.673437
-0.366197 0.424562 0.677717
-0.415761 0.425593 0.632195
-0.316484 0.427868 0.648849
-0.656297 0.43597 1.21331
-0.674323 0.434482 1.2055
-0.800981 0.433147 1.14222
-0.90692 0.432381 1.08481
-0.682552 0.431468 1.19377
-0.751394 0.430721 1.15484
-0.872091 0.429987 1.08991
-0.79051 0.429608 1.12327
-0.790921 0.429085 1.11683
-0.721616 0.428721 1.14398
-0.695883 0.428366 1.14928
-0.854991 0.42802 1.06211
-0.896069 0.427684 1.03389
-0.614918 0.427358 1.16671
-0.837654 0.427044 1.04751
-0.850033 0.426741 1.03341
-0.819306 0.426594 1.03958
-0.767619 0.426311 1.05738
-0.732553 0.426174 1.06565
-0.681351 0.425921 1.08298
-0.9715 0.425797 0.928545
-0.728361 0.425696 1.04058
-0.85491 0.425583 0.967868
-0.661268 0.425501 1.055
-0.789979 0.425431 0.98085
-0.845453 0.425466 0.942434
-0.774459 0.425375 0.968324
-0.78808 0.425332 0.951498
-0.773154 0.425304 0.948826
-0.754045 0.425356 0.947544
-0.833642 0.42541 0.896895
-0.823726 0.425475 0.890907
-0.729283 0.425543 0.927155
-0.65168 0.425686 0.954314
-0.64972 0.425648 0.94524
-0.53192 0.425812 0.99231
-0.603117 0.425988 0.944764
-0.822777 0.426081 0.823714
-0.607434 0.426277 0.919252
-0.641945 0.426486 0.889735
-0.536202 0.426699 0.930292
-0.656572 0.426927 0.857661
-0.649058 0.427146 0.849031
-0.686503 0.427392 0.817669
-0.394623 0.427653 0.950828
-0.60873 0.427979 0.830397
-0.787204 0.42831 0.727709
-0.574034 0.428641 0.820835
-0.593692 0.428948 0.797754
-0.552101 0.429355 0.804358
-0.6285 0.429774 0.751849
-0.630156 0.430192 0.736689
-0.575672 0.430622 0.749478
-0.455832 0.431062 0.794822
-0.568432 0.431514 0.723823
-0.324956 0.431976 0.830737
-0.44138 0.432655 0.755666
-0.451662 0.433145 0.735395
-0.528591 0.433711 0.681069
-0.466258 0.434446 0.694766
-0.425644 0.435203 0.697347
-0.414117 0.436229 0.682828
-0.361771 0.43729 0.688326
-0.176564 0.439133 0.752803
-0.450659 0.449456 1.31886
-0.741941 0.446992 1.18155
-0.636013 0.44562 1.23453
-0.726624 0.444461 1.18764
-0.859514 0.443681 1.11672
-0.756153 0.443112 1.16231
-0.846613 0.44235 1.11253
-0.646713 0.441603 1.20785
-0.8633 0.441063 1.09334
-0.689576 0.440689 1.17269
-0.689735 0.440323 1.16505
-0.692181 0.439811 1.15745
-0.754798 0.439466 1.11846
-0.834113 0.43913 1.07105
-0.760428 0.438807 1.10007
-0.809633 0.438494 1.06756
-0.840813 0.438195 1.04398
-0.79514 0.438197 1.0564
-0.624072 0.437916 1.13382
-0.638442 0.437649 1.11841
-0.716015 0.437665 1.06912
-0.615755 0.437418 1.11088
-0.798034 0.437301 1.01032
-0.859485 0.437217 0.96991
-0.931995 0.437146 0.923867
-0.816847 0.437047 0.971884
-0.749453 0.436997 0.995626
-0.650436 0.437044 1.03438
-0.732818 0.437013 0.983065
-0.850861 0.436998 0.913804
-0.653381 0.43706 1.00165
-0.816867 0.437066 0.909489
-0.624051 0.437137 0.994923
-0.863036 0.437288 0.863775
-0.810099 0.437331 0.879504
-0.625779 0.437418 0.960541
-0.615131 0.437602 0.953913
-0.877557 0.437799 0.810629
-0.943451 0.437902 0.766405
-0.686894 0.438119 0.882425
-0.679981 0.438349 0.873495
-0.508458 0.438578 0.946872
-0.642011 0.438827 0.867524
-0.574027 0.439091 0.888809
-0.616311 0.439433 0.854258
-0.670613 0.439714 0.814215
-0.601731 0.44001 0.835622
-0.687486 0.440321 0.779567
-0.594045 0.440741 0.81213
-0.644258 0.441172 0.772749
-0.580464 0.441614 0.790254
-0.584267 0.442058 0.773922
-0.511014 0.442511 0.796016
-0.661349 0.442975 0.706194
-0.464382 0.44353 0.789186
-0.441699 0.444014 0.785646
-0.536108 0.444649 0.722181
-0.366875 0.445236 0.790937
-0.51946 0.445989 0.697254
-0.554659 0.446767 0.662003
-0.485681 0.447818 0.676307
-0.490941 0.448909 0.65308
-0.355706 0.450307 0.697243
-0.568133 0.459881 1.27553
-0.714592 0.458091 1.20512
-0.596861 0.456897 1.26239
-0.877106 0.455924 1.11907
-0.821246 0.455128 1.1425
-0.791265 0.454344 1.15293
-0.817 0.453774 1.13392
-0.781386 0.453181 1.14578
-0.830616 0.452632 1.11491
-0.90956 0.452255 1.06788
-0.884407 0.451726 1.0741
-0.812495 0.45137 1.10238
-0.673512 0.451024 1.16413
-0.663604 0.45069 1.16128
-0.893574 0.450367 1.0384
-0.78438 0.450057 1.08503
-0.6927 0.449907 1.12165
-0.870852 0.449617 1.02447
-0.778162 0.449492 1.06142
-0.853144 0.449359 1.01461
-0.839114 0.449104 1.01327
-0.707273 0.449011 1.06956
-0.90903 0.448897 0.959229
-0.821095 0.448824 0.993414
-0.785372 0.448721 1.00174
-0.825553 0.44867 0.971702
-0.776511 0.448632 0.986167
-0.614718 0.448609 1.05689
-0.90064 0.448671 0.90307
-0.919536 0.448669 0.883276
-0.749667 0.448741 0.957268
-0.727157 0.448761 0.957993
-0.758244 0.448842 0.931421
-0.604139 0.449013 0.996699
-0.736283 0.449072 0.919777
-0.823964 0.449169 0.864759
-0.732694 0.449374 0.898319
-0.732952 0.449592 0.885997
-0.793863 0.449706 0.844207
-0.733137 0.449945 0.862189
-0.62755 0.450197 0.902473
-0.809774 0.450441 0.798906
-0.800225 0.450713 0.790985
-0.622594 0.450999 0.86697
-0.616997 0.451406 0.855896
-0.643997 0.45172 0.8293
-0.605278 0.452087 0.835089
-0.588901 0.45252 0.829136
-0.500683 0.452947 0.859124
-0.710119 0.453413 0.739936
-0.548673 0.453883 0.806129
-0.534374 0.45436 0.798669
-0.61607 0.454848 0.74309
-0.339271 0.455433 0.865896
-0.529505 0.456077 0.754646
-0.520689 0.456686 0.743197
-0.568803 0.457456 0.701833
-0.544032 0.458253 0.696646
-0.570727 0.459075 0.665471
-0.487847 0.460183 0.68651
-0.37715 0.461607 0.71861
-0.195517 0.464188 0.775826
-0.65071 0.472393 1.24426
-0.716226 0.47056 1.21424
-0.805598 0.469333 1.16794
-0.896062 0.468328 1.11951
-0.844159 0.467119 1.14383
-0.729335 0.466313 1.19668
-0.78861 0.465899 1.15962
-0.590818 0.465318 1.25235
-0.735432 0.46455 1.1753
-0.842323 0.464163 1.1143
-0.749186 0.463617 1.15452
-0.758815 0.46325 1.14204
-0.729171 0.462894 1.14913
-0.708504 0.462549 1.15166
-0.958967 0.462215 1.01856
-0.944202 0.462053 1.01678
-0.676956 0.46174 1.14241
-0.839168 0.461439 1.05322
-0.753126 0.461153 1.08806
-0.710639 0.460882 1.10102
-0.865973 0.460907 1.01279
-0.7845 0.460658 1.04509
-0.851045 0.460539 1.00239
-0.72367 0.460465 1.05629
-0.653065 0.460358 1.08208
-0.735899 0.460306 1.03072
-0.968751 0.460267 0.904252
-0.969755 0.460243 0.893593
-0.423173 0.460308 1.15602
-0.74699 0.460234 0.984353
-0.752962 0.460318 0.97035
-0.789925 0.4604 0.940873
-0.801403 0.460435 0.924497
-0.875177 0.460527 0.876527
-0.791767 0.460688 0.906582
-0.928551 0.460793 0.826987
-0.719602 0.460902 0.920228
-0.625662 0.461128 0.955003
-0.706901 0.461368 0.902068
-0.796258 0.461493 0.845999
-0.654632 0.461754 0.904308
-0.706697 0.462029 0.865644
-0.50085 0.462406 0.955085
-0.824892 0.462699 0.780261
-0.762095 0.463006 0.79872
-0.703534 0.463329 0.814925
-0.654547 0.463666 0.826201
-0.630318 0.464125 0.824073
-0.7723 0.464595 0.738726
-0.701725 0.465076 0.759544
-0.757273 0.465569 0.717184
-0.625382 0.466169 0.767618
-0.491563 0.466682 0.819723
-0.549201 0.467297 0.77521
-0.431643 0.467969 0.817785
-0.481795 0.468609 0.776756
-0.538224 0.469414 0.731141
-0.539247 0.470503 0.710776
-0.513247 0.471369 0.705778
-0.44364 0.472608 0.719343
-0.58373 0.47432 0.623935
-0.710854 0.48343 1.22405
-0.798777 0.481766 1.18131
-0.778205 0.48051 1.18999
-0.736667 0.479484 1.20755
-0.957816 0.478652 1.09244
-0.844759 0.477832 1.14438
-0.614853 0.477234 1.25317
-0.846937 0.476824 1.12964
-0.895128 0.476046 1.10074
-0.701462 0.475482 1.19125
-0.629423 0.475105 1.2196
-0.796296 0.474738 1.12844
-0.837748 0.47421 1.10119
-0.893916 0.473868 1.06524
-0.928735 0.473702 1.03867
-0.847459 0.473379 1.07132
-0.817813 0.47307 1.07807
-0.858704 0.47292 1.04838
-0.991867 0.472798 0.972351
-0.797529 0.472524 1.06121
-0.889022 0.472266 1.00706
-0.884644 0.472303 0.998617
-0.842142 0.472068 1.0113
-0.97948 0.472007 0.932753
-0.833207 0.471904 0.996334
-0.781592 0.471865 1.0121
-0.808452 0.47184 0.988528
-0.890407 0.471908 0.936691
-0.543326 0.47183 1.10049
-0.770522 0.471835 0.976518
-0.925787 0.471857 0.888385
-0.746687 0.471945 0.966911
-0.913125 0.47199 0.873007
-0.909181 0.472191 0.863073
-0.784063 0.472404 0.91362
-0.836306 0.47238 0.877341
-0.801683 0.472615 0.882454
-0.787371 0.472864 0.877294
-0.85949 0.473124 0.828825
-0.71786 0.473263 0.888168
-0.683531 0.473547 0.892708
-0.761136 0.473846 0.841153
-0.708078 0.474244 0.854118
-0.62381 0.47456 0.883328
-0.817933 0.474946 0.772764
-0.800247 0.475353 0.767929
-0.788809 0.475787 0.759727
-0.687755 0.476281 0.79582
-0.591944 0.476788 0.829179
-0.496041 0.477305 0.86247
-0.455605 0.477825 0.867983
-0.397957 0.478474 0.881023
-0.500807 0.47912 0.813808
-0.489606 0.479822 0.803135
-0.444576 0.480648 0.808313
-0.453813 0.481591 0.785365
-0.271389 0.482468 0.858742
-0.450006 0.483453 0.75067
-0.452281 0.484662 0.728847
-0.388695 0.487356 0.727478
-0.716341 0.49654 1.22699
-0.765899 0.494422 1.20621
-0.775336 0.492906 1.20143
-0.648463 0.491849 1.26167
-0.812756 0.49099 1.175
-0.713506 0.490143 1.22005
-0.953015 0.489123 1.09698
-0.825176 0.488703 1.1534
-0.896725 0.488106 1.1114
-0.783416 0.487703 1.16048
-0.927097 0.487126 1.08231
-0.843997 0.486744 1.11618
-0.870118 0.486192 1.09666
-0.761293 0.485833 1.14325
-0.788471 0.485487 1.12177
-0.651444 0.485154 1.18231
-0.825272 0.484835 1.08734
-0.828076 0.48453 1.07779
-0.988401 0.484383 0.988344
-0.801047 0.484101 1.07373
-0.77609 0.484004 1.07658
-0.8064 0.483876 1.05203
-0.992244 0.483633 0.950557
-0.835659 0.483571 1.01898
-1.01078 0.483463 0.921878
-0.858493 0.483424 0.987993
-0.932307 0.483398 0.940949
-0.705341 0.483313 1.04475
-0.903695 0.483311 0.935259
-0.851682 0.483325 0.950837
-0.860658 0.483414 0.935355
-0.962334 0.483452 0.873912
-0.822037 0.483551 0.932984
-0.721829 0.483612 0.972296
-0.814162 0.483835 0.914107
-0.720104 0.483951 0.949916
-0.721625 0.484053 0.938043
-0.789961 0.484311 0.891558
-1.03683 0.484582 0.755695
-0.787908 0.484724 0.868712
-0.825175 0.485017 0.837459
-0.681376 0.485324 0.896615
-0.606723 0.485647 0.92107
-0.695946 0.48611 0.862477
-0.896208 0.48646 0.749226
-0.713179 0.486826 0.827484
-0.830268 0.487326 0.754613
-0.68911 0.48772 0.811674
-0.670789 0.488245 0.80627
-0.68829 0.488892 0.781962
-0.567451 0.489546 0.826749
-0.639771 0.4901 0.775718
-0.635312 0.490799 0.761896
-0.535405 0.491633 0.794687
-0.476583 0.492335 0.807959
-0.654799 0.493306 0.700516
-0.467385 0.494208 0.776409
-0.474392 0.495709 0.750198
-0.427848 0.49728 0.750134
-0.739456 0.5105 1.21569
-0.697747 0.50728 1.24751
-0.826976 0.50553 1.18411
-0.795878 0.504211 1.19803
-0.813572 0.502904 1.18752
-0.651278 0.502258 1.26258
-0.874197 0.501399 1.14651
-0.89562 0.50077 1.12965
-0.654809 0.499941 1.2453
-0.851316 0.499528 1.13947
-0.76494 0.498934 1.17635
-0.771772 0.498542 1.16525
-0.808429 0.497972 1.14049
-0.735296 0.497603 1.16924
-0.762361 0.497247 1.14783
-0.909361 0.496904 1.06637
-0.896022 0.496738 1.06385
-0.842728 0.496415 1.08242
-0.84557 0.496108 1.07282
-0.847193 0.495816 1.06375
-0.889253 0.49554 1.03435
-0.809108 0.495408 1.06503
-0.862035 0.49533 1.0288
-0.876638 0.495094 1.01287
-0.911935 0.495153 0.984479
-0.984047 0.494943 0.939621
-0.838044 0.494918 1.00249
-0.822734 0.494828 1.00049
-0.909184 0.494827 0.946961
-0.882087 0.494841 0.950096
-0.804435 0.494934 0.977932
-0.940782 0.494871 0.899905
-0.896219 0.495025 0.910743
-0.888025 0.495135 0.903712
-0.862832 0.495214 0.90541
-0.792464 0.495335 0.929377
-0.640806 0.495571 0.993128
-0.859345 0.495706 0.872521
-0.713782 0.495988 0.932867
-0.820939 0.496134 0.867859
-0.906406 0.496437 0.81251
-0.704922 0.496754 0.900515
-0.703964 0.497086 0.888132
-0.757611 0.497433 0.84832
-0.913509 0.497925 0.756261
-0.555072 0.498301 0.922241
-0.803368 0.498691 0.784721
-0.60862 0.499221 0.86764
-0.751531 0.499763 0.781621
-0.644648 0.50042 0.819584
-0.574497 0.500993 0.839799
-0.369207 0.50168 0.926683
-0.556204 0.502503 0.816328
-0.593674 0.503251 0.781297
-0.481059 0.504136 0.8202
-0.552864 0.50515 0.765851
-0.721922 0.506375 0.661175
-0.45441 0.507647 0.774356
-0.539651 0.509593 0.705793
-0.790668 0.520151 1.20837
-0.718916 0.518363 1.24538
-0.894851 0.51657 1.15865
-0.768688 0.515226 1.22008
-0.810566 0.51456 1.19306
-0.864102 0.513674 1.1617
-0.920509 0.512803 1.12884
-0.883906 0.512165 1.14097
-0.814667 0.511537 1.16938
-0.813482 0.510714 1.16508
-0.856459 0.510312 1.13591
-0.988412 0.509725 1.06352
-0.792894 0.509347 1.15348
-0.682027 0.50898 1.20104
-0.918658 0.508802 1.07358
-0.950703 0.508456 1.04958
-0.886718 0.507935 1.0748
-0.923997 0.507619 1.048
-0.816727 0.507467 1.09236
-0.810552 0.507359 1.08587
-0.894299 0.507082 1.0356
-0.860243 0.506821 1.04413
-0.933751 0.506697 0.997927
-0.811913 0.50664 1.04894
-0.896851 0.506423 0.997689
-0.847799 0.506495 1.0114
-0.840105 0.506304 1.0063
-0.80351 0.506303 1.01431
-0.734985 0.506317 1.03817
-0.745255 0.506413 1.02205
-0.85553 0.506347 0.957081
-0.713023 0.506394 1.0177
-0.840679 0.506458 0.94311
-0.715891 0.506577 0.994349
-0.668953 0.506795 1.00594
-0.863257 0.506928 0.897516
-0.836513 0.507194 0.898641
-0.788426 0.507342 0.911293
-0.779806 0.507493 0.90418
-0.860888 0.507806 0.851027
-0.525487 0.508133 1.006
-0.767226 0.508475 0.872272
-0.590294 0.508832 0.94776
-0.780171 0.509204 0.839716
-0.682782 0.509726 0.874173
-0.700038 0.510127 0.852192
-0.590618 0.510674 0.892444
-0.59908 0.511232 0.873649
-0.749757 0.51178 0.7838
-0.685644 0.512495 0.800065
-0.453419 0.513216 0.900312
-0.687654 0.513943 0.767253
-0.497587 0.514822 0.845163
-0.790413 0.51573 0.681367
-0.438533 0.516845 0.838312
-0.490997 0.517927 0.793297
-0.282697 0.519544 0.874506
-0.425094 0.521889 0.77471
-0.779914 0.530761 1.22507
-0.801381 0.528924 1.21554
-0.734227 0.527995 1.24457
-0.732527 0.52686 1.24223
-0.791293 0.525948 1.20827
-0.8638 0.524838 1.16876
-0.645326 0.523957 1.27329
-0.859939 0.52352 1.15842
-0.756031 0.522884 1.20413
-0.747063 0.52226 1.20232
-0.804371 0.521853 1.16596
-0.933129 0.521255 1.09516
-0.846751 0.520873 1.13052
-0.70365 0.520503 1.19418
-0.953725 0.519949 1.06249
-0.828312 0.519608 1.11714
-0.920138 0.519283 1.06308
-0.890658 0.519126 1.06856
-0.8827 0.518824 1.06426
-0.717124 0.518538 1.13867
-0.905013 0.518402 1.03534
-0.991355 0.51833 0.982364
-0.666209 0.518086 1.1363
-0.795991 0.517971 1.0619
-0.788429 0.517938 1.05562
-0.84154 0.517836 1.01947
-0.805627 0.517738 1.02782
-0.754916 0.517832 1.04224
-0.782467 0.517753 1.01872
-0.847219 0.517784 0.975843
-0.726052 0.517831 1.02581
-0.853458 0.517896 0.951364
-0.739311 0.517978 0.997574
-0.912095 0.518108 0.899975
-0.751459 0.518215 0.969242
-0.774296 0.518501 0.945505
-0.739434 0.518649 0.951585
-0.765393 0.518799 0.927234
-0.765225 0.519123 0.914706
-0.846487 0.51946 0.861346
-0.746173 0.519812 0.898656
-0.741126 0.52018 0.88821
-0.752401 0.520562 0.869479
-0.696408 0.52096 0.884256
-0.810038 0.521373 0.814093
-0.649272 0.52194 0.879996
-0.705528 0.52261 0.836611
-0.7218 0.523209 0.813715
-0.655102 0.523819 0.832196
-0.622769 0.524567 0.832455
-0.605148 0.525457 0.824288
-0.653724 0.526376 0.782766
-0.639423 0.527325 0.772427
-0.456266 0.528416 0.845424
-0.657261 0.529723 0.724691
-0.425947 0.531399 0.817298
-0.531115 0.534168 0.733416
-0.745837 0.544533 1.24377
-0.777994 0.541737 1.23454
-0.772387 0.540323 1.23567
-0.855144 0.539157 1.19112
-0.711226 0.537763 1.26138
-0.979251 0.537074 1.12126
-0.70261 0.536165 1.25491
-0.800319 0.535497 1.19989
-0.866334 0.534839 1.16068
-0.890379 0.534193 1.14239
-0.765814 0.533563 1.19834
-0.92749 0.532947 1.1111
-0.928545 0.532555 1.10275
-0.875013 0.532176 1.12163
-0.917364 0.531604 1.09383
-0.919577 0.531427 1.08355
-0.850304 0.531085 1.11011
-0.984973 0.530757 1.0346
-0.806071 0.530446 1.11579
-0.840392 0.530296 1.08932
-0.826782 0.53001 1.08772
-0.907237 0.529741 1.03898
-0.807322 0.529613 1.0795
-0.829984 0.529563 1.05822
-0.943829 0.529338 0.992517
-0.771131 0.529233 1.06929
-0.980912 0.529223 0.954189
-0.989209 0.529132 0.940381
-0.965815 0.52907 0.942221
-0.909108 0.529112 0.960022
-0.885697 0.529228 0.960665
-0.881053 0.52917 0.953107
-0.803264 0.529245 0.981212
-0.826412 0.529477 0.957774
-0.772092 0.529619 0.973677
-0.837365 0.529745 0.929884
-0.919332 0.529899 0.877554
-0.765622 0.530216 0.94192
-0.823434 0.530386 0.901538
-0.842355 0.530735 0.87935
-0.778513 0.531098 0.898429
-0.768221 0.53144 0.890865
-0.772555 0.531869 0.875364
-0.869978 0.532277 0.813445
-0.696584 0.532702 0.88681
-0.878912 0.533141 0.782186
-0.769964 0.53374 0.822057
-0.52861 0.53445 0.92731
-0.567972 0.53508 0.892748
-0.787773 0.535981 0.766005
-0.714132 0.536772 0.786737
-0.52015 0.537718 0.866492
-0.684842 0.538694 0.766657
-0.419599 0.539818 0.880673
-0.672733 0.54116 0.733881
-0.401682 0.542665 0.847945
-0.464408 0.545474 0.785532
-0.55177 0.555041 1.35215
-0.705718 0.55312 1.27634
-0.835294 0.551449 1.21127
-0.82789 0.550487 1.21041
-0.935712 0.549308 1.15329
-0.805353 0.548371 1.21383
-1.00543 0.547681 1.10765
-0.93701 0.546775 1.13709
-0.942511 0.546109 1.1281
-0.9275 0.545456 1.12932
-1.06936 0.545036 1.05066
-0.952807 0.544409 1.10253
-0.964952 0.544014 1.08862
-0.828974 0.543417 1.15005
-1.05137 0.54305 1.03086
-0.780365 0.542698 1.1583
-1.11606 0.542527 0.981232
-0.843206 0.542198 1.10946
-1.0284 0.541885 1.00858
-0.882449 0.541589 1.07317
-0.880279 0.541448 1.06489
-0.896298 0.541179 1.04834
-0.974047 0.540928 1.00083
-0.892771 0.540809 1.03196
-0.801913 0.540783 1.0673
-0.971543 0.540578 0.973556
-0.9043 0.540586 0.996867
-0.747251 0.5405 1.06569
-0.889557 0.540533 0.984061
-0.906715 0.540462 0.96569
-0.787053 0.540521 1.01487
-0.826726 0.540598 0.984258
-0.974398 0.540692 0.89953
-0.706488 0.540835 1.02226
-0.856181 0.540955 0.93634
-0.827963 0.541256 0.938151
-0.743215 0.541422 0.969127
-0.774497 0.541592 0.942058
-0.862635 0.541774 0.886469
-0.80892 0.542141 0.90054
-0.711431 0.542522 0.936384
-0.869313 0.542919 0.844425
-0.805718 0.543331 0.863084
-0.916351 0.543913 0.793439
-0.736276 0.544429 0.869589
-0.793238 0.544895 0.827538
-0.594178 0.545672 0.911326
-0.660895 0.546276 0.863398
-0.629122 0.54708 0.8633
-0.790337 0.548023 0.7657
-0.686604 0.548996 0.800326
-0.66799 0.549999 0.792146
-0.677618 0.551159 0.768701
-0.755477 0.552535 0.70956
-0.658506 0.554417 0.734194
-0.381102 0.556961 0.844258
-0.74705 0.568618 1.25768
-0.863288 0.565935 1.20495
-0.845038 0.564222 1.21378
-0.927737 0.56275 1.17075
-0.653003 0.561539 1.30493
-0.71293 0.560574 1.27034
-0.981846 0.559394 1.1326
-0.815139 0.558927 1.20839
-0.847911 0.558238 1.18581
-0.885761 0.557561 1.16064
-0.881916 0.556683 1.15757
-0.881614 0.556039 1.15133
-0.886325 0.555634 1.14114
-0.732366 0.555019 1.21159
-0.792594 0.55483 1.17234
-0.884406 0.554461 1.11842
-0.969273 0.554106 1.06789
-0.956915 0.553551 1.06724
-0.994387 0.553231 1.04023
-0.842304 0.553077 1.10696
-0.91996 0.552783 1.05972
-0.942423 0.552507 1.03997
-0.844188 0.552584 1.07833
-1.03069 0.552333 0.976412
-0.945125 0.552102 1.01041
-0.911833 0.551993 1.01749
-0.85903 0.551993 1.03365
-0.889743 0.55181 1.00921
-0.774395 0.551844 1.05642
-0.928208 0.55177 0.969743
-0.943543 0.551831 0.951435
-0.804057 0.551909 1.01042
-0.891877 0.552004 0.955639
-0.89559 0.552118 0.942788
-0.789121 0.552274 0.984748
-0.783836 0.552414 0.976213
-0.960342 0.552581 0.876598
-0.933813 0.552748 0.878496
-0.932668 0.553109 0.866406
-0.882833 0.553312 0.879701
-0.911265 0.553705 0.852587
-0.714304 0.554114 0.938055
-0.59926 0.554537 0.982448
-0.725943 0.554976 0.905858
-0.69192 0.55543 0.909499
-0.954069 0.556141 0.763301
-0.656729 0.556635 0.898293
-0.718611 0.557449 0.851481
-0.711607 0.55809 0.840263
-0.731039 0.559064 0.813525
-0.677883 0.560062 0.822881
-0.566248 0.561216 0.860368
-0.53881 0.562259 0.856478
-0.543993 0.563652 0.833818
-0.641882 0.565437 0.762039
-0.412616 0.568384 0.8457
-0.630194 0.579511 1.32463
-0.912884 0.577013 1.18728
-0.836764 0.575506 1.22365
-0.889576 0.574007 1.19555
-0.822285 0.572775 1.226
-0.933734 0.571558 1.16703
-0.935402 0.571077 1.15864
-0.922512 0.570366 1.15892
-0.93455 0.569201 1.14946
-0.926364 0.568755 1.14587
-0.87622 0.568085 1.16461
-1.02212 0.56743 1.08526
-0.807099 0.567022 1.18491
-0.940956 0.566398 1.11144
-0.963671 0.56602 1.09208
-0.822806 0.565836 1.15334
-1.03031 0.565255 1.04284
-0.889393 0.564917 1.10508
-0.819962 0.564596 1.1315
-0.927966 0.564293 1.0691
-0.950801 0.564148 1.04832
-0.903345 0.563871 1.0635
-0.903531 0.563614 1.05475
-1.00686 0.563493 0.993597
-0.941747 0.563475 1.01602
-1.0289 0.563265 0.96351
-0.919651 0.563168 1.00851
-0.832065 0.563194 1.0419
-0.882055 0.563112 1.00719
-0.935014 0.563097 0.970566
-0.877358 0.563234 0.98829
-0.717645 0.563177 1.05827
-0.879256 0.563274 0.966609
-0.840733 0.563389 0.974893
-0.711559 0.563523 1.02838
-0.858909 0.563676 0.943481
-0.80598 0.564032 0.957398
-0.853177 0.564216 0.92236
-0.859226 0.564413 0.907803
-0.884894 0.564808 0.882139
-0.938594 0.565041 0.843498
-0.739164 0.565643 0.929008
-0.843049 0.566083 0.863895
-0.754095 0.566605 0.894647
-0.949619 0.567087 0.783406
-0.871134 0.567747 0.807971
-0.769688 0.568521 0.843243
-0.793576 0.569213 0.816359
-0.667872 0.570044 0.863321
-0.738713 0.571061 0.810733
-0.760306 0.572109 0.78253
-0.74475 0.573471 0.770749
-0.711211 0.574899 0.767462
-0.693167 0.576727 0.753671
-0.284866 0.579371 0.929416
-0.792669 0.595324 1.23421
-0.790176 0.589818 1.25612
-0.880292 0.58828 1.20933
-0.767965 0.586493 1.26523
-0.843913 0.585474 1.22265
-0.978091 0.584217 1.15237
-0.887941 0.582977 1.1942
-0.966234 0.582491 1.14749
-1.04041 0.581287 1.10702
-0.887561 0.58058 1.17721
-0.906498 0.580131 1.16003
-0.853027 0.57945 1.18043
-0.965965 0.578785 1.11755
-1.09763 0.578375 1.04384
-0.932599 0.577741 1.1198
-0.895989 0.577361 1.13008
-0.791254 0.576762 1.17573
-0.93115 0.576587 1.09656
-1.00002 0.576249 1.05389
-0.99745 0.575927 1.04684
-0.936973 0.575623 1.06866
-0.965818 0.575479 1.04486
-1.00311 0.575203 1.01765
-0.995656 0.574946 1.01269
-0.8974 0.57471 1.05303
-0.857988 0.574599 1.06318
-1.01825 0.574493 0.973469
-1.01663 0.574421 0.964497
-1.07081 0.574335 0.927709
-0.91083 0.57439 0.997144
-0.963335 0.574319 0.961104
-0.89971 0.574401 0.982186
-0.920928 0.5745 0.960735
-1.0751 0.574456 0.873701
-0.902028 0.574584 0.949211
-1.01585 0.574909 0.880034
-1.01012 0.575082 0.871573
-0.955895 0.575272 0.88725
-0.81041 0.575473 0.948478
-0.876291 0.575881 0.902706
-0.796379 0.576303 0.929722
-0.838923 0.576559 0.896558
-0.922126 0.577014 0.84178
-0.704273 0.577484 0.937414
-0.761937 0.57797 0.895173
-0.736241 0.578729 0.892833
-0.65588 0.579254 0.919307
-0.713315 0.580238 0.873893
-0.693023 0.58109 0.868161
-0.786847 0.581994 0.804998
-0.825281 0.583056 0.768471
-0.507546 0.584297 0.908806
-0.652759 0.585746 0.816258
-0.616217 0.5876 0.811865
-0.690823 0.590043 0.747929
-0.749979 0.604439 1.27378
-0.780644 0.601069 1.26665
-0.935829 0.599241 1.18878
-0.796079 0.597678 1.25695
-1.04468 0.596388 1.12948
-0.86516 0.595369 1.21458
-0.757612 0.594613 1.26224
-0.890485 0.59337 1.19248
-0.910259 0.59264 1.1764
-0.913732 0.591923 1.16842
-0.975382 0.591469 1.12987
-0.985386 0.590779 1.11851
-0.921953 0.590103 1.14382
-0.78085 0.58969 1.20646
-0.895853 0.589048 1.1424
-0.922975 0.588666 1.12078
-0.962335 0.588059 1.09437
-0.909649 0.587712 1.11249
-1.04811 0.587545 1.034
-0.995293 0.587223 1.05205
-0.919742 0.58692 1.08137
-0.846302 0.586635 1.10954
-0.881355 0.5865 1.08259
-0.866795 0.586245 1.08116
-0.905382 0.58601 1.05305
-0.998946 0.5859 0.996706
-0.923187 0.585696 1.02559
-0.996139 0.585602 0.97947
-0.995374 0.58557 0.969835
-0.979545 0.585713 0.966678
-1.0188 0.585581 0.937637
-0.968175 0.585683 0.952122
-0.956812 0.585636 0.947879
-0.80892 0.585766 1.01082
-0.894804 0.585915 0.956748
-1.07066 0.586083 0.857573
-1.05526 0.586274 0.853873
-0.861551 0.586469 0.939295
-0.787872 0.58688 0.963363
-0.78381 0.587112 0.953717
-1.01784 0.587554 0.823707
-0.809001 0.587824 0.916193
-0.895328 0.588299 0.859798
-0.726775 0.589041 0.929149
-0.951475 0.589555 0.803283
-0.944679 0.590261 0.791933
-0.818379 0.59091 0.840673
-0.855363 0.591941 0.805319
-0.561765 0.592836 0.936088
-0.750371 0.593929 0.82445
-0.775302 0.595053 0.794419
-0.745928 0.596516 0.789318
-0.406241 0.598245 0.93761
-0.640755 0.600504 0.795312
-0.754958 0.614665 1.28276
-0.914279 0.612006 1.20709
-0.685472 0.610407 1.31977
-0.909676 0.608553 1.20741
-0.797608 0.607766 1.25738
-0.873554 0.606731 1.21473
-0.817947 0.60545 1.23926
-0.923761 0.604698 1.18019
-1.07796 0.603956 1.09689
-0.710641 0.603227 1.2743
-1.10581 0.60229 1.07166
-0.936585 0.601853 1.14844
-1.10545 0.601384 1.05636
-0.92539 0.60097 1.13846
-1.074 0.600318 1.05759
-1.11599 0.599935 1.02851
-1.01358 0.599321 1.07297
-0.924214 0.598973 1.10941
-0.938353 0.598805 1.09306
-0.977907 0.598242 1.0663
-1.02318 0.597941 1.03518
-0.997691 0.59766 1.03934
-0.942663 0.597526 1.05741
-0.997832 0.597275 1.02108
-0.808896 0.597044 1.1067
-1.02029 0.597168 0.990074
-0.976519 0.596966 1.00294
-1.00114 0.596787 0.981488
-1.09313 0.596705 0.925775
-1.00134 0.596782 0.961026
-0.903339 0.596716 1.00022
-0.854507 0.59677 1.01411
-0.805566 0.596903 1.02759
-0.921586 0.597055 0.958474
-0.950997 0.597243 0.932434
-0.947668 0.597226 0.924001
-0.85234 0.597415 0.960313
-1.01135 0.597829 0.86809
-0.977644 0.598055 0.873353
-0.896735 0.598301 0.902088
-0.875282 0.598764 0.89976
-0.957167 0.599294 0.845338
-0.707025 0.599797 0.957072
-0.797585 0.600317 0.898342
-0.704623 0.601036 0.930115
-0.974617 0.601683 0.780834
-0.599473 0.602551 0.952726
-0.730463 0.603501 0.871015
-0.672465 0.604568 0.883027
-0.700918 0.60571 0.85131
-0.924505 0.607046 0.72077
-0.725544 0.608756 0.799097
-0.658857 0.610882 0.808597
-0.498223 0.614116 0.857978
-0.87772 0.625327 1.23006
-0.888992 0.623154 1.22556
-0.848119 0.621253 1.24575
-0.938641 0.620179 1.19586
-0.975252 0.618844 1.17437
-0.889028 0.618054 1.21139
-0.861337 0.616751 1.22195
-0.852072 0.615986 1.22041
-0.993586 0.615234 1.14345
-1.0441 0.614263 1.11321
-1.01346 0.613544 1.12218
-0.928728 0.612842 1.15814
-0.90364 0.612418 1.16276
-0.912266 0.612212 1.14933
-0.856841 0.611552 1.17046
-1.01724 0.610911 1.08359
-0.968226 0.610546 1.09991
-0.971515 0.610198 1.08999
-1.04666 0.609779 1.04455
-1.05089 0.60946 1.03402
-0.885924 0.609161 1.10799
-1.03632 0.608881 1.02418
-1.00625 0.608749 1.02977
-1.01517 0.608499 1.01653
-0.966194 0.608271 1.03214
-1.04924 0.608164 0.981037
-0.922346 0.607968 1.03543
-0.831748 0.608027 1.0702
-1.00792 0.607873 0.972823
-0.902592 0.608034 1.01437
-1.06648 0.607912 0.92295
-1.01966 0.60786 0.936484
-0.933706 0.607996 0.968482
-0.974995 0.60815 0.936743
-0.981635 0.608324 0.922212
-0.884408 0.608517 0.959495
-0.816903 0.608727 0.981807
-1.05828 0.608948 0.849608
-0.874934 0.609188 0.929645
-1.03663 0.609655 0.835805
-0.824688 0.61018 0.928412
-0.783625 0.610687 0.935677
-0.780926 0.611012 0.924834
-0.833393 0.611746 0.883929
-0.831193 0.612392 0.870865
-0.893858 0.613267 0.82395
-0.659072 0.613871 0.927389
-0.998194 0.614987 0.740718
-0.857987 0.616133 0.793494
-0.828371 0.617478 0.789714
-0.683225 0.619055 0.84222
-0.61365 0.621178 0.853518
-0.704165 0.624026 0.780203
-0.833439 0.640038 1.24992
-0.870527 0.636471 1.2395
-0.814036 0.634529 1.26747
-0.833481 0.632591 1.25751
-0.937187 0.6315 1.20101
-0.878244 0.630141 1.2273
-0.946257 0.628801 1.19005
-1.03226 0.628013 1.14091
-1.04128 0.627237 1.13023
-0.921059 0.626233 1.18541
-0.979749 0.625489 1.14977
-1.10184 0.624761 1.08237
-1.03217 0.624049 1.11079
-0.976872 0.623624 1.1305
-1.06023 0.622947 1.08226
-0.923872 0.622748 1.14128
-1.02792 0.6221 1.08257
-0.885489 0.621735 1.14557
-0.850668 0.621127 1.15611
-0.80643 0.620961 1.16894
-0.978136 0.620644 1.07465
-0.968448 0.620346 1.07095
-1.11189 0.620067 0.990585
-0.907684 0.619936 1.08323
-0.960841 0.619689 1.04786
-1.11558 0.619463 0.961572
-0.90852 0.619358 1.05552
-1.11558 0.619165 0.942902
-1.02645 0.618995 0.97826
-0.922844 0.619084 1.01939
-0.875981 0.619018 1.03302
-0.905403 0.618957 1.00849
-0.923266 0.619042 0.988905
-1.01971 0.6192 0.929605
-0.962762 0.619172 0.948063
-0.967714 0.61936 0.934328
-1.00721 0.619568 0.903203
-0.893422 0.620013 0.947327
-0.850769 0.620241 0.957138
-0.798545 0.620521 0.971422
-0.836317 0.621016 0.93944
-0.978887 0.621317 0.856176
-0.846167 0.621845 0.909216
-0.852918 0.622185 0.893612
-0.969897 0.623033 0.819872
-0.727253 0.623618 0.927478
-0.821604 0.624526 0.864647
-0.729261 0.625469 0.894916
-0.899302 0.626449 0.793744
-0.578906 0.627829 0.935348
-0.947313 0.62941 0.731301
-0.74054 0.631219 0.813411
-0.563735 0.633686 0.876485
-0.702625 0.638703 0.766129
-1.01463 0.650653 1.16798
-0.89925 0.647276 1.23249
-0.949419 0.645586 1.20566
-0.855341 0.644178 1.24956
-0.897019 0.642221 1.22846
-0.964509 0.641398 1.18864
-0.941389 0.640035 1.19695
-0.961022 0.639235 1.181
-0.988167 0.6382 1.16254
-0.963714 0.637432 1.16852
-0.82033 0.636678 1.23391
-1.0658 0.63594 1.10481
-0.959611 0.635219 1.15148
-0.87889 0.634792 1.18387
-0.890254 0.634309 1.17053
-1.15694 0.633908 1.02911
-1.06175 0.633252 1.07001
-0.838827 0.632887 1.17323
-0.858633 0.632273 1.15644
-0.945937 0.632108 1.10349
-1.11247 0.631791 1.01176
-1.03955 0.631495 1.03965
-1.09136 0.63096 1.00649
-0.845238 0.630831 1.12009
-1.08795 0.630589 0.98989
-1.0737 0.630368 0.988066
-1.09022 0.630267 0.970212
-0.899742 0.630329 1.05494
-0.926936 0.630162 1.03211
-0.916374 0.630019 1.02804
-0.959055 0.630198 0.995537
-0.90902 0.630088 1.01102
-1.04218 0.630041 0.934538
-0.959124 0.630203 0.965001
-0.903941 0.630365 0.981518
-0.977247 0.630576 0.933507
-1.03791 0.630802 0.89172
-1.04844 0.631041 0.874922
-0.962375 0.6313 0.906303
-0.850863 0.631579 0.950282
-0.952902 0.632096 0.88611
-0.836052 0.632413 0.932517
-0.790408 0.632962 0.941966
-0.776312 0.633527 0.935534
-0.898375 0.634198 0.860385
-0.94277 0.635114 0.822621
-0.761398 0.635744 0.899381
-0.89082 0.63672 0.818698
-0.898629 0.638268 0.795421
-0.91256 0.639512 0.770828
-0.679055 0.641156 0.867546
-0.624184 0.643422 0.871207
-0.650881 0.646586 0.828668
-0.890297 0.661188 1.23888
-0.829967 0.658595 1.27163
-0.881561 0.656876 1.24409
-0.943663 0.654868 1.21281
-0.947159 0.653451 1.2079
-0.891222 0.652614 1.22979
-0.907876 0.651524 1.21671
-0.999347 0.650418 1.16633
-1.13617 0.649371 1.09302
-0.858116 0.648592 1.22579
-1.1908 0.647828 1.05314
-1.1448 0.64708 1.06977
-0.940886 0.64635 1.16529
-1.23519 0.645923 1.01014
-1.00768 0.645432 1.11625
-1.00175 0.645031 1.11111
-1.06801 0.644368 1.07127
-1.10112 0.644003 1.04645
-1.03083 0.643383 1.07469
-1.00582 0.643218 1.07789
-0.962115 0.642903 1.09125
-1.23279 0.64234 0.948748
-1.17977 0.642202 0.965837
-1.0441 0.641942 1.02491
-0.990402 0.641703 1.0429
-0.993617 0.641486 1.03231
-1.1585 0.641386 0.940264
-1.0616 0.641203 0.979564
-1.01695 0.64112 0.992194
-0.99643 0.641224 0.991743
-1.02807 0.641097 0.966478
-1.06335 0.641042 0.938992
-0.944837 0.641159 0.987463
-1.00846 0.641343 0.944487
-0.974256 0.641323 0.951557
-1.1012 0.641537 0.876741
-0.900937 0.64177 0.965426
-0.939852 0.642013 0.934454
-0.914309 0.642276 0.935591
-0.889255 0.642821 0.934886
-1.00526 0.643133 0.86495
-0.960773 0.643466 0.875135
-0.892284 0.644037 0.895954
-0.767775 0.644709 0.944194
-0.928427 0.645322 0.850169
-0.856359 0.64627 0.870561
-0.876019 0.647255 0.844854
-0.755479 0.648275 0.889009
-0.809755 0.649331 0.845515
-0.889848 0.650988 0.785599
-0.860229 0.653076 0.777986
-0.733609 0.655644 0.816015
-0.696657 0.660868 0.793623
-0.694037 0.671928 1.34442
-0.844514 0.669589 1.27029
-0.910376 0.667535 1.23714
-0.880473 0.666081 1.24895
-1.04932 0.66464 1.16136
-0.945726 0.663791 1.20708
-0.942976 0.662687 1.20369
-0.966104 0.661863 1.18598
-0.981722 0.660502 1.17476
-0.971551 0.659712 1.17358
-1.06312 0.658939 1.12148
-1.11212 0.658182 1.0906
-0.893695 0.657444 1.19336
-0.903195 0.657227 1.17951
-1.05916 0.656517 1.09497
-1.06038 0.656116 1.08623
-1.13118 0.655446 1.04411
-1.0775 0.654798 1.06413
-0.957661 0.654625 1.11478
-0.943496 0.654292 1.11343
-0.8921 0.653701 1.13205
-1.12943 0.653412 1.00475
-1.00038 0.653275 1.05985
-0.925862 0.653017 1.08832
-1.01526 0.652782 1.03473
-0.895028 0.652672 1.08529
-1.0629 0.65247 0.992284
-1.05245 0.652292 0.988333
-1.18678 0.652211 0.911465
-1.01774 0.652068 0.986626
-0.988994 0.652005 0.991208
-1.09132 0.652107 0.929369
-1.15519 0.652067 0.887519
-1.0168 0.652256 0.945562
-1.01573 0.652233 0.936087
-1.02028 0.652452 0.922482
-0.978011 0.652691 0.932173
-0.89357 0.652949 0.962833
-1.14304 0.653228 0.826418
-1.04972 0.653527 0.861282
-0.797591 0.654128 0.973859
-0.832749 0.654704 0.942917
-0.709151 0.655071 0.992503
-0.86852 0.65599 0.897503
-0.866011 0.656404 0.886244
-0.956064 0.657386 0.825501
-0.8482 0.658403 0.863485
-0.791505 0.659457 0.875651
-0.810606 0.660917 0.84758
-0.720796 0.662638 0.87243
-0.650184 0.664819 0.885013
-0.735106 0.668071 0.813635
-0.683368 0.688507 1.33916
-0.819055 0.683518 1.28494
-0.880403 0.680822 1.25692
-0.851632 0.678731 1.27109
-0.832102 0.677566 1.27619
-0.878131 0.676101 1.25001
-0.927931 0.674927 1.22056
-0.890315 0.673809 1.23459
-0.773586 0.672974 1.2868
-0.735185 0.672152 1.29981
-1.184 0.670794 1.0719
-1.01933 0.670011 1.14791
-0.953523 0.669547 1.17291
-1.04265 0.66902 1.12078
-0.925035 0.668282 1.17309
-1.08035 0.667564 1.08886
-0.889574 0.667163 1.1761
-1.066 0.666486 1.08115
-1.05375 0.666303 1.07804
-1.01829 0.66566 1.08889
-1.06693 0.665329 1.05611
-1.08826 0.664734 1.03836
-1.04142 0.664588 1.05239
-0.908538 0.664312 1.11012
-1.17065 0.664057 0.970247
-0.991946 0.663939 1.05009
-0.92877 0.663443 1.07413
-0.997748 0.663248 1.03054
-1.09542 0.66316 0.972053
-0.862753 0.663268 1.0777
-1.07161 0.66313 0.96388
-1.21913 0.663016 0.880605
-1.13889 0.662969 0.910863
-1.14632 0.66315 0.896069
-1.0488 0.66312 0.934871
-1.09804 0.663319 0.89907
-0.927038 0.663562 0.973145
-1.05339 0.663567 0.899823
-0.856633 0.663842 0.986592
-1.07748 0.664136 0.864445
-1.13508 0.664692 0.822499
-0.956595 0.665024 0.899787
-0.941431 0.665679 0.89365
-0.942293 0.666061 0.880968
-1.088 0.666693 0.794486
-0.931051 0.667445 0.858646
-0.831869 0.668461 0.892447
-0.914215 0.669512 0.835256
-1.01571 0.670598 0.768263
-0.805368 0.672102 0.854828
-0.778391 0.674274 0.845934
-0.808258 0.676731 0.806957
-0.667082 0.681228 0.841974
-0.749058 0.698372 1.31782
-0.830516 0.694146 1.2867
-0.83323 0.692013 1.28511
-0.995169 0.690209 1.20239
-0.801615 0.688705 1.29604
-0.935096 0.687217 1.22614
-0.90606 0.686342 1.23457
-0.932648 0.684891 1.21802
-0.957137 0.684045 1.19962
-0.898323 0.683213 1.22283
-1.15189 0.682395 1.0898
-1.09294 0.681594 1.11297
-1.07483 0.68081 1.11567
-1.07464 0.680044 1.10933
-1.13752 0.679298 1.07139
-1.08726 0.678573 1.08993
-1.03058 0.67787 1.11161
-1.0564 0.677677 1.0895
-1.16288 0.677307 1.02795
-1.18754 0.676659 1.00872
-1.16522 0.676035 1.01288
-0.896732 0.67588 1.13778
-1.1199 0.675586 1.01755
-1.08847 0.675313 1.02453
-1.04473 0.674898 1.03839
-1.1536 0.674661 0.975055
-1.07164 0.674447 1.00702
-0.914592 0.674257 1.07641
-1.11881 0.674171 0.96464
-1.01488 0.674017 1.0073
-0.993663 0.673887 1.00848
-1.07551 0.674102 0.956339
-1.07722 0.674006 0.945879
-1.07723 0.673935 0.936138
-1.10894 0.674152 0.909047
-1.1044 0.674138 0.901287
-1.03514 0.674386 0.924504
-0.984098 0.674654 0.938501
-1.05688 0.674942 0.890471
-1.11967 0.67525 0.847315
-0.853318 0.675579 0.968619
-0.938586 0.675928 0.91399
-1.02158 0.676298 0.86038
-1.00224 0.67701 0.856084
-0.980899 0.677664 0.853074
-0.991337 0.678675 0.83223
-0.906414 0.679494 0.860076
-0.82724 0.680579 0.883577
-0.957594 0.681699 0.802089
-0.933472 0.683247 0.795462
-0.788683 0.685481 0.845364
-0.825794 0.68864 0.799156
-0.867717 0.709024 1.26594
-0.78336 0.705333 1.31491
-0.859904 0.703494 1.27486
-0.848366 0.70133 1.28044
-0.917688 0.699802 1.24265
-0.918761 0.698291 1.23895
-1.03105 0.697405 1.17672
-1.04862 0.695932 1.16467
-1.07935 0.695076 1.14314
-0.980336 0.694233 1.18644
-1.13393 0.693406 1.10339
-0.835296 0.692595 1.2464
-1.08983 0.691803 1.11276
-1.06549 0.691029 1.11849
-0.948611 0.690276 1.17041
-1.00695 0.689544 1.13465
-0.933958 0.689341 1.16197
-0.922893 0.688642 1.16078
-0.964759 0.687967 1.13303
-1.08565 0.68762 1.06416
-1.12427 0.687455 1.03554
-1.2336 0.686839 0.973808
-1.15828 0.686547 1.0028
-1.11331 0.686113 1.01734
-0.998324 0.685858 1.06601
-1.19092 0.685626 0.960772
-1.13314 0.685518 0.980102
-1.19627 0.685321 0.93944
-0.938967 0.685148 1.05887
-1.11452 0.684999 0.961758
-0.981008 0.684934 1.01876
-1.11741 0.684822 0.941039
-1.06811 0.684776 0.955839
-1.04968 0.684946 0.954094
-1.01082 0.684907 0.963631
-0.84538 0.685165 1.03493
-1.11705 0.685161 0.889028
-1.027 0.685434 0.922542
-1.14049 0.685727 0.854169
-1.04451 0.686041 0.890419
-1.14393 0.686423 0.828604
-0.967891 0.686789 0.904586
-0.985162 0.687423 0.88249
-0.909623 0.687828 0.907994
-1.09807 0.688593 0.799576
-0.803026 0.689639 0.931398
-0.855514 0.690486 0.89048
-0.957809 0.691605 0.823179
-0.724406 0.692759 0.923506
-0.883323 0.69476 0.823085
-0.70368 0.697073 0.890203
-0.567652 0.70037 0.930127
-0.855846 0.719945 1.27784
-0.956105 0.716818 1.23164
-1.04715 0.71461 1.18591
-1.01209 0.71241 1.20325
-0.988776 0.710858 1.21178
-1.07422 0.709324 1.16589
-0.932554 0.708426 1.23065
-1.16335 0.707267 1.11041
-1.1324 0.706066 1.12128
-1.07234 0.705213 1.1451
-1.12236 0.704377 1.11383
-1.10233 0.703557 1.11752
-1.04066 0.702756 1.14197
-0.939299 0.701975 1.1862
-0.99332 0.701215 1.15266
-1.0645 0.701003 1.10793
-1.08589 0.700274 1.09058
-1.04353 0.699569 1.10503
-1.03358 0.698888 1.10316
-1.02014 0.698714 1.10061
-1.18141 0.69807 1.01299
-1.0684 0.69776 1.0609
-1.14225 0.697614 1.01459
-1.26181 0.697033 0.947553
-1.13369 0.696782 1.00276
-1.22493 0.696665 0.947626
-1.146 0.69645 0.978073
-1.09362 0.695963 0.996589
-1.04553 0.695878 1.01098
-1.04077 0.695726 1.00405
-1.08447 0.695885 0.971328
-1.09766 0.69578 0.955182
-0.993714 0.695737 0.997299
-1.04414 0.695669 0.962352
-0.894514 0.695645 1.02721
-0.987971 0.695886 0.969188
-1.16044 0.696159 0.871484
-1.08605 0.696177 0.89851
-1.04602 0.696487 0.906855
-1.03687 0.696818 0.899645
-1.14105 0.697169 0.835655
-0.984906 0.69754 0.90171
-1.24637 0.698264 0.757131
-1.02387 0.698685 0.856077
-0.936208 0.69948 0.885647
-0.837759 0.700197 0.920998
-0.991404 0.701059 0.829515
-1.01949 0.70259 0.797278
-0.887335 0.703778 0.846917
-0.871163 0.705416 0.836154
-0.741992 0.70821 0.875718
-0.923779 0.712483 0.751864
-0.880902 0.731111 1.26998
-0.887197 0.727928 1.27078
-0.962555 0.725683 1.23291
-1.09997 0.723447 1.16402
-0.961711 0.721872 1.23003
-1.07662 0.720947 1.16652
-0.922649 0.719406 1.24031
-1.1323 0.718508 1.12937
-0.988012 0.717356 1.1966
-1.01912 0.716153 1.17639
-1.02496 0.715308 1.1672
-1.1409 0.71448 1.1029
-1.10149 0.713671 1.11621
-1.20534 0.713107 1.05676
-0.999112 0.71233 1.15338
-1.16204 0.711903 1.06378
-1.10382 0.711169 1.08623
-1.03541 0.710648 1.11278
-1.00905 0.710273 1.11762
-1.05119 0.709599 1.08965
-0.971981 0.708951 1.12225
-1.12991 0.708795 1.03394
-0.959164 0.708187 1.11215
-1.07925 0.707917 1.04333
-0.962244 0.707791 1.09236
-1.16282 0.707556 0.983132
-1.14543 0.707042 0.984259
-1.06877 0.706947 1.01299
-1.07394 0.706776 1.00117
-1.01931 0.706629 1.01914
-0.849247 0.706566 1.09443
-1.17265 0.706457 0.9232
-1.17959 0.706374 0.91008
-0.95983 0.706604 1.00876
-1.01654 0.706569 0.970517
-1.05723 0.706562 0.940149
-0.934194 0.706846 0.990183
-0.986367 0.706857 0.953978
-0.991083 0.707173 0.939962
-1.13153 0.70755 0.857762
-1.00979 0.707919 0.906692
-0.989045 0.708308 0.905004
-1.16846 0.708718 0.803122
-1.0545 0.7095 0.846014
-1.07558 0.710215 0.821707
-0.902414 0.711064 0.893811
-0.896935 0.712203 0.880556
-0.952275 0.713133 0.837939
-1.02606 0.714756 0.78248
-0.96092 0.71644 0.796123
-0.92187 0.719307 0.790505
-0.733731 0.724646 0.846435
-0.929002 0.742233 1.25063
-0.946904 0.738996 1.24566
-0.839663 0.736713 1.29909
-0.904017 0.735097 1.26382
-0.862863 0.733493 1.28129
-0.986799 0.731907 1.21618
-1.00063 0.730696 1.20447
-1.0673 0.729436 1.1666
-1.03605 0.728541 1.17608
-0.995303 0.72766 1.19025
-1.04052 0.72645 1.16298
-0.999513 0.725606 1.17718
-1.14994 0.72478 1.09559
-1.0335 0.723975 1.14737
-1.22696 0.723191 1.04413
-0.959758 0.722429 1.17113
-1.291 0.722225 0.996343
-1.18545 0.721498 1.0424
-0.933786 0.720796 1.1614
-1.14377 0.720619 1.04715
-1.24162 0.719955 0.991258
-1.07125 0.719641 1.06783
-1.03919 0.71935 1.07516
-1.12643 0.718894 1.02363
-1.03223 0.718641 1.06188
-1.10649 0.718208 1.01675
-1.13102 0.717993 0.995451
-1.00803 0.717803 1.0478
-0.922917 0.717638 1.0811
-1.1205 0.717565 0.972613
-1.04806 0.717438 0.999397
-1.08967 0.717337 0.969039
-1.02933 0.717295 0.989364
-1.12511 0.717233 0.931734
-0.978926 0.717196 0.99496
-1.01295 0.717474 0.966533
-1.12471 0.717478 0.900592
-1.03662 0.717788 0.933054
-1.00614 0.717838 0.937995
-0.963386 0.718192 0.947557
-1.08401 0.718567 0.875319
-0.957539 0.718962 0.926512
-1.07049 0.719728 0.856127
-0.979159 0.720173 0.889474
-0.96814 0.72101 0.880677
-0.896547 0.721506 0.903871
-1.10875 0.722669 0.781769
-0.931688 0.724023 0.853294
-0.969874 0.725269 0.817707
-0.856256 0.727422 0.853354
-0.717786 0.730363 0.897326
-0.763799 0.737771 0.826014
-0.877526 0.753676 1.27953
-1.02204 0.750021 1.21285
-1.04747 0.747701 1.19996
-1.15856 0.74606 1.14133
-0.832205 0.744433 1.3014
-1.04578 0.742825 1.19146
-1.01962 0.741887 1.19847
-1.05129 0.740681 1.17778
-1.07764 0.739417 1.16004
-1.06023 0.738528 1.16254
-0.924192 0.737655 1.22431
-0.930588 0.736448 1.21638
-1.13344 0.735615 1.10857
-0.974665 0.73515 1.17993
-1.00352 0.734578 1.15798
-1.20758 0.733798 1.04939
