ply
format ascii 1.0
comment Created by Open3D
element vertex 1810
property double x
property double y
property double z
end_header
-0.898837 0.598055 0.912757
-0.891003 0.598301 0.904954
-0.879864 0.598764 0.897469
-0.867699 0.599294 0.890072
-0.855927 0.599797 0.882621
-0.843912 0.600317 0.875179
-0.828828 0.601036 0.868012
-0.814841 0.601683 0.860722
-0.79747 0.602551 0.853728
-0.778846 0.603501 0.846824
-0.758405 0.604568 0.840057
-0.736809 0.60571 0.833365
-0.712236 0.607046 0.826904
-0.681912 0.608756 0.820913
-0.645191 0.610882 0.81543
-0.591475 0.614116 0.811352
-0.829625 0.625327 1.25411
-0.857319 0.623154 1.2414
-0.881047 0.621253 1.22929
-0.892657 0.620179 1.21885
-0.908117 0.618844 1.20793
-0.91558 0.618054 1.19811
-0.930599 0.616751 1.18732
-0.937718 0.615986 1.17759
-0.944671 0.615234 1.16791
-0.954846 0.614263 1.15783
-0.961312 0.613544 1.14826
-0.967553 0.612842 1.13873
-0.969694 0.612418 1.12973
-0.968636 0.612212 1.12115
-0.974277 0.611552 1.11174
-0.979639 0.610911 1.10239
-0.98094 0.610546 1.09355
-0.981992 0.610198 1.08475
-0.984098 0.609779 1.07584
-0.984723 0.60946 1.06711
-0.985072 0.609161 1.05842
-0.985134 0.608881 1.04977
-0.983016 0.608749 1.04139
-0.982634 0.608499 1.0328
-0.981944 0.608271 1.02427
-0.979444 0.608164 1.01594
-0.97828 0.607968 1.00746
-0.973332 0.608027 0.999411
-0.971544 0.607873 0.991011
-0.965084 0.608034 0.983125
-0.962823 0.607912 0.974781
-0.959527 0.60786 0.966551
-0.95343 0.607996 0.95862
-0.947054 0.60815 0.950714
-0.940394 0.608324 0.942833
-0.933444 0.608517 0.934977
-0.926231 0.608727 0.927143
-0.918859 0.608948 0.919318
-0.911189 0.609188 0.911518
-0.900151 0.609655 0.904045
-0.888217 0.61018 0.896647
-0.876563 0.610687 0.889208
-0.867607 0.611012 0.881493
-0.852542 0.611746 0.874354
-0.838781 0.612392 0.86707
-0.821576 0.613267 0.860091
-0.808427 0.613871 0.852711
-0.787589 0.614987 0.846021
-0.766295 0.616133 0.83934
-0.742005 0.617478 0.832897
-0.714207 0.619055 0.826729
-0.678208 0.621178 0.821239
-0.631289 0.624026 0.816641
-0.798602 0.640038 1.26734
-0.845698 0.636471 1.25191
-0.869467 0.634529 1.23975
-0.893197 0.632591 1.22765
-0.904752 0.6315 1.21723
-0.920185 0.630141 1.20633
-0.935362 0.628801 1.1955
-0.94259 0.628013 1.18575
-0.949666 0.627237 1.17604
-0.960028 0.626233 1.16593
-0.966653 0.625489 1.15632
-0.973065 0.624761 1.14676
-0.979249 0.624049 1.13725
-0.981299 0.623624 1.12828
-0.986999 0.622947 1.11887
-0.985776 0.622748 1.11033
-0.991074 0.6221 1.101
-0.992278 0.621735 1.09218
-0.996999 0.621127 1.08295
-0.995322 0.620961 1.0745
-0.995848 0.620644 1.06579
-0.996097 0.620346 1.05712
-0.99606 0.620067 1.0485
-0.993895 0.619936 1.04013
-0.993413 0.619689 1.03157
-0.992624 0.619463 1.02305
-0.990077 0.619358 1.01474
-0.988815 0.619165 1.00628
-0.987229 0.618995 0.997872
-0.981857 0.619084 0.989879
-0.978756 0.619018 0.981637
-0.975571 0.618957 0.973406
-0.970271 0.619042 0.965403
-0.963899 0.6192 0.95751
-0.960228 0.619172 0.94933
-0.953415 0.61936 0.941478
-0.946316 0.619568 0.93365
-0.935734 0.620013 0.926172
-0.928325 0.620241 0.91836
-0.920151 0.620521 0.910619
-0.908832 0.621016 0.903183
-0.900329 0.621317 0.895456
-0.888514 0.621845 0.888043
-0.879439 0.622185 0.880351
-0.862915 0.623033 0.873362
-0.850239 0.623618 0.865986
-0.832823 0.624526 0.859037
-0.814864 0.625469 0.852114
-0.79636 0.626449 0.845215
-0.77195 0.627829 0.838826
-0.744584 0.62941 0.832665
-0.713838 0.631219 0.826762
-0.673375 0.633686 0.821665
-0.595332 0.638703 0.819776
-0.822493 0.650653 1.26405
-0.865954 0.647276 1.24914
-0.885638 0.645586 1.23755
-0.901359 0.644178 1.22655
-0.924858 0.642221 1.21454
-0.93236 0.641398 1.20471
-0.947497 0.640035 1.1939
-0.954684 0.639235 1.18417
-0.965214 0.6382 1.17402
-0.971986 0.637432 1.16438
-0.978558 0.636678 1.1548
-0.984915 0.63594 1.14526
-0.991041 0.635219 1.13577
-0.992998 0.634792 1.12682
-0.995759 0.634309 1.11778
-0.997368 0.633908 1.1089
-1.0026 0.633252 1.09959
-1.00371 0.632887 1.09079
-1.00836 0.632273 1.08158
-1.00663 0.632108 1.07315
-1.00706 0.631791 1.06446
-1.00721 0.631495 1.05582
-1.01076 0.63096 1.04679
-1.00853 0.630831 1.03844
-1.00792 0.630589 1.02991
-1.00699 0.630368 1.02142
-1.00438 0.630267 1.01313
-0.999433 0.630329 1.0051
-0.997748 0.630162 0.996707
-0.995735 0.630019 0.988356
-0.989106 0.630198 0.980511
-0.986624 0.630088 0.972214
-0.983224 0.630041 0.964018
-0.976851 0.630203 0.956138
-0.970466 0.630365 0.948255
-0.96338 0.630576 0.940441
-0.956065 0.630802 0.932644
-0.948568 0.631041 0.92486
-0.940783 0.6313 0.917099
-0.932706 0.631579 0.90936
-0.921218 0.632096 0.901952
-0.912586 0.632413 0.894249
-0.900611 0.632962 0.886864
-0.888409 0.633527 0.879485
-0.874666 0.634198 0.872239
-0.857395 0.635114 0.865308
-0.844221 0.635744 0.857969
-0.826065 0.63672 0.851075
-0.799645 0.638268 0.844914
-0.777588 0.639512 0.838314
-0.749745 0.641156 0.832201
-0.71291 0.643422 0.826844
-0.663072 0.646586 0.822572
-0.846603 0.661188 1.26073
-0.878328 0.658595 1.24745
-0.897985 0.656876 1.23588
-0.921662 0.654868 1.22381
-0.937171 0.653451 1.21289
-0.944639 0.652614 1.20308
-0.955645 0.651524 1.19283
-0.96688 0.650418 1.18257
-0.97732 0.649371 1.17244
-0.984041 0.648592 1.16283
-0.99056 0.647828 1.15326
-0.99686 0.64708 1.14374
-1.00293 0.64635 1.13427
-1.00479 0.645923 1.12534
-1.00754 0.645432 1.11632
-1.00905 0.645031 1.10746
-1.01421 0.644368 1.09817
-1.01522 0.644003 1.0894
-1.01981 0.643383 1.0802
-1.01803 0.643218 1.07179
-1.01836 0.642903 1.06312
-1.02216 0.64234 1.05406
-1.02003 0.642202 1.04571
-1.01961 0.641942 1.03716
-1.01889 0.641703 1.02865
-1.01787 0.641486 1.02019
-1.01521 0.641386 1.01191
-1.01371 0.641203 1.0035
-1.01082 0.64112 0.99526
-1.0053 0.641224 0.987306
-1.00303 0.641097 0.978996
-0.999738 0.641042 0.970799
-0.994042 0.641159 0.962861
-0.987394 0.641343 0.955021
-0.983624 0.641323 0.946873
-0.976544 0.641537 0.939071
-0.969212 0.64177 0.931288
-0.961729 0.642013 0.923515
-0.953962 0.642276 0.915765
-0.942215 0.642821 0.908406
-0.933745 0.643133 0.900708
-0.924985 0.643466 0.893029
-0.912851 0.644037 0.885671
-0.899294 0.644709 0.878435
-0.886561 0.645322 0.871102
-0.869075 0.64627 0.864203
-0.851073 0.647255 0.857327
-0.832549 0.648275 0.850473
-0.813503 0.649331 0.843641
-0.785936 0.650988 0.837555
-0.75225 0.653076 0.831976
-0.711743 0.655644 0.826948
-0.633557 0.660868 0.825173
-0.867046 0.671928 1.25791
-0.894676 0.669589 1.24521
-0.918458 0.667535 1.2331
-0.934107 0.666081 1.22213
-0.949587 0.66464 1.21123
-0.957021 0.663791 1.20144
-0.967949 0.662687 1.1912
-0.975065 0.661863 1.1815
-0.989523 0.660502 1.17086
-0.996191 0.659712 1.16126
-1.00265 0.658939 1.15171
-1.0089 0.658182 1.14221
-1.0149 0.657444 1.13276
-1.01377 0.657227 1.12422
-1.0194 0.656517 1.11485
-1.02082 0.656116 1.10601
-1.02592 0.655446 1.09674
-1.03071 0.654798 1.08752
-1.02902 0.654625 1.07909
-1.02952 0.654292 1.07042
-1.03355 0.653701 1.06133
-1.03346 0.653412 1.05274
-1.03128 0.653275 1.0444
-1.03076 0.653017 1.03587
-1.02994 0.652782 1.02739
-1.02739 0.652672 1.0191
-1.02611 0.65247 1.01068
-1.02452 0.652292 1.0023
-1.02157 0.652211 0.994069
-1.0195 0.652068 0.985748
-1.01631 0.652005 0.977551
-1.01085 0.652107 0.9696
-1.00735 0.652067 0.961438
-1.0007 0.652256 0.953611
-0.996956 0.652233 0.945473
-0.989879 0.652452 0.937683
-0.982527 0.652691 0.929915
-0.974897 0.652949 0.92217
-0.966987 0.653228 0.914446
-0.958793 0.653527 0.906744
-0.946409 0.654128 0.899449
-0.934373 0.654704 0.892105
-0.925228 0.655071 0.884465
-0.908417 0.65599 0.877554
-0.898596 0.656404 0.869952
-0.880898 0.657386 0.863084
-0.862694 0.658403 0.856238
-0.843981 0.659457 0.849413
-0.819605 0.660917 0.843081
-0.791572 0.662638 0.837043
-0.75714 0.664819 0.831536
-0.707772 0.668071 0.827302
-0.813013 0.688507 1.27434
-0.875415 0.683518 1.25676
-0.907246 0.680822 1.24349
-0.931027 0.678731 1.23139
-0.942461 0.677566 1.22101
-0.95792 0.676101 1.21012
-0.969503 0.674927 1.19978
-0.980352 0.673809 1.18957
-0.987422 0.672974 1.17988
-0.994328 0.672152 1.17023
-1.00843 0.670794 1.15968
-1.01484 0.670011 1.15015
-1.01697 0.669547 1.14119
-1.01996 0.66902 1.13212
-1.02579 0.668282 1.12272
-1.03136 0.667564 1.11336
-1.03268 0.667163 1.10455
-1.0377 0.666486 1.0953
-1.03611 0.666303 1.08686
-1.04069 0.66566 1.07769
-1.04108 0.665329 1.06904
-1.04504 0.664734 1.05997
-1.04295 0.664588 1.05162
-1.04262 0.664312 1.04308
-1.042 0.664057 1.03457
-1.03955 0.663939 1.02629
-1.04219 0.663443 1.01742
-1.04077 0.663248 1.00903
-1.03792 0.66316 1.0008
-1.0324 0.663268 0.99287
-1.03023 0.66313 0.98457
-1.02772 0.663016 0.976309
-1.02432 0.662969 0.968148
-1.01781 0.66315 0.960319
-1.01418 0.66312 0.952182
-1.00743 0.663319 0.944373
-1.00009 0.663562 0.936621
-0.995973 0.663567 0.928529
-0.988196 0.663842 0.920811
-0.980142 0.664136 0.913114
-0.968543 0.664692 0.905766
-0.959964 0.665024 0.898103
-0.947008 0.665679 0.890862
-0.937739 0.666061 0.883245
-0.925076 0.666693 0.875946
-0.910767 0.667445 0.868788
-0.892858 0.668461 0.861952
-0.874455 0.669512 0.855136
-0.855555 0.670598 0.848339
-0.830945 0.672102 0.842039
-0.797197 0.674274 0.836531
-0.759531 0.676731 0.831321
-0.693969 0.681228 0.828531
-0.844863 0.698372 1.26992
-0.896103 0.694146 1.25391
-0.919924 0.692013 1.24176
-0.939464 0.690209 1.23025
-0.955077 0.688705 1.21931
-0.970504 0.687217 1.20843
-0.977879 0.686342 1.19867
-0.99285 0.684891 1.18792
-0.999874 0.684045 1.17825
-1.00673 0.683213 1.16862
-1.0134 0.682395 1.15904
-1.01987 0.681594 1.14951
-1.02612 0.68081 1.14002
-1.03213 0.680044 1.13059
-1.03789 0.679298 1.1212
-1.04339 0.678573 1.11187
-1.04861 0.67787 1.10259
-1.04709 0.677677 1.09415
-1.04792 0.677307 1.08543
-1.05243 0.676659 1.07628
-1.05662 0.676035 1.06718
-1.05462 0.67588 1.05883
-1.05447 0.675586 1.05027
-1.05403 0.675313 1.04175
-1.05549 0.674898 1.03302
-1.05458 0.674661 1.02456
-1.05337 0.674447 1.01615
-1.05185 0.674257 1.00778
-1.04895 0.674171 0.999569
-1.04696 0.674017 0.991259
-1.04465 0.673887 0.982987
-1.03775 0.674102 0.975218
-1.03498 0.674006 0.966998
-1.03188 0.673935 0.958816
-1.02495 0.674152 0.951041
-1.0211 0.674138 0.942937
-1.01376 0.674386 0.935198
-1.00614 0.674654 0.92748
-0.998253 0.674942 0.919784
-0.990091 0.67525 0.912107
-0.981654 0.675579 0.904451
-0.97294 0.675928 0.896814
-0.963948 0.676298 0.889195
-0.950378 0.67701 0.882013
-0.937565 0.677664 0.874741
-0.919981 0.678675 0.867908
-0.904951 0.679494 0.860807
-0.886352 0.680579 0.854021
-0.867266 0.681699 0.847253
-0.842426 0.683247 0.840985
-0.808383 0.685481 0.835514
-0.761889 0.68864 0.831108
-0.86548 0.709024 1.26706
-0.908873 0.705333 1.25215
-0.928434 0.703494 1.2406
-0.952205 0.70133 1.22852
-0.967793 0.699802 1.21759
-0.983184 0.698291 1.20674
-0.990522 0.697405 1.19699
-1.00544 0.695932 1.18626
-1.01242 0.695076 1.17661
-1.01922 0.694233 1.167
-1.02584 0.693406 1.15744
-1.03225 0.692595 1.14792
-1.03844 0.691803 1.13846
-1.04438 0.691029 1.12904
-1.05008 0.690276 1.11968
-1.05551 0.689544 1.11036
-1.05407 0.689341 1.10192
-1.05909 0.688642 1.09268
-1.06381 0.687967 1.0835
-1.06426 0.68762 1.07486
-1.06236 0.687455 1.0665
-1.06632 0.686839 1.05745
-1.06606 0.686547 1.04891
-1.06767 0.686113 1.04016
-1.06695 0.685858 1.03169
-1.06594 0.685626 1.02326
-1.0633 0.685518 1.01503
-1.06183 0.685321 1.00666
-1.06005 0.685148 0.99833
-1.05796 0.684999 0.990041
-1.05477 0.684934 0.981876
-1.0522 0.684822 0.973646
-1.04877 0.684776 0.965511
-1.04251 0.684946 0.95768
-1.03898 0.684907 0.949555
-1.03157 0.685165 0.941838
-1.02759 0.685161 0.933758
-1.01998 0.685434 0.926053
-1.01209 0.685727 0.918369
-1.00394 0.686041 0.910705
-0.994888 0.686423 0.903124
-0.986039 0.686789 0.895512
-0.973663 0.687423 0.888239
-0.964298 0.687828 0.880657
-0.95018 0.688593 0.873523
-0.932377 0.689639 0.866723
-0.917173 0.690486 0.859651
-0.898379 0.691605 0.852894
-0.87911 0.692759 0.846154
-0.848669 0.69476 0.840411
-0.814095 0.697073 0.834995
-0.766524 0.70037 0.830691
-0.881988 0.719945 1.26477
-0.917445 0.716818 1.25097
-0.941285 0.71461 1.23884
-0.965045 0.71241 1.22677
-0.980606 0.710858 1.21587
-0.995959 0.709324 1.20503
-1.00326 0.708426 1.19529
-1.01389 0.707267 1.18514
-1.02505 0.706066 1.17495
-1.0318 0.705213 1.16537
-1.03836 0.704377 1.15582
-1.04471 0.703557 1.14633
-1.05084 0.702756 1.13688
-1.05672 0.701975 1.12749
-1.06235 0.701215 1.11814
-1.06099 0.701003 1.10968
-1.06622 0.700274 1.10042
-1.07116 0.699569 1.09121
-1.07581 0.698888 1.08205
-1.07399 0.698714 1.07369
-1.07817 0.69807 1.06461
-1.07809 0.69776 1.05605
-1.07592 0.697614 1.04775
-1.07931 0.697033 1.03881
-1.07848 0.696782 1.03036
-1.07594 0.696665 1.02212
-1.07468 0.69645 1.01373
-1.07688 0.695963 1.00496
-1.07394 0.695878 0.996779
-1.07187 0.695726 0.988501
-1.06579 0.695885 0.980667
-1.06311 0.69578 0.972458
-1.05964 0.695737 0.964338
-1.05647 0.695669 0.956187
-1.05275 0.695645 0.948095
-1.04562 0.695886 0.940362
-1.03808 0.696159 0.932667
-1.03382 0.696177 0.924626
-1.02579 0.696487 0.91697
-1.01749 0.696818 0.909333
-1.00893 0.697169 0.901716
-1.00009 0.69754 0.894116
-0.98672 0.698264 0.886954
-0.97723 0.698685 0.879396
-0.962915 0.69948 0.872294
-0.949602 0.700197 0.865076
-0.934392 0.701059 0.858021
-0.910533 0.70259 0.851755
-0.891084 0.703778 0.845043
-0.865793 0.705416 0.838839
-0.825513 0.70821 0.833957
-0.766038 0.712483 0.830735
-0.894903 0.731111 1.26298
-0.930389 0.727928 1.24919
-0.954235 0.725683 1.23707
-0.977982 0.723447 1.22502
-0.993512 0.721872 1.21413
-1.00095 0.720947 1.20436
-1.01608 0.719406 1.19359
-1.02321 0.718508 1.18391
-1.03352 0.717356 1.17384
-1.04447 0.716153 1.16372
-1.05097 0.715308 1.1542
-1.05726 0.71448 1.14472
-1.06332 0.713671 1.1353
-1.06631 0.713107 1.12628
-1.07199 0.71233 1.11694
-1.07329 0.711903 1.10816
-1.07845 0.711169 1.09891
-1.08093 0.710648 1.09001
-1.08159 0.710273 1.08135
-1.08601 0.709599 1.07224
-1.09012 0.708951 1.06318
-1.08804 0.708795 1.05488
-1.09166 0.708187 1.0459
-1.09102 0.707917 1.03744
-1.08857 0.707791 1.0292
-1.0875 0.707556 1.02079
-1.08995 0.707042 1.012
-1.08712 0.706947 1.00381
-1.08525 0.706776 0.995515
-1.08307 0.706629 0.98726
-1.07985 0.706566 0.979123
-1.0772 0.706457 0.970925
-1.07423 0.706374 0.962765
-1.0673 0.706604 0.955029
-1.06371 0.706569 0.946934
-1.05978 0.706562 0.938876
-1.05216 0.706846 0.931202
-1.048 0.706857 0.923164
-1.03996 0.707173 0.915521
-1.03116 0.70755 0.90795
-1.02245 0.707919 0.900359
-1.01348 0.708308 0.892786
-1.00425 0.708718 0.88523
-0.990277 0.7095 0.878125
-0.977155 0.710215 0.870919
-0.962312 0.711064 0.863861
-0.943782 0.712203 0.857132
-0.927897 0.713133 0.850128
-0.903182 0.714756 0.843921
-0.877671 0.71644 0.837748
-0.837065 0.719307 0.832907
-0.764931 0.724646 0.830835
-0.907923 0.742233 1.26117
-0.943434 0.738996 1.24739
-0.967283 0.736713 1.23528
-0.982982 0.735097 1.22434
-0.998547 0.733493 1.21345
-1.01391 0.731907 1.20262
-1.02468 0.730696 1.19245
-1.03608 0.729436 1.18222
-1.043 0.728541 1.1726
-1.04974 0.72766 1.16303
-1.06055 0.72645 1.15296
-1.06688 0.725606 1.14349
-1.07299 0.72478 1.13407
-1.07885 0.723975 1.1247
-1.08446 0.723191 1.11538
-1.0898 0.722429 1.10611
-1.08828 0.722225 1.0977
-1.09321 0.721498 1.08851
-1.09784 0.720796 1.07938
-1.09599 0.720619 1.07104
-1.10016 0.719955 1.06199
-1.1 0.719641 1.05346
-1.09957 0.71935 1.04498
-1.10119 0.718894 1.03626
-1.1003 0.718641 1.02784
-1.10163 0.718208 1.01917
-1.10027 0.717993 1.01083
-1.0986 0.717803 1.00252
-1.09663 0.717638 0.994245
-1.09352 0.717565 0.986104
-1.09108 0.717438 0.977891
-1.08832 0.717337 0.969715
-1.08481 0.717295 0.961623
-1.08157 0.717233 0.953503
-1.07801 0.717196 0.945419
-1.07053 0.717474 0.937747
-1.06647 0.717478 0.929712
-1.05858 0.717788 0.922072
-1.05394 0.717838 0.914093
-1.0455 0.718192 0.906498
-1.03681 0.718567 0.89892
-1.02785 0.718962 0.891359
-1.01426 0.719728 0.884244
-1.00466 0.720173 0.876723
-0.990166 0.72101 0.869663
-0.979936 0.721506 0.862177
-0.961345 0.722669 0.85547
-0.940354 0.724023 0.848961
-0.920695 0.725269 0.842296
-0.889672 0.727422 0.836646
-0.848747 0.730363 0.831845
-0.751794 0.737771 0.832017
-0.916661 0.753676 1.25996
-0.956577 0.750021 1.24558
-0.980426 0.747701 1.23349
-0.996105 0.74606 1.22256
-1.01164 0.744433 1.21168
-1.02696 0.742825 1.20088
-1.03421 0.741887 1.19118
-1.0447 0.740681 1.18108
-1.0559 0.739417 1.17091
-1.06259 0.738528 1.16136
-1.06909 0.737655 1.15186
-1.07963 0.736448 1.14186
-1.08567 0.735615 1.13246
-1.08726 0.73515 1.12364
-1.09015 0.734578 1.11467
-1.09556 0.733798 1.10539
-1.10071 0.733041 1.09617
-1.10556 0.732309 1.087
-1.1038 0.732122 1.07866
-1.1082 0.731427 1.06957
-1.11229 0.730759 1.06054
-1.11018 0.730602 1.05226
-1.11379 0.729975 1.04331
-1.11308 0.729703 1.03487
-1.11061 0.729575 1.02665
-1.11339 0.729017 1.01783
-1.11192 0.728808 1.0095
-1.10906 0.728713 1.00134
-1.10714 0.728542 0.993072
-1.10871 0.728084 0.984422
-1.10545 0.728023 0.976313
-1.10271 0.727918 0.968149
-1.09966 0.72784 0.960021
-1.0926 0.728089 0.952324
-1.08893 0.728061 0.944261
-1.08497 0.728056 0.93623
-1.08094 0.728059 0.928207
-1.07304 0.728375 0.920581
-1.06844 0.728423 0.912612
-1.06 0.728784 0.90503
-1.05131 0.729165 0.897466
-1.0415 0.729636 0.890002
-1.03215 0.73007 0.882484
-1.01918 0.730798 0.875308
-1.008 0.73138 0.867942
-0.989679 0.732542 0.861246
-0.974144 0.733476 0.854259
-0.954923 0.734709 0.847596
-0.933088 0.736153 0.841146
-0.907331 0.737914 0.835024
-0.866355 0.740908 0.830245
-0.929851 0.76472 1.25813
-0.96171 0.761685 1.24487
-0.985572 0.759327 1.23278
-1.0049 0.757353 1.22136
-1.02042 0.755701 1.2105
-1.0322 0.754365 1.20018
-1.0473 0.752752 1.18944
-1.05437 0.751815 1.17981
-1.06128 0.750891 1.17021
-1.07235 0.74962 1.1601
-1.07888 0.74873 1.1506
-1.08521 0.747859 1.14114
-1.09131 0.747007 1.13174
-1.09718 0.746176 1.12239
-1.10279 0.745367 1.11308
-1.10813 0.744581 1.10383
-1.11078 0.744021 1.09493
-1.11152 0.743621 1.08628
-1.11616 0.742896 1.07716
-1.11841 0.742371 1.06834
-1.11847 0.742029 1.0598
-1.12233 0.741371 1.05082
-1.12183 0.741078 1.04236
-1.12347 0.740605 1.03366
-1.1265 0.740018 1.02482
-1.12388 0.739901 1.01663
-1.12245 0.739686 1.00831
-1.12462 0.739171 0.999586
-1.12162 0.739087 0.991454
-1.1194 0.738938 0.983238
-1.11687 0.738816 0.97506
-1.11402 0.738719 0.966918
-1.11048 0.73868 0.958854
-1.10716 0.738623 0.950767
-1.10352 0.738593 0.942715
-1.09958 0.738587 0.934696
-1.09182 0.738899 0.927074
-1.08741 0.738932 0.919099
-1.07912 0.739287 0.911521
-1.0741 0.73937 0.903603
-1.06526 0.73977 0.896066
-1.05617 0.740191 0.888545
-1.04682 0.740632 0.88104
-1.03722 0.741093 0.873549
-1.02269 0.741962 0.866524
-1.00764 0.742873 0.859529
-0.992082 0.743825 0.852561
-0.972806 0.745083 0.84592
-0.950956 0.746552 0.839489
-0.925165 0.748345 0.833386
-0.884129 0.751393 0.828629
-0.938699 0.7761 1.2569
-0.970582 0.773016 1.24365
-0.994443 0.770621 1.23157
-1.01013 0.768927 1.22065
-1.03011 0.766868 1.20919
-1.04543 0.765209 1.1984
-1.05266 0.764242 1.18873
-1.06749 0.762627 1.17807
-1.07436 0.761694 1.1685
-1.08104 0.760777 1.15897
-1.09187 0.759508 1.14892
-1.09813 0.758628 1.13949
-1.10417 0.757769 1.13011
-1.10996 0.756931 1.12078
-1.11288 0.756339 1.11182
-1.11827 0.755537 1.10257
-1.12339 0.754759 1.09338
-1.12404 0.754361 1.08475
-1.12642 0.753816 1.07591
-1.13081 0.753102 1.06685
-1.13077 0.752764 1.05833
-1.13274 0.752256 1.04959
-1.13633 0.751611 1.04066
-1.13555 0.751337 1.03226
-1.13706 0.750869 1.02359
-1.13582 0.750635 1.01526
-1.13428 0.750426 1.00696
-1.13533 0.749998 0.99838
-1.1333 0.749831 0.99015
-1.13018 0.749757 0.982045
-1.12769 0.749628 0.973872
-1.1249 0.749526 0.965735
-1.12179 0.74945 0.957634
-1.11812 0.749423 0.949596
-1.11454 0.749387 0.941548
-1.11064 0.749379 0.933535
-1.10657 0.749385 0.925539
-1.10219 0.749416 0.917575
-1.09388 0.749779 0.910012
-1.08533 0.750162 0.902466
-1.08006 0.750268 0.894582
-1.07097 0.750695 0.887075
-1.06163 0.751144 0.879583
-1.05087 0.75171 0.872219
-1.0375 0.752496 0.865094
-1.0258 0.75314 0.857793
-1.00692 0.754387 0.851157
-0.990876 0.755394 0.844226
-0.969004 0.75689 0.837814
-0.943169 0.758715 0.831733
-0.905127 0.761561 0.826721
-0.948449 0.787379 1.25555
-0.979495 0.784319 1.24242
-1.00335 0.781887 1.23035
-1.02349 0.779781 1.21884
-1.039 0.778078 1.20799
-1.05083 0.776697 1.19768
-1.06593 0.775032 1.18697
-1.07299 0.774067 1.17735
-1.07989 0.773116 1.16777
-1.09101 0.771801 1.15767
-1.09753 0.770885 1.14819
-1.10385 0.769987 1.13876
-1.10995 0.769109 1.12937
-1.11581 0.768252 1.12004
-1.12571 0.767048 1.11022
-1.12677 0.766608 1.10152
-1.12945 0.766029 1.09263
-1.13436 0.765257 1.08349
-1.13897 0.764512 1.07439
-1.13706 0.76433 1.0661
-1.14123 0.763625 1.05709
-1.14507 0.762948 1.04813
-1.1428 0.762797 1.0399
-1.14616 0.762164 1.03102
-1.14512 0.761908 1.02266
-1.14652 0.761443 1.01403
-1.14901 0.760885 1.00529
-1.14613 0.760789 0.997164
-1.14415 0.760615 0.988939
-1.14186 0.760468 0.980751
-1.14249 0.760071 0.972247
-1.13971 0.759967 0.964123
-1.13662 0.759889 0.956035
-1.13322 0.759839 0.947981
-1.1294 0.759824 0.939973
-1.12552 0.759814 0.931972
-1.12146 0.759819 0.923989
-1.11343 0.760164 0.916416
-1.10879 0.760219 0.908489
-1.10023 0.760609 0.900957
-1.095 0.760715 0.893084
-1.0859 0.76115 0.885591
-1.07657 0.761605 0.878113
-1.06583 0.76218 0.870761
-1.05586 0.762688 0.863322
-1.04078 0.763632 0.856362
-1.0252 0.764617 0.849427
-1.00913 0.765643 0.842516
-0.983996 0.76744 0.836424
-0.961342 0.769024 0.830064
-0.929036 0.771428 0.824547
-0.95384 0.799016 1.2548
-0.989316 0.795519 1.24107
-1.01319 0.793049 1.22901
-1.02887 0.791303 1.21811
-1.04441 0.789572 1.20726
-1.06423 0.787465 1.19589
-1.07145 0.78647 1.18623
-1.08184 0.785196 1.17618
-1.09313 0.783845 1.16604
-1.10422 0.782513 1.15596
-1.11068 0.781588 1.1465
-1.11694 0.780683 1.13708
-1.12297 0.779798 1.12772
-1.12605 0.779173 1.11875
-1.1317 0.778323 1.10947
-1.1371 0.777496 1.10024
-1.14222 0.776694 1.09106
-1.14479 0.776116 1.08221
-1.14946 0.775355 1.07312
-1.14962 0.774989 1.06459
-1.15179 0.774448 1.05583
-1.15569 0.773756 1.04687
-1.15514 0.773454 1.03845
-1.15686 0.772953 1.02977
-1.15994 0.772335 1.02095
-1.15731 0.772215 1.0128
-1.15585 0.771994 1.00451
-1.15808 0.77145 0.995817
-1.15508 0.771364 0.987718
-1.15678 0.770867 0.9791
-1.1542 0.770745 0.970962
-1.1508 0.770693 0.962917
-1.14775 0.770611 0.954834
-1.1444 0.770556 0.946786
-1.14073 0.770528 0.938773
-1.13678 0.770524 0.930789
-1.13276 0.770527 0.922814
-1.12846 0.770554 0.914866
-1.12385 0.770608 0.90695
-1.11528 0.771005 0.899434
-1.11007 0.771111 0.891572
-1.10097 0.771553 0.884094
-1.09163 0.772016 0.87663
-1.08092 0.772598 0.86929
-1.07096 0.773114 0.861865
-1.05587 0.774074 0.854919
-1.04366 0.774783 0.847679
-1.02424 0.776116 0.8411
-1.00771 0.777197 0.834223
-0.985219 0.778792 0.827871
-0.94733 0.781716 0.822884
-0.880624 0.787124 0.820426
-0.95931 0.810632 1.25404
-0.994739 0.807086 1.24032
-1.01862 0.804578 1.22826
-1.04239 0.802082 1.21627
-1.0534 0.800731 1.20605
-1.06977 0.7989 1.19515
-1.08488 0.797185 1.18445
-1.09192 0.796193 1.17485
-1.09881 0.795214 1.1653
-1.10997 0.793855 1.15521
-1.11649 0.792912 1.14575
-1.1228 0.791988 1.13633
-1.13328 0.790694 1.12641
-1.13911 0.789815 1.1171
-1.14469 0.788958 1.10784
-1.1457 0.78851 1.09917
-1.1527 0.787529 1.08977
-1.15759 0.786737 1.08065
-1.15578 0.78654 1.07235
-1.16023 0.785788 1.06331
-1.16437 0.785065 1.05432
-1.16222 0.7849 1.0461
-1.16589 0.784219 1.03719
-1.16767 0.783706 1.02852
-1.1667 0.783438 1.02017
-1.16952 0.782833 1.0114
-1.16678 0.782722 1.00327
-1.16908 0.782165 0.994578
-1.16703 0.781993 0.986383
-1.1639 0.781917 0.978311
-1.1614 0.781786 0.970172
-1.15859 0.781681 0.962069
-1.15547 0.781605 0.954001
-1.15181 0.781576 0.945994
-1.14822 0.781541 0.937978
-1.14433 0.781533 0.929997
-1.14027 0.781539 0.922032
-1.1359 0.781572 0.914098
-1.13123 0.781633 0.906196
-1.12678 0.781674 0.89827
-1.12163 0.781776 0.890413
-1.11618 0.781905 0.882584
-1.10683 0.782377 0.875135
-1.1008 0.782556 0.867353
-1.08617 0.783491 0.860396
-1.07452 0.784163 0.853136
-1.06397 0.784739 0.845757
-1.04802 0.785788 0.838872
-1.02626 0.787345 0.832503
-1.00047 0.789255 0.826471
-0.971529 0.791439 0.820685
-0.917271 0.795839 0.817129
-0.964859 0.822226 1.25327
-1.00382 0.818306 1.23907
-1.0277 0.815761 1.22702
-1.04792 0.81355 1.21552
-1.06347 0.811767 1.2047
-1.0788 0.810004 1.19394
-1.09054 0.80857 1.1837
-1.09761 0.807559 1.1741
-1.10903 0.806156 1.16396
-1.11888 0.804897 1.15405
-1.12535 0.803944 1.1446
-1.13315 0.802872 1.13501
-1.13927 0.801952 1.12565
-1.14517 0.801054 1.11634
-1.15082 0.80018 1.10707
-1.15621 0.799329 1.09786
-1.15896 0.798717 1.089
-1.16392 0.797907 1.07987
-1.16859 0.797124 1.0708
-1.17094 0.79655 1.06202
-1.17514 0.795811 1.05304
-1.17481 0.79548 1.04461
-1.17673 0.794946 1.03592
-1.17597 0.794656 1.02755
-1.17493 0.79439 1.01922
-1.1723 0.794267 1.01108
-1.17084 0.794039 1.00281
-1.16551 0.79416 0.994981
-1.16054 0.794248 0.987108
-1.1535 0.794522 0.979463
-1.15423 0.794097 0.970958
-1.15157 0.793978 0.962833
-1.1453 0.794182 0.955098
-1.14184 0.794135 0.947059
-1.1345 0.794435 0.939433
-1.13403 0.79412 0.931078
-1.12984 0.794138 0.923117
-1.12892 0.793863 0.914819
-1.12411 0.793936 0.906923
-1.11895 0.794041 0.899062
-1.1174 0.793822 0.890837
-1.11167 0.793978 0.883031
-1.11041 0.793734 0.874782
-1.10435 0.793919 0.867007
-1.09798 0.794131 0.859257
-1.09132 0.794369 0.85153
-1.07933 0.795082 0.844303
-1.06338 0.796147 0.837432
-1.04697 0.797252 0.830581
-1.02463 0.798884 0.824252
-1.00155 0.80058 0.817956
-0.956904 0.804193 0.813564
-0.970485 0.833798 1.25249
-1.00936 0.829828 1.23831
-1.03783 0.826823 1.22564
-1.05352 0.824999 1.21476
-1.06909 0.823187 1.20394
-1.08447 0.821394 1.19318
-1.09625 0.819934 1.18294
-1.11115 0.818189 1.17232
-1.11803 0.817183 1.16278
-1.12923 0.815781 1.1527
-1.13574 0.814812 1.14326
-1.14204 0.813862 1.13387
-1.14812 0.812933 1.12452
-1.15397 0.812027 1.11523
-1.16139 0.810977 1.10575
-1.16683 0.81011 1.09655
-1.17199 0.809269 1.08739
-1.17463 0.808659 1.07856
-1.17936 0.80786 1.06949
-1.17949 0.807481 1.06099
-1.17938 0.807126 1.05253
-1.17723 0.806957 1.04432
-1.17399 0.806888 1.03624
-1.16709 0.807153 1.02858
-1.16643 0.806848 1.0202
-1.16252 0.80684 1.0122
-1.15822 0.806868 1.00424
-1.15126 0.807139 0.996586
-1.1495 0.806934 0.988341
-1.14738 0.806764 0.980141
-1.14174 0.806913 0.97233
-1.13459 0.8072 0.96468
-1.13479 0.806818 0.956232
-1.13145 0.806758 0.94817
-1.12772 0.806735 0.940151
-1.12358 0.806747 0.932175
-1.11905 0.806796 0.92424
-1.11789 0.806539 0.915956
-1.11271 0.806646 0.908089
-1.10715 0.806789 0.900257
-1.10534 0.80659 0.892046
-1.09919 0.806786 0.884272
-1.09704 0.806618 0.876098
-1.0948 0.80646 0.867938
-1.08791 0.806722 0.860229
-1.08539 0.806588 0.852097
-1.08279 0.806462 0.843976
-1.07541 0.806768 0.836304
-1.06584 0.807271 0.828831
-1.04895 0.808436 0.822018
-1.01705 0.810955 0.816547
-0.987424 0.813265 0.810818
-0.971599 0.845777 1.25234
-1.01498 0.841329 1.23754
-1.04347 0.838278 1.22486
-1.05918 0.836426 1.21399
-1.07823 0.834262 1.20271
-1.09019 0.832764 1.19241
-1.10536 0.830967 1.18173
-1.11699 0.829502 1.17155
-1.12844 0.828055 1.16142
-1.13518 0.82705 1.15193
-1.14173 0.826062 1.14249
-1.15257 0.824676 1.13252
-1.15869 0.823731 1.12318
-1.16457 0.822808 1.11389
-1.17022 0.821909 1.10465
-1.17314 0.821264 1.09576
-1.17837 0.820404 1.08661
-1.17898 0.819975 1.07803
-1.1772 0.819769 1.06976
-1.17418 0.819678 1.06163
-1.16861 0.819823 1.05382
-1.16171 0.820092 1.04616
-1.16166 0.819725 1.03769
-1.1584 0.819657 1.0296
-1.15478 0.819621 1.02155
-1.14786 0.819891 1.01388
-1.14677 0.819622 1.00554
-1.14232 0.819663 0.997593
-1.14042 0.819469 0.989355
-1.13338 0.81975 0.981691
-1.13102 0.819599 0.973507
-1.12823 0.819486 0.965372
-1.12503 0.819413 0.957285
-1.12139 0.819379 0.949245
-1.11733 0.819385 0.941252
-1.1098 0.81971 0.933623
-1.10884 0.81943 0.925303
-1.10391 0.819515 0.917398
-1.10247 0.819279 0.909135
-1.09686 0.819428 0.901299
-1.09501 0.81923 0.893083
-1.08875 0.819438 0.885308
-1.08655 0.819273 0.877131
-1.08119 0.819397 0.869264
-1.07859 0.819269 0.861129
-1.0759 0.819148 0.853004
-1.0682 0.819489 0.845357
-1.06529 0.819388 0.837253
-1.06385 0.819154 0.829015
-1.0578 0.819342 0.821206
-1.04726 0.819941 0.813801
-1.01798 0.822254 0.808069
-0.954119 0.827731 0.805369
-0.972753 0.85775 1.25218
-1.01715 0.853141 1.23724
-1.04918 0.849711 1.22408
-1.06839 0.8475 1.21274
-1.08397 0.845636 1.20193
-1.10057 0.843676 1.19102
-1.11578 0.841851 1.18034
-1.12287 0.840795 1.17077
-1.13439 0.839321 1.16064
-1.14117 0.838298 1.15115
-1.15075 0.83701 1.14133
-1.15868 0.835879 1.13174
-1.16486 0.834915 1.1224
-1.17528 0.833551 1.11254
-1.17651 0.833056 1.10386
-1.17755 0.83258 1.09521
-1.17192 0.832732 1.0874
-1.16999 0.832537 1.07913
-1.16492 0.832637 1.07124
-1.15799 0.832912 1.06358
-1.15855 0.832482 1.05502
-1.15592 0.832353 1.04684
-1.15008 0.832525 1.03904
-1.14318 0.832797 1.03137
-1.14279 0.832457 1.02293
-1.13911 0.832427 1.01488
-1.13497 0.832439 1.00688
-1.12801 0.832716 0.999204
-1.12933 0.832216 0.990593
-1.1242 0.832322 0.982707
-1.12162 0.832188 0.974539
-1.11126 0.832783 0.967219
-1.1113 0.832404 0.958766
-1.10767 0.832368 0.950712
-1.10356 0.832378 0.942711
-1.10262 0.832092 0.934376
-1.0977 0.832177 0.926462
-1.09231 0.832306 0.918594
-1.09057 0.832095 0.910351
-1.08445 0.832292 0.902555
-1.08229 0.83212 0.894358
-1.08001 0.83196 0.886177
-1.07301 0.832239 0.878463
-1.07041 0.832108 0.870315
-1.06894 0.831872 0.86206
-1.06103 0.832235 0.854425
-1.05803 0.832142 0.846319
-1.05585 0.831972 0.838138
-1.05268 0.831894 0.830052
-1.04947 0.831821 0.821971
-1.04495 0.831868 0.81401
-1.03617 0.832312 0.806432
-1.00344 0.834978 0.800978
-0.962613 0.870808 1.25358
-1.02293 0.864601 1.23644
-1.05031 0.861571 1.22393
-1.07416 0.858881 1.21196
-1.08976 0.856989 1.20115
-1.10644 0.854995 1.19024
-1.12168 0.85314 1.17956
-1.12881 0.852067 1.16999
-1.14039 0.850567 1.15985
-1.15028 0.84923 1.14997
-1.15841 0.848064 1.14034
-1.16773 0.846784 1.13058
-1.17107 0.846079 1.12161
-1.17259 0.845549 1.11288
-1.16922 0.845488 1.10477
-1.16469 0.845537 1.09681
-1.16302 0.845313 1.0885
-1.15305 0.845882 1.0812
-1.1542 0.845389 1.07255
-1.15214 0.845202 1.06429
-1.14692 0.845318 1.05641
-1.13999 0.845596 1.04873
-1.14032 0.845182 1.04019
-1.1345 0.845354 1.03238
-1.13118 0.845288 1.02427
-1.12426 0.845565 1.01658
-1.1234 0.845265 1.0082
-1.11911 0.845292 1.00021
-1.11726 0.845086 0.991941
-1.11021 0.845375 0.984256
-1.10778 0.845224 0.976057
-1.10483 0.845123 0.967918
-1.10135 0.845073 0.959839
-1.09733 0.845074 0.951819
-1.09277 0.845126 0.943855
-1.0915 0.844866 0.935545
-1.08366 0.845229 0.927923
-1.08206 0.845001 0.919651
-1.07804 0.845002 0.911631
-1.0758 0.844834 0.903431
-1.06885 0.845112 0.895706
-1.06624 0.844979 0.887544
-1.06354 0.844856 0.879395
-1.06074 0.844742 0.871257
-1.05373 0.845024 0.863528
-1.05062 0.844939 0.85542
-1.04746 0.84486 0.84732
-1.04498 0.844715 0.839156
-1.04167 0.844649 0.831073
-1.03833 0.844587 0.822994
-1.02969 0.845022 0.815398
-1.02859 0.844749 0.807115
-1.02194 0.844997 0.79933
-1.02411 0.876494 1.23628
-1.05612 0.872969 1.22313
-1.07652 0.870581 1.21164
-1.09562 0.868321 1.20036
-1.11235 0.866294 1.18945
-1.12764 0.864409 1.17877
-1.13479 0.863318 1.1692
-1.14959 0.861484 1.15865
-1.15637 0.860432 1.14918
-1.16755 0.858953 1.13916
-1.16939 0.858384 1.13037
-1.16567 0.858355 1.12229
-1.16141 0.858378 1.11429
-1.15123 0.858976 1.10702
-1.15306 0.858409 1.09826
-1.15165 0.858156 1.0899
-1.14708 0.858209 1.08193
-1.14236 0.858277 1.07398
-1.13538 0.858565 1.0663
-1.13639 0.858078 1.05766
-1.13124 0.858187 1.04976
-1.12872 0.858043 1.04155
-1.1218 0.858323 1.03386
-1.1189 0.858215 1.02569
-1.11555 0.858151 1.01758
-1.10571 0.858713 1.01021
-1.10765 0.858138 1.0015
-1.10614 0.857895 0.993183
-1.10102 0.858003 0.985274
-1.0983 0.857877 0.977098
-1.095 0.857809 0.968989
-1.08764 0.858131 0.961318
-1.08707 0.857798 0.952915
-1.08256 0.857846 0.944936
-1.07746 0.857951 0.937019
-1.0758 0.857723 0.928741
-1.06976 0.857919 0.92092
-1.06758 0.857742 0.9127
-1.06069 0.858018 0.90496
-1.05938 0.857758 0.896655
-1.05656 0.857644 0.888506
-1.04852 0.85803 0.880873
-1.04542 0.857942 0.87275
-1.04304 0.857785 0.86456
-1.03976 0.857714 0.856458
-1.03708 0.857587 0.848302
-1.03367 0.857529 0.840216
-1.03023 0.857474 0.832135
-1.02675 0.857423 0.824057
-1.01808 0.857868 0.816453
-1.01446 0.85783 0.808386
-1.01374 0.857515 0.800061
-1.00402 0.858059 0.792535
-1.02532 0.888381 1.23611
-1.05852 0.88469 1.22281
-1.08242 0.881923 1.21084
-1.10152 0.879632 1.19957
-1.11832 0.877571 1.18865
-1.13365 0.875656 1.17797
-1.14407 0.874229 1.16797
-1.15569 0.872684 1.15785
-1.16251 0.871614 1.14838
-1.16154 0.871312 1.13994
-1.15419 0.87164 1.13231
-1.15331 0.871331 1.12387
-1.1492 0.871339 1.11583
-1.14814 0.871048 1.10741
-1.14387 0.871071 1.0994
-1.13952 0.871103 1.09139
-1.13245 0.871403 1.08372
-1.13104 0.871147 1.07535
-1.12644 0.871203 1.06738
-1.12461 0.870988 1.05907
-1.11763 0.871278 1.05137
-1.11554 0.871089 1.0431
-1.11309 0.870935 1.03487
-1.11021 0.870823 1.0267
-1.10329 0.871106 1.01899
-1.09989 0.871045 1.01087
-1.09881 0.870758 1.00249
-1.0941 0.870825 0.994528
-1.08704 0.871122 0.986821
-1.08451 0.870976 0.978611
-1.08129 0.870898 0.970481
-1.07734 0.87089 0.962428
-1.07269 0.870952 0.954453
-1.07125 0.8707 0.946135
-1.06546 0.870873 0.93828
-1.06337 0.870685 0.930035
-1.05656 0.870956 0.92228
-1.05397 0.870817 0.914091
-1.05123 0.870692 0.905918
-1.04944 0.870475 0.897653
-1.0411 0.870896 0.890043
-1.03786 0.870819 0.881921
-1.03524 0.870683 0.873743
-1.03184 0.870623 0.865641
-1.02894 0.870514 0.857493
-1.02543 0.870465 0.849405
-1.02188 0.870419 0.841321
-1.01874 0.870334 0.8332
-1.01512 0.870295 0.825125
-1.00551 0.870836 0.817596
-1.00209 0.870778 0.809499
-0.998628 0.870724 0.801406
-0.998146 0.870382 0.793053
-1.02314 0.900605 1.23641
-1.05976 0.896521 1.22264
-1.08838 0.893243 1.21003
-1.10749 0.890921 1.19876
-1.12301 0.888961 1.18802
-1.13971 0.886883 1.17716
-1.15015 0.885434 1.16717
-1.15717 0.884328 1.15766
-1.15248 0.884395 1.14968
-1.15178 0.884062 1.1412
-1.1478 0.884057 1.13313
-1.1438 0.884055 1.12507
-1.13975 0.884057 1.11702
-1.13255 0.884373 1.10936
-1.13163 0.884063 1.10092
-1.12747 0.884076 1.09288
-1.12324 0.884097 1.08484
-1.11301 0.884714 1.07754
-1.11487 0.884127 1.06877
-1.11342 0.883871 1.0604
-1.10874 0.883936 1.05243
-1.10381 0.884025 1.04448
-1.09684 0.884318 1.03676
-1.09744 0.883859 1.02817
-1.0946 0.883741 1.01998
-1.09115 0.883683 1.01186
-1.08421 0.883973 1.00414
-1.08293 0.8837 0.995775
-1.07782 0.883807 0.987841
-1.07489 0.883699 0.979668
-1.07112 0.883673 0.971587
-1.06358 0.88402 0.963913
-1.06249 0.88373 0.955543
-1.05706 0.883869 0.947639
-1.05692 0.883485 0.939175
-1.04987 0.883784 0.93144
-1.04711 0.883658 0.923255
-1.04422 0.883547 0.915087
-1.04121 0.883447 0.906933
-1.03342 0.883818 0.899259
-1.03004 0.883754 0.891141
-1.02715 0.883642 0.882976
-1.02363 0.883592 0.874874
-1.0205 0.883504 0.866735
-1.01688 0.883464 0.858645
-1.0136 0.88339 0.850524
-1.00992 0.883357 0.842442
-1.00652 0.883295 0.834334
-1.00279 0.883266 0.826257
-0.999322 0.883212 0.818158
-0.995558 0.883186 0.810086
-0.992027 0.883138 0.801994
-0.988239 0.883115 0.793926
-0.978745 0.883651 0.786355
-1.02106 0.912824 1.2367
-1.06232 0.908214 1.22229
-1.08966 0.905023 1.20985
-1.11009 0.902536 1.19841
-1.12568 0.900542 1.18766
-1.14582 0.898089 1.17635
-1.1516 0.897093 1.16698
-1.14655 0.897196 1.15905
-1.13921 0.897531 1.15141
-1.13864 0.89718 1.14289
-1.13475 0.897166 1.1348
-1.13084 0.897153 1.12672
-1.12691 0.897143 1.11864
-1.12295 0.897135 1.11056
-1.11568 0.897462 1.1029
-1.11491 0.897132 1.09442
-1.11087 0.897133 1.08636
-1.10989 0.896824 1.07792
-1.10566 0.896844 1.06988
-1.10131 0.896877 1.06185
-1.09422 0.897184 1.05414
-1.09276 0.896926 1.04578
-1.09095 0.896702 1.03745
-1.08579 0.896815 1.02952
-1.07884 0.897109 1.02179
-1.07897 0.89669 1.01324
-1.07544 0.89664 1.00512
-1.07094 0.896687 0.997114
-1.06387 0.896992 0.989387
-1.06437 0.896537 0.980822
-1.05738 0.896833 0.973082
-1.05632 0.896535 0.964696
-1.05081 0.896684 0.956792
-1.04873 0.896488 0.948521
-1.04175 0.896783 0.940769
-1.04006 0.896549 0.932461
-1.03698 0.896454 0.9243
-1.03378 0.89637 0.916153
-1.0254 0.896806 0.908533
-1.02186 0.896756 0.900419
-1.01869 0.89667 0.892268
-1.01504 0.896632 0.884167
-1.0117 0.896563 0.876037
-1.00798 0.896532 0.867944
-1.00451 0.896476 0.859828
-1.001 0.896425 0.851717
-0.997204 0.896401 0.843633
-0.993626 0.896356 0.83553
-0.98981 0.896334 0.82745
-0.986189 0.896294 0.819352
-0.982546 0.896255 0.811257
-0.978702 0.896237 0.80318
-0.975034 0.896201 0.795089
-0.972354 0.896067 0.786912
-1.00779 0.926202 1.23853
-1.06364 0.920029 1.22211
-1.09228 0.916661 1.2095
-1.11617 0.913786 1.19759
-1.13178 0.911764 1.18685
-1.14251 0.910246 1.17679
-1.14023 0.910065 1.16848
-1.1364 0.910043 1.16038
-1.13256 0.910023 1.15227
-1.12872 0.910003 1.14417
-1.12134 0.910345 1.13652
-1.12082 0.909984 1.12799
-1.11695 0.909967 1.11989
-1.11307 0.909951 1.1118
-1.10917 0.909937 1.1037
-1.10524 0.909926 1.09561
-1.09794 0.910259 1.08794
-1.09724 0.909918 1.07945
-1.09323 0.909915 1.07137
-1.08915 0.90992 1.0633
-1.08497 0.909934 1.05524
-1.07781 0.910252 1.04753
-1.07661 0.909963 1.03912
-1.07505 0.90971 1.03076
-1.07007 0.909806 1.02279
-1.06738 0.909669 1.01456
-1.06044 0.909964 1.00681
-1.05966 0.909633 0.998373
-1.05461 0.909736 0.990412
-1.05117 0.909675 0.982271
-1.04637 0.909753 0.97428
-1.04453 0.90953 0.965968
-1.03769 0.909814 0.958194
-1.03488 0.90969 0.949989
-1.03185 0.909587 0.941808
-1.0294 0.909426 0.93357
-1.026 0.909362 0.925433
-1.0169 0.909875 0.917878
-1.0132 0.90984 0.909767
-1.00977 0.909779 0.901631
-1.00625 0.909727 0.893505
-1.00245 0.909703 0.885407
-0.998845 0.909659 0.87729
-0.995011 0.909639 0.869196
-0.991358 0.9096 0.861085
-0.987681 0.909563 0.852977
-0.983986 0.909529 0.844872
-0.980115 0.909512 0.836784
-0.976399 0.90948 0.828681
-0.972674 0.909449 0.82058
-0.96879 0.909433 0.812495
-0.965052 0.909403 0.804396
-0.961309 0.909374 0.796298
-0.959236 0.909176 0.788055
-1.05823 0.932542 1.22285
-1.09363 0.928426 1.20931
-1.11753 0.925512 1.19741
-1.13317 0.923461 1.18666
-1.13249 0.92311 1.17812
-1.1265 0.923312 1.17029
-1.12269 0.923288 1.16217
-1.11888 0.923264 1.15405
-1.11507 0.92324 1.14593
-1.10763 0.923592 1.13828
-1.1072 0.923216 1.12972
-1.10338 0.923193 1.1216
-1.09956 0.92317 1.11349
-1.09573 0.923148 1.10537
-1.09189 0.923127 1.09726
-1.08803 0.923107 1.08915
-1.08064 0.923453 1.08146
-1.08012 0.923089 1.07295
-1.07623 0.923073 1.06484
-1.07554 0.922726 1.05636
-1.0715 0.922726 1.04827
-1.06735 0.922737 1.0402
-1.05701 0.923387 1.03284
-1.05897 0.922767 1.02406
-1.05427 0.922835 1.01605
-1.05174 0.922679 1.00779
-1.04777 0.922672 0.999702
-1.0407 0.922984 0.991952
-1.04087 0.92255 0.983402
-1.03615 0.922619 0.975392
-1.02961 0.922877 0.967577
-1.02762 0.922665 0.959271
-1.02428 0.922593 0.951112
-1.02129 0.922485 0.942917
-1.01766 0.922443 0.934792
-1.01429 0.922373 0.926639
-1.01054 0.922344 0.918528
-1.007 0.922293 0.910396
-0.99655 0.92295 0.902957
-0.992827 0.922917 0.894838
-0.989087 0.922886 0.886721
-0.985191 0.922871 0.87862
-0.981436 0.922841 0.870506
-0.977673 0.922812 0.862393
-0.973905 0.922784 0.854281
-0.969998 0.92277 0.846183
-0.966225 0.922743 0.838072
-0.962448 0.922716 0.829963
-0.95867 0.922689 0.821853
-0.954889 0.922662 0.813745
-0.950977 0.922649 0.805649
-0.947195 0.922622 0.797541
-0.949158 0.922011 0.788934
-1.05487 0.944852 1.2233
-1.09159 0.940544 1.20959
-1.1203 0.937085 1.19703
-1.12303 0.936369 1.18802
-1.11984 0.936279 1.1798
-1.11603 0.936253 1.17167
-1.11222 0.936228 1.16354
-1.10842 0.936202 1.15541
-1.10461 0.936176 1.14728
-1.09713 0.936537 1.13962
-1.09675 0.936151 1.13105
-1.09294 0.936126 1.12292
-1.08914 0.9361 1.11479
-1.08533 0.936075 1.10666
-1.08152 0.93605 1.09854
-1.0777 0.936025 1.09041
-1.07389 0.936001 1.08228
-1.07006 0.935977 1.07416
-1.06261 0.936334 1.06647
-1.06219 0.935954 1.05794
-1.05834 0.935933 1.04982
-1.05448 0.935914 1.0417
-1.05056 0.935899 1.03358
-1.04656 0.935895 1.02548
-1.03929 0.936231 1.01775
-1.03826 0.935916 1.00931
-1.03609 0.93572 1.00101
-1.03122 0.935806 0.993001
-1.02558 0.935972 0.98508
-1.02256 0.935864 0.97687
-1.01959 0.935752 0.968657
-1.01588 0.935717 0.960526
-1.01234 0.935664 0.952377
-1.00868 0.935624 0.944242
-1.00481 0.935606 0.936129
-1.00108 0.935572 0.928002
-0.997333 0.935541 0.919878
-0.993429 0.935527 0.911769
-0.98966 0.935498 0.903648
-0.985885 0.935469 0.895528
-0.982105 0.935442 0.887408
-0.97819 0.935428 0.879303
-0.974405 0.935401 0.871185
-0.970617 0.935374 0.863068
-0.966828 0.935348 0.854951
-0.963038 0.935321 0.846835
-0.95912 0.935308 0.838731
-0.955329 0.935282 0.830616
-0.951537 0.935255 0.822502
-0.947745 0.935229 0.814388
-0.943952 0.935203 0.806274
-0.940033 0.93519 0.798172
-0.935489 0.935242 0.790125
-1.04165 0.958226 1.22511
-1.09299 0.952299 1.2094
-1.11691 0.949309 1.19749
-1.11313 0.94928 1.18934
-1.10932 0.949254 1.1812
-1.10551 0.949228 1.17306
-1.1017 0.949202 1.16492
-1.09789 0.949176 1.15678
-1.09408 0.94915 1.14864
-1.08659 0.949515 1.14097
-1.08621 0.949123 1.13239
-1.0824 0.949097 1.12425
-1.07859 0.949071 1.11611
-1.07478 0.949045 1.10797
-1.07098 0.949019 1.09983
-1.06717 0.948993 1.0917
-1.06336 0.948967 1.08356
-1.05955 0.948941 1.07542
-1.05574 0.948915 1.06729
-1.04824 0.949281 1.05959
-1.04788 0.948889 1.05104
-1.04407 0.948863 1.04291
-1.04027 0.948837 1.03477
-1.03646 0.948811 1.02664
-1.03264 0.948786 1.01851
-1.0288 0.948764 1.01038
-1.02133 0.949124 1.00265
-1.02043 0.948792 0.994196
-1.01384 0.949059 0.986369
-1.01003 0.949033 0.978234
-1.0061 0.94902 0.970113
-1.0023 0.948994 0.961978
-0.998491 0.948968 0.953845
-0.994685 0.948942 0.945712
-0.990879 0.948916 0.937579
-0.986949 0.948903 0.929459
-0.983143 0.948877 0.921327
-0.979338 0.948851 0.913196
-0.975533 0.948825 0.905065
-0.971728 0.948799 0.896934
-0.967799 0.948786 0.888816
-0.963994 0.94876 0.880686
-0.96019 0.948734 0.872557
-0.956386 0.948707 0.864428
-0.952582 0.948681 0.856299
-0.948654 0.948668 0.848183
-0.94485 0.948642 0.840055
-0.941047 0.948616 0.831928
-0.937244 0.94859 0.823801
-0.933317 0.948577 0.815686
-0.929514 0.948551 0.80756
-0.929176 0.948163 0.799129
-1.0877 0.964776 1.21012
-1.10336 0.962641 1.19932
-1.09896 0.962678 1.19124
-1.09515 0.962651 1.18308
-1.09133 0.962624 1.17493
-1.08752 0.962598 1.16678
-1.0837 0.962571 1.15862
-1.07989 0.962544 1.15047
-1.07608 0.962518 1.14231
-1.07227 0.962491 1.13416
-1.06846 0.962464 1.12601
-1.06101 0.962828 1.11831
-1.06059 0.962437 1.10973
-1.05678 0.96241 1.10158
-1.05297 0.962382 1.09343
-1.04917 0.962355 1.08528
-1.04537 0.962327 1.07713
-1.04158 0.962298 1.06898
-1.0378 0.962268 1.06082
-1.03403 0.962236 1.05267
-1.02684 0.962572 1.04492
-1.02624 0.962201 1.03639
-1.02259 0.962158 1.02823
-1.01914 0.962092 1.02004
-1.01354 0.962257 1.0121
-1.0125 0.961933 1.00364
-1.00748 0.962037 0.99563
-1.00116 0.962279 0.987761
-0.99677 0.962314 0.979677
-0.992507 0.962336 0.971579
-0.988489 0.962331 0.963455
-0.984567 0.962316 0.95532
-0.980595 0.962307 0.947191
-0.976732 0.962286 0.939051
-0.972887 0.962263 0.930909
-0.969053 0.962239 0.922767
-0.965108 0.962227 0.914636
-0.961283 0.962202 0.906494
-0.957462 0.962177 0.898351
-0.953644 0.962151 0.890209
-0.949706 0.962138 0.882079
-0.94589 0.962112 0.873937
-0.942076 0.962086 0.865796
-0.938262 0.96206 0.857655
-0.93445 0.962034 0.849514
-0.930514 0.962021 0.841385
-0.926703 0.961995 0.833245
-0.922892 0.961969 0.825106
-0.919081 0.961942 0.816967
-0.915147 0.961929 0.808839
-0.915308 0.961483 0.800351
-1.07773 0.977779 1.21147
-1.09329 0.975629 1.20068
-1.08856 0.975702 1.19263
-1.08475 0.975674 1.18447
-1.08094 0.975645 1.1763
-1.07713 0.975617 1.16813
-1.07333 0.975589 1.15997
-1.06594 0.975951 1.15227
-1.06546 0.97556 1.14367
-1.06167 0.97553 1.13551
-1.05787 0.975501 1.12734
-1.05409 0.97547 1.11918
-1.05031 0.975439 1.11101
-1.04655 0.975406 1.10284
-1.0428 0.975371 1.09467
-1.03561 0.975712 1.08692
-1.03501 0.975334 1.07837
-1.03132 0.975293 1.0702
-1.02769 0.975246 1.06202
-1.02415 0.975189 1.05383
-1.02079 0.975113 1.04562
-1.01468 0.975335 1.03773
-1.01372 0.974999 1.02924
-1.00853 0.97512 1.02125
-1.0053 0.975031 1.01302
-0.997759 0.975407 1.00529
-0.997426 0.975003 0.996743
-0.990237 0.975341 0.98896
-0.990733 0.974848 0.980334
-0.986383 0.974879 0.97224
-0.982057 0.974907 0.964142
-0.977953 0.974912 0.956021
-0.97391 0.97491 0.947893
-0.969948 0.974899 0.939757
-0.966034 0.974882 0.931616
-0.96215 0.974863 0.923472
-0.958184 0.974853 0.915337
-0.954326 0.974831 0.907192
-0.950479 0.974808 0.899045
-0.946528 0.974796 0.890909
-0.942691 0.974771 0.882763
-0.93886 0.974746 0.874616
-0.935032 0.974721 0.866469
-0.931207 0.974696 0.858322
-0.927265 0.974683 0.850187
-0.923443 0.974657 0.842041
-0.919623 0.974631 0.833895
-0.915805 0.974605 0.82575
-0.911865 0.974592 0.817616
-0.908989 0.974465 0.809387
-1.06794 0.99079 1.2128
-1.08212 0.988766 1.20218
-1.07832 0.988735 1.194
-1.07098 0.989097 1.1863
-1.07046 0.988704 1.17768
-1.06667 0.988673 1.1695
-1.0629 0.98864 1.16132
-1.05913 0.988607 1.15314
-1.05537 0.988572 1.14496
-1.05163 0.988536 1.13678
-1.04443 0.988881 1.12904
-1.04383 0.988498 1.12046
-1.04013 0.988458 1.11227
-1.03646 0.988414 1.10409
-1.03283 0.988365 1.09589
-1.02593 0.988677 1.0881
-1.02251 0.988605 1.07988
-1.01925 0.988517 1.07164
-1.01309 0.988746 1.06375
-1.01215 0.988402 1.05524
-1.00952 0.988244 1.04693
-1.00458 0.988339 1.0389
-0.997778 0.988639 1.03107
-0.996794 0.988301 1.02258
-0.99149 0.988436 1.01458
-0.987678 0.988408 1.00641
-0.985349 0.988217 0.99808
-0.979766 0.988383 0.990109
-0.974549 0.988509 0.982095
-0.974804 0.988035 0.973489
-0.970268 0.988086 0.965403
-0.965593 0.988153 0.957331
-0.961336 0.988173 0.949214
-0.957039 0.988198 0.941101
-0.952879 0.988208 0.932973
-0.948809 0.988208 0.924836
-0.944763 0.988206 0.916696
-0.940778 0.988197 0.90855
-0.936828 0.988184 0.900401
-0.932906 0.988168 0.89225
-0.928919 0.988159 0.884105
-0.925024 0.98814 0.875951
-0.921144 0.98812 0.867796
-0.917174 0.988109 0.859651
-0.913308 0.988087 0.851495
-0.90945 0.988064 0.843339
-0.905598 0.988041 0.835183
-0.90164 0.988029 0.827037
-0.899341 0.987837 0.818743
-1.07031 1.002 1.20377
-1.06137 1.00255 1.19627
-1.06076 1.00216 1.18765
-1.05703 1.00212 1.17945
-1.05332 1.00208 1.17125
-1.04962 1.00204 1.16305
-1.04595 1.00199 1.15484
-1.03893 1.00232 1.14707
-1.03824 1.00194 1.13848
-1.03464 1.00189 1.13027
-1.03109 1.00183 1.12205
-1.02761 1.00176 1.11383
-1.02097 1.00205 1.10599
-1.02014 1.00169 1.09744
-1.01687 1.0016 1.0892
-1.01064 1.00184 1.08131
-1.00786 1.0017 1.073
-1.00243 1.00185 1.06501
-1.00139 1.00151 1.0565
-0.996578 1.00159 1.04844
-0.992654 1.00157 1.04027
-0.986718 1.00178 1.03234
-0.985823 1.00143 1.02382
-0.981142 1.00149 1.01575
-0.977614 1.00143 1.00754
-0.971184 1.00169 0.999648
-0.969468 1.00143 0.991239
-0.964034 1.00158 0.983239
-0.957944 1.00181 0.975307
-0.958979 1.00124 0.96661
-0.953859 1.00136 0.958574
-0.949407 1.0014 0.950467
-0.94478 1.00146 0.942376
-0.940509 1.00148 0.934248
-0.936156 1.00151 0.926128
-0.931989 1.00152 0.917989
-0.927799 1.00154 0.909852
-0.923683 1.00154 0.901707
-0.919623 1.00154 0.893557
-0.915604 1.00153 0.885403
-0.911571 1.00153 0.87725
-0.9076 1.00152 0.869091
-0.903652 1.0015 0.86093
-0.899648 1.00149 0.852775
-0.895726 1.00148 0.844612
-0.891819 1.00146 0.836449
-0.893282 1.00085 0.827797
-1.0577 1.01536 1.20547
-1.05486 1.01522 1.19714
-1.0478 1.01556 1.18938
-1.04711 1.01518 1.18076
-1.04347 1.01513 1.17254
-1.03987 1.01507 1.16432
-1.0363 1.01501 1.15609
-1.02948 1.01532 1.14828
-1.02605 1.01525 1.14003
-1.01949 1.01553 1.13218
-1.01863 1.01517 1.12361
-1.0154 1.01507 1.11534
-1.01232 1.01496 1.10706
-1.00631 1.01517 1.09913
-1.00534 1.01482 1.09059
-0.999637 1.01501 1.08263
-0.997403 1.0148 1.07425
-0.992665 1.01487 1.06617
-0.985589 1.01521 1.05836
-0.984546 1.01487 1.04984
-0.981375 1.01477 1.04158
-0.976017 1.01491 1.03356
