ply
format ascii 1.0
comment Created by Open3D
element vertex 1703
property double x
property double y
property double z
end_header
0.311716 -0.281167 0.95797
0.144577 -0.280958 0.86609
0.215586 -0.280692 0.894158
-0.0346913 -0.280488 0.760668
0.301359 -0.280287 0.920308
0.185638 -0.280156 0.853026
0.261023 -0.27996 0.882298
0.393473 -0.279767 0.940068
0.253332 -0.279578 0.861509
0.140272 -0.279519 0.794508
0.230563 -0.279405 0.83002
0.222451 -0.279351 0.815432
0.460252 -0.279371 0.922659
0.689375 -0.279641 1.02168
1.16537 -0.2967 1.69181
1.12567 -0.294943 1.6824
0.76937 -0.293489 1.51085
0.734947 -0.292499 1.49422
0.874317 -0.29123 1.56826
0.632681 -0.290271 1.44779
0.744721 -0.289313 1.50422
0.799116 -0.288357 1.53188
0.868617 -0.287557 1.56507
0.958492 -0.286915 1.60639
0.709693 -0.286121 1.48049
0.736304 -0.285484 1.49023
0.706041 -0.28485 1.47154
0.544581 -0.284234 1.38706
0.700952 -0.283604 1.46174
0.586504 -0.282978 1.40102
0.513924 -0.282508 1.35913
0.910443 -0.281897 1.55377
0.583194 -0.281432 1.38457
0.440007 -0.280969 1.30739
0.375603 -0.280212 1.27377
0.518708 -0.279906 1.33763
0.531584 -0.279452 1.33849
0.436754 -0.278852 1.2876
0.457175 -0.278553 1.29012
0.556394 -0.277956 1.33631
0.472311 -0.277514 1.28868
0.408791 -0.277217 1.2493
0.515323 -0.27678 1.29698
0.181373 -0.276346 1.1244
0.373921 -0.275906 1.21521
0.397909 -0.275625 1.21948
0.322914 -0.275042 1.17866
0.464653 -0.274766 1.24178
0.101575 -0.274332 1.05483
0.54968 -0.274061 1.27112
0.261646 -0.27363 1.12171
0.243082 -0.273364 1.10465
0.26821 -0.272936 1.11184
0.280851 -0.272675 1.11036
0.261352 -0.272251 1.09525
0.114814 -0.271995 1.01415
0.227036 -0.271574 1.06492
0.131076 -0.271463 1.007
0.337958 -0.271046 1.10511
0.189233 -0.2708 1.02286
0.312398 -0.270386 1.07912
0.217098 -0.270146 1.02355
0.212682 -0.269872 1.01395
0.246663 -0.269637 1.02299
0.310418 -0.269231 1.04955
0.167992 -0.269095 0.968904
0.341236 -0.268732 1.0496
0.0868358 -0.268464 0.915037
0.233029 -0.268241 0.980105
0.301401 -0.267976 1.00694
0.3624 -0.267758 1.02937
0.295004 -0.267364 0.990364
0.148657 -0.267152 0.909077
0.308141 -0.266892 0.981474
0.195328 -0.266685 0.916913
0.0682171 -0.266427 0.846014
0.273341 -0.266225 0.940378
0.20297 -0.26597 0.897849
0.181692 -0.265773 0.878969
-0.0542749 -0.265521 0.753641
0.307006 -0.265329 0.925993
0.166548 -0.26508 0.848418
0.192659 -0.264893 0.853138
0.0728946 -0.264646 0.785906
0.274517 -0.264523 0.877395
0.195541 -0.264221 0.83149
-0.0767197 -0.264099 0.686044
0.0959963 -0.263803 0.765922
0.372697 -0.263752 0.893841
0.488367 -0.263513 0.944309
0.253033 -0.263346 0.818115
0.163695 -0.26311 0.76607
0.131251 -0.262948 0.741268
-0.0539546 -0.262832 0.639358
0.187438 -0.262674 0.75143
0.061533 -0.26252 0.679813
0.13517 -0.262405 0.707323
0.410321 -0.262255 0.836189
0.227772 -0.262108 0.736165
0.257466 -0.261965 0.742224
0.224084 -0.261935 0.714842
0.0228638 -0.261906 0.60352
0.0701886 -0.26188 0.616449
1.23132 -0.281052 1.73601
1.01544 -0.279523 1.63661
0.690679 -0.278285 1.47886
0.793567 -0.277074 1.53467
0.82408 -0.276132 1.55064
0.754341 -0.275218 1.51618
0.844478 -0.274305 1.56173
0.772974 -0.273542 1.52442
0.468035 -0.27278 1.37044
0.798653 -0.272168 1.53218
0.696696 -0.271282 1.48159
0.317698 -0.270674 1.28859
0.708063 -0.270068 1.48029
0.815249 -0.269465 1.53041
0.78325 -0.268878 1.51077
0.612027 -0.26828 1.42173
0.626481 -0.267831 1.42342
0.730164 -0.267384 1.46972
0.458155 -0.266803 1.33019
0.396629 -0.266361 1.29391
0.683201 -0.265782 1.43373
0.272787 -0.265345 1.22302
0.52636 -0.264911 1.34429
0.465233 -0.264481 1.3082
0.456825 -0.264052 1.29848
0.324119 -0.263482 1.22877
0.362005 -0.263201 1.24008
0.602898 -0.262776 1.35507
0.521154 -0.262357 1.30868
0.538875 -0.261935 1.31213
0.62001 -0.261663 1.34505
0.505052 -0.261103 1.2843
0.282964 -0.260836 1.1656
0.234477 -0.260419 1.13599
0.318943 -0.260156 1.17055
0.312293 -0.259743 1.16188
0.197504 -0.259484 1.0968
0.223991 -0.259074 1.10472
0.473825 -0.25882 1.22192
0.441968 -0.258413 1.20069
0.149532 -0.258165 1.04673
0.184544 -0.257761 1.05895
0.2379 -0.257492 1.07825
0.264063 -0.25725 1.08357
0.186212 -0.25685 1.03938
0.452046 -0.256613 1.1645
0.122013 -0.256349 0.99214
0.328181 -0.256086 1.08789
0.350234 -0.255724 1.09318
-0.00928254 -0.255463 0.906096
0.32207 -0.255237 1.06391
0.185368 -0.25485 0.990324
0.204883 -0.254721 0.990702
0.294085 -0.254373 1.02947
0.34676 -0.254118 1.04852
0.240123 -0.253904 0.987256
-0.0223562 -0.253525 0.850786
0.0795182 -0.253442 0.891683
0.263041 -0.253067 0.97821
0.052907 -0.252817 0.865865
0.0956289 -0.252615 0.879191
0.115779 -0.252369 0.88199
0.0840672 -0.252172 0.858054
-0.0734228 -0.251927 0.772034
0.339296 -0.251684 0.971125
0.375035 -0.251494 0.980861
0.385618 -0.251253 0.978883
0.289914 -0.251013 0.923767
0.288942 -0.25083 0.91509
0.265176 -0.250592 0.895939
-0.0378333 -0.250414 0.736192
0.332203 -0.250179 0.913937
0.396709 -0.249946 0.938922
0.4258 -0.249774 0.945162
0.127565 -0.249543 0.788768
-0.155824 -0.249313 0.639801
0.0511941 -0.249262 0.732976
0.19321 -0.248921 0.798664
0.0428085 -0.248808 0.714229
0.308648 -0.24865 0.838717
0.0902111 -0.248426 0.722211
0.209154 -0.248272 0.773192
0.0572308 -0.248051 0.68993
0.105984 -0.247832 0.707008
0.113151 -0.247685 0.702026
-0.119079 -0.247468 0.578597
0.305085 -0.24736 0.781461
0.00772525 -0.247219 0.624149
-0.0994986 -0.247006 0.563211
0.129085 -0.246871 0.668808
0.317526 -0.24666 0.755685
0.233638 -0.246451 0.706395
-0.0397528 -0.246426 0.559064
0.0468439 -0.246219 0.595003
-0.0322467 -0.246013 0.548096
0.248063 -0.245891 0.679401
0.0985677 -0.245688 0.597269
0.157879 -0.245671 0.616188
-0.0682734 -0.245471 0.49571
0.272324 -0.245272 0.658604
0.0791028 -0.245161 0.553002
-0.142495 -0.244965 0.434773
-0.0480101 -0.244956 0.471174
0.177402 -0.244762 0.576432
-0.0823623 -0.24466 0.437433
-0.0425766 -0.24447 0.449849
0.0515168 -0.244375 0.487662
0.0943227 -0.244279 0.49987
0.0512122 -0.244185 0.469073
-0.230219 -0.244001 0.32083
-0.00482562 -0.244003 0.422504
-0.174159 -0.243912 0.32858
-0.153926 -0.243827 0.329342
0.167897 -0.243744 0.480853
-0.0748454 -0.243752 0.348365
1.07364 -0.267787 1.64764
0.807808 -0.26576 1.53154
1.01923 -0.264308 1.64587
0.907366 -0.263132 1.59464
0.987477 -0.262122 1.63706
0.796041 -0.261111 1.54383
0.564969 -0.260241 1.42877
1.00997 -0.259373 1.65183
0.690214 -0.258646 1.49047
0.8717 -0.257921 1.57977
0.738682 -0.257339 1.50975
0.674844 -0.256619 1.47646
0.807321 -0.256041 1.53924
0.510953 -0.25534 1.38951
0.58728 -0.254906 1.42215
0.680065 -0.254334 1.46515
0.729948 -0.253777 1.48654
0.443533 -0.253349 1.33785
0.635572 -0.252785 1.43053
0.438341 -0.252231 1.32845
0.584512 -0.25181 1.39608
0.408033 -0.251397 1.3023
0.400225 -0.25098 1.29295
0.286566 -0.250566 1.23068
0.425929 -0.25002 1.29701
0.543846 -0.249747 1.3484
0.424205 -0.249204 1.28527
0.491052 -0.248935 1.31112
0.433927 -0.248396 1.27929
0.399892 -0.248131 1.2547
0.48092 -0.247729 1.28984
0.169542 -0.247469 1.12657
0.514646 -0.246936 1.29591
0.231776 -0.24668 1.14688
0.613612 -0.246284 1.33249
0.372583 -0.24602 1.20455
0.337163 -0.245638 1.18136
0.289173 -0.245377 1.14997
0.162387 -0.245 1.08108
0.0597887 -0.244611 1.02452
0.358173 -0.24437 1.16607
0.269056 -0.244112 1.11415
0.467576 -0.243855 1.20607
0.465053 -0.243491 1.19926
0.504866 -0.243109 1.21395
0.280787 -0.242879 1.09421
0.212903 -0.242626 1.05297
0.49935 -0.242375 1.18889
0.162513 -0.242025 1.01485
0.280449 -0.241775 1.06653
0.236463 -0.241555 1.03678
0.280762 -0.241308 1.05166
0.353824 -0.240938 1.08302
0.331205 -0.240725 1.06391
-0.054174 -0.240481 0.863963
0.247781 -0.240237 1.0077
0.203419 -0.24003 0.977675
0.367953 -0.239669 1.05478
0.20208 -0.239549 0.962539
0.129895 -0.239228 0.920625
0.214176 -0.238991 0.95554
0.430278 -0.238872 1.05431
0.112643 -0.23856 0.889614
0.120656 -0.238325 0.886403
-0.0986504 -0.238092 0.76954
0.0447896 -0.237904 0.833268
-0.00347623 -0.237673 0.801924
0.0499699 -0.237443 0.821442
0.236414 -0.237261 0.906615
-0.072682 -0.237033 0.744859
0.218912 -0.236807 0.883453
0.160734 -0.236632 0.846255
0.119663 -0.236408 0.818511
0.0766734 -0.236184 0.789813
0.217717 -0.236016 0.852161
0.0474051 -0.235795 0.759794
0.123998 -0.235576 0.790882
0.0505931 -0.235466 0.744988
0.109522 -0.235197 0.768184
-0.054145 -0.234981 0.679135
0.0560414 -0.234766 0.727014
0.317557 -0.234719 0.847489
0.137547 -0.234506 0.750262
-0.0492434 -0.234295 0.649645
-0.0678143 -0.234084 0.633139
-0.0391414 -0.233938 0.639069
0.149223 -0.23373 0.726016
-0.225396 -0.233523 0.53147
-0.131251 -0.233487 0.568141
0.033126 -0.233283 0.643082
0.111052 -0.233079 0.674796
0.0408998 -0.232877 0.632469
-0.177704 -0.232746 0.514591
-0.227477 -0.232546 0.482434
0.314962 -0.232348 0.746381
-0.147655 -0.232151 0.507796
0.0797423 -0.232126 0.610952
0.0822203 -0.231931 0.604899
0.174586 -0.231738 0.643786
-0.265866 -0.231545 0.416259
-0.0842154 -0.231526 0.49647
-0.217855 -0.231336 0.422332
-0.0832614 -0.231147 0.482306
-0.0312632 -0.230959 0.500976
-0.0446306 -0.230866 0.485147
-0.0382476 -0.23076 0.479446
0.139718 -0.230576 0.561074
0.0180194 -0.230393 0.492863
0.0857312 -0.230212 0.51935
0.185076 -0.230205 0.558242
-0.0890788 -0.230025 0.413773
0.134552 -0.229848 0.51819
0.0508887 -0.229671 0.468951
-0.0102372 -0.229583 0.429233
0.0191599 -0.229495 0.434794
-0.181357 -0.229322 0.327095
-0.0459871 -0.229151 0.38733
0.23085 -0.228981 0.518288
0.141505 -0.228896 0.46445
-0.111331 -0.228812 0.328868
0.089863 -0.228651 0.421852
-0.398875 -0.228486 0.169974
-0.267055 -0.228404 0.226706
-0.0175306 -0.228241 0.343946
0.0800136 -0.22808 0.385185
-0.0184936 -0.228093 0.324843
-0.105169 -0.227933 0.273942
-0.119099 -0.227776 0.259401
-0.1834 -0.227619 0.219661
0.0147748 -0.227464 0.311146
-0.372909 -0.227387 0.108101
-0.239876 -0.227234 0.166997
-0.0588883 -0.227158 0.248285
0.226809 -0.227105 0.381463
-0.0419455 -0.226956 0.239418
-0.126672 -0.226809 0.189372
0.190672 -0.226662 0.340345
-0.156092 -0.22659 0.15773
-0.0795723 -0.226446 0.188271
-0.266607 -0.226303 0.087018
0.129524 -0.226232 0.275841
-0.216819 -0.226092 0.0949114
-0.0922974 -0.225953 0.149397
-0.127103 -0.225815 0.124202
0.0780277 -0.225747 0.217507
-0.166305 -0.225715 0.0853133
0.0360601 -0.225582 0.178646
-0.0832886 -0.225515 0.109688
0.0357755 -0.225384 0.161345
-0.0839533 -0.225254 0.0935865
-0.218874 -0.22519 0.0168277
0.171387 -0.225062 0.204037
0.190377 -0.224936 0.20559
-0.00982713 -0.224812 0.0975264
-0.254493 -0.22475 -0.0341288
0.013757 -0.224628 0.0920052
-0.104709 -0.2244 0.0271145
-0.072002 -0.22434 0.0341371
0.0266522 -0.224221 0.0754358
0.0997893 -0.224103 0.103953
-0.0527412 -0.224045 0.0183374
-0.168977 -0.22393 -0.047863
0.89202 -0.252437 1.5641
1.09987 -0.250651 1.68289
1.10517 -0.249276 1.69422
0.763056 -0.248055 1.52961
0.812556 -0.247097 1.55681
1.00009 -0.24625 1.65139
0.764703 -0.245427 1.53423
0.737087 -0.244738 1.51893
0.747619 -0.24405 1.52275
0.774451 -0.243364 1.53477
0.848469 -0.242563 1.57226
0.710152 -0.242013 1.49967
0.43107 -0.241465 1.35673
0.634139 -0.240918 1.45489
0.455229 -0.240388 1.36186
0.375065 -0.239845 1.31845
0.546495 -0.239437 1.39872
0.748571 -0.238778 1.49842
0.597032 -0.238374 1.41723
0.657455 -0.237972 1.44203
0.460802 -0.237449 1.34031
0.326427 -0.237051 1.26773
0.417129 -0.236661 1.3076
0.55224 -0.236267 1.36977
0.519404 -0.235749 1.35007
0.460095 -0.235489 1.31289
0.330533 -0.234975 1.24487
0.571731 -0.234718 1.35795
0.385326 -0.234334 1.25939
0.389357 -0.233954 1.25603
0.29115 -0.233573 1.20161
0.357285 -0.233324 1.22715
0.302965 -0.232945 1.1947
0.329215 -0.232693 1.20041
0.195767 -0.232324 1.1283
0.228226 -0.231949 1.13928
0.134507 -0.23171 1.08488
0.26235 -0.231337 1.14358
0.357327 -0.231102 1.18351
0.434386 -0.230732 1.21683
0.237617 -0.230487 1.11112
0.169988 -0.230135 1.07187
0.0768749 -0.229769 1.02013
0.255953 -0.229665 1.09995
0.372275 -0.229303 1.15294
-0.109159 -0.228942 0.907073
0.233938 -0.228723 1.07099
0.366538 -0.228484 1.13003
0.153376 -0.228246 1.01621
0.15434 -0.228032 1.00903
0.0630098 -0.227678 0.958241
0.260441 -0.227443 1.04973
0.26725 -0.227235 1.04545
0.346792 -0.226886 1.0801
0.355526 -0.22677 1.07516
0.223054 -0.226452 1.00329
0.159431 -0.226223 0.964279
0.307098 -0.225993 1.03092
0.00855768 -0.225798 0.873877
0.307821 -0.225571 1.01632
0.366951 -0.225232 1.04078
0.166013 -0.225155 0.930421
0.0647668 -0.224931 0.872623
0.141421 -0.224597 0.905844
-0.023683 -0.224486 0.814069
0.43257 -0.224193 1.03637
0.15645 -0.223974 0.891146
0.108274 -0.223755 0.8599
-0.0312038 -0.223688 0.780181
0.00786004 -0.223363 0.794589
0.263853 -0.223148 0.91543
0.0766687 -0.22304 0.812656
-0.0421281 -0.222872 0.745255
-0.00249747 -0.222553 0.759932
0.191758 -0.222342 0.849905
0.376822 -0.222285 0.932357
0.00818719 -0.222076 0.74088
-0.161852 -0.221868 0.648704
0.0385219 -0.221661 0.741737
0.0915822 -0.221507 0.760118
0.022025 -0.221302 0.718174
0.313819 -0.221099 0.856907
0.184499 -0.220896 0.785084
0.145343 -0.220795 0.756377
0.156707 -0.22065 0.753819
0.229378 -0.22045 0.782982
-0.0472662 -0.220252 0.637488
-0.291959 -0.220055 0.507969
-0.0193499 -0.219917 0.635937
0.126519 -0.219723 0.701682
-0.143895 -0.219529 0.559283
0.226946 -0.219433 0.735593
0.106592 -0.219303 0.66699
0.0538079 -0.219113 0.633391
-0.154805 -0.218924 0.521874
-0.0609301 -0.218736 0.561598
-0.146761 -0.218549 0.511465
-0.0974253 -0.218521 0.525708
0.120717 -0.218337 0.627545
0.186501 -0.218153 0.653199
0.118902 -0.217971 0.612157
-0.125103 -0.21788 0.481056
-0.176344 -0.217699 0.448189
0.322783 -0.21759 0.68907
-0.0343823 -0.217412 0.503214
0.0722568 -0.217324 0.547433
0.00975536 -0.217148 0.508904
0.00482273 -0.216973 0.499151
-0.328446 -0.216872 0.323704
0.0779235 -0.216786 0.517784
-0.500912 -0.216615 0.221051
-0.0138582 -0.216445 0.457253
0.189707 -0.216276 0.551703
-0.000208991 -0.216109 0.449403
0.0491927 -0.216026 0.465001
0.141647 -0.215937 0.502242
0.0923413 -0.215773 0.470213
-0.0550932 -0.215692 0.387384
0.133267 -0.21553 0.474176
-0.0917357 -0.215369 0.354276
-0.116275 -0.21521 0.334596
-0.0686073 -0.215131 0.349315
0.0781114 -0.214973 0.415251
-0.0188004 -0.214895 0.357679
-0.236211 -0.214821 0.239763
0.0916157 -0.214668 0.396211
-0.0742789 -0.214515 0.305785
0.0451886 -0.214439 0.356387
0.0975917 -0.214289 0.375094
-0.271301 -0.21414 0.183139
-0.106112 -0.213992 0.25821
-0.0361471 -0.213919 0.284051
-0.111476 -0.213773 0.238845
-0.137175 -0.213628 0.21844
-0.12159 -0.213557 0.217082
-0.284811 -0.213502 0.125956
-0.15768 -0.213361 0.181915
0.124324 -0.213291 0.313748
-0.191966 -0.213153 0.147975
-0.423433 -0.213016 0.0245968
-0.348844 -0.212948 0.052712
0.149201 -0.212813 0.294067
-0.132923 -0.212679 0.14532
0.0397373 -0.212613 0.222458
0.0109898 -0.212481 0.200375
-0.263888 -0.212351 0.0552076
-0.0582935 -0.212286 0.148799
0.0122298 -0.212158 0.176307
-0.275827 -0.212032 0.0245049
-0.0768407 -0.211969 0.114778
-0.24618 -0.211845 0.0223071
-0.100803 -0.211722 0.0871743
-0.301691 -0.211661 -0.0225067
-0.0931322 -0.21154 0.0739229
-0.183431 -0.21142 0.0209022
-0.240681 -0.211361 -0.0169779
-0.0469187 -0.211244 0.0720019
-0.185177 -0.211128 -0.0050513
0.121117 -0.211071 0.138822
-0.203345 -0.210958 -0.0313647
-0.0416021 -0.210901 0.040221
0.151651 -0.21079 0.12886
1.21068 -0.237386 1.72673
0.814663 -0.235601 1.5453
0.875617 -0.234305 1.58451
0.983743 -0.233256 1.64336
0.87537 -0.232353 1.59167
0.7695 -0.23145 1.54133
1.01258 -0.230673 1.66346
0.459144 -0.230022 1.3853
0.643586 -0.229354 1.47644
0.87827 -0.228724 1.59213
0.678398 -0.228077 1.4909
0.801178 -0.227558 1.5489
0.621496 -0.22693 1.45757
0.57466 -0.226413 1.43083
0.670145 -0.226024 1.47314
0.221694 -0.225399 1.24756
0.615776 -0.225013 1.4392
0.567923 -0.224618 1.41006
0.366528 -0.224122 1.30595
0.569564 -0.223627 1.40409
0.738701 -0.223249 1.48331
0.384895 -0.222879 1.30094
0.63033 -0.222505 1.41832
0.352268 -0.222014 1.27602
0.434624 -0.221766 1.30972
0.44046 -0.221278 1.30941
0.336979 -0.221033 1.2502
0.353841 -0.220549 1.25545
0.286474 -0.220307 1.2143
0.299482 -0.219946 1.2155
0.187584 -0.219586 1.15427
0.489994 -0.219229 1.30016
0.187654 -0.218872 1.14374
0.512024 -0.218639 1.29846
0.471588 -0.218283 1.27301
0.335376 -0.218047 1.19755
0.438145 -0.217701 1.24361
0.126184 -0.21735 1.08245
0.334684 -0.217126 1.17921
0.185659 -0.216893 1.09739
0.122702 -0.216545 1.06076
0.424642 -0.216326 1.20423
0.147321 -0.21598 1.06043
0.425637 -0.215751 1.19233
0.191611 -0.215537 1.06779
0.40325 -0.215196 1.1685
0.33758 -0.214986 1.12812
0.100697 -0.214761 1.00245
0.209513 -0.214423 1.05176
0.308722 -0.214219 1.09379
0.150351 -0.213996 1.0074
-0.0231213 -0.213774 0.913473
0.0746908 -0.213553 0.955198
0.392209 -0.213245 1.10845
-0.0722593 -0.213026 0.869044
0.111025 -0.212807 0.953523
0.0430895 -0.212616 0.9119
0.297378 -0.212399 1.03189
-0.215611 -0.212076 0.770336
0.236413 -0.211997 0.98656
-0.0642942 -0.211783 0.829063
0.142423 -0.211464 0.927365
0.0476738 -0.211253 0.87286
0.063882 -0.211179 0.871138
0.172999 -0.210864 0.920637
0.260978 -0.210655 0.957502
0.330582 -0.210551 0.983123
0.178905 -0.210276 0.901533
0.0961375 -0.21007 0.853029
0.0744082 -0.209865 0.835049
-0.0843473 -0.209763 0.746515
0.100843 -0.209598 0.831238
0.0122779 -0.209295 0.781876
0.028664 -0.209094 0.782957
0.00855913 -0.208994 0.76377
0.10542 -0.208836 0.804254
0.241656 -0.208638 0.86526
0.175509 -0.208441 0.825076
0.0727259 -0.208245 0.766576
0.0695809 -0.208095 0.756977
0.0838943 -0.207901 0.757014
-0.0297938 -0.207708 0.693052
0.0162825 -0.207516 0.708972
-0.117374 -0.207421 0.633048
0.142511 -0.207279 0.754874
0.115283 -0.20709 0.734134
-0.0522003 -0.206902 0.643265
-0.0893199 -0.206715 0.617577
0.0511515 -0.206622 0.678732
0.121522 -0.206489 0.705701
0.0581682 -0.206305 0.666883
-0.244357 -0.206122 0.508477
-0.0523781 -0.205941 0.597321
-0.0483099 -0.20576 0.592206
-0.127092 -0.205725 0.54257
-0.085246 -0.205547 0.55633
-0.014804 -0.20537 0.584384
0.0214694 -0.205193 0.595349
-0.189908 -0.205018 0.482485
-0.00730114 -0.204844 0.566607
-0.404459 -0.204816 0.357689
0.118032 -0.204644 0.611736
-0.148457 -0.204473 0.471287
-0.135896 -0.204304 0.470357
-0.0915608 -0.204219 0.483465
-0.0146338 -0.204051 0.514713
0.140065 -0.203947 0.583455
-0.0880596 -0.203864 0.460329
-0.298491 -0.2037 0.347869
0.120332 -0.203536 0.550029
-0.199215 -0.203374 0.382995
0.130092 -0.203293 0.538587
-0.0392312 -0.203132 0.446657
-0.017663 -0.202973 0.450162
-0.152772 -0.202961 0.372041
-0.0243108 -0.202803 0.428969
0.062289 -0.202647 0.464956
-0.0572474 -0.202493 0.397863
-0.104894 -0.202416 0.36497
-0.142982 -0.202263 0.33859
0.130424 -0.202111 0.467945
0.120428 -0.20196 0.455587
-0.501096 -0.201886 0.135751
-0.0140939 -0.201737 0.371878
-0.312 -0.201735 0.212192
-0.0903425 -0.201589 0.315617
-0.202098 -0.201444 0.252322
-0.278725 -0.201372 0.204919
-0.260751 -0.201228 0.206473
-0.0953018 -0.201087 0.281749
-0.192537 -0.200946 0.225669
-0.317028 -0.200876 0.154324
-0.00986353 -0.200737 0.300425
-0.119304 -0.2006 0.238208
-0.126378 -0.200532 0.225562
-0.126218 -0.200396 0.218125
-0.282375 -0.200262 0.132513
-0.278056 -0.200195 0.125555
-0.168183 -0.200063 0.172935
-0.224743 -0.199998 0.135531
0.00961521 -0.199946 0.243251
-0.102504 -0.199818 0.179581
-0.0773468 -0.199754 0.183015
-0.306017 -0.199628 0.0610455
-0.0272568 -0.199503 0.192773
-0.0655346 -0.199441 0.164476
-0.216493 -0.199318 0.0813178
-0.149705 -0.199257 0.105545
0.0119105 -0.199135 0.178648
-0.24114 -0.199016 0.0443964
-0.0904743 -0.198957 0.110547
-0.122618 -0.198839 0.0867216
0.103142 -0.198723 0.191826
-0.172831 -0.198665 0.0446401
-0.0627188 -0.198551 0.0918915
-0.134576 -0.198494 0.046753
-0.26646 -0.198382 -0.0270241
-0.0118328 -0.198272 0.0924313
-0.000987977 -0.198217 0.0886241
-0.0162254 -0.198109 0.0731153
-0.195319 -0.198055 -0.0256728
-0.247094 -0.197948 -0.0594831
0.993839 -0.222357 1.62166
0.786762 -0.220682 1.53473
0.885773 -0.219466 1.593
0.586649 -0.218502 1.44791
0.757826 -0.217535 1.53812
0.612846 -0.216786 1.46652
0.747389 -0.216056 1.53442
0.706101 -0.215445 1.51236
0.821246 -0.214834 1.56858
0.686255 -0.214123 1.5016
0.444072 -0.213633 1.37714
0.501424 -0.213129 1.40274
0.624889 -0.212539 1.46302
0.842111 -0.212067 1.5681
0.634645 -0.211583 1.46112
0.133123 -0.211206 1.2052
0.569815 -0.210632 1.42205
0.650364 -0.21027 1.45699
0.629613 -0.209909 1.44129
0.397598 -0.209443 1.32195
0.502328 -0.209086 1.36901
0.286293 -0.208623 1.25772
0.592269 -0.208379 1.40339
0.26061 -0.207924 1.23422
0.312897 -0.207574 1.2551
0.330472 -0.20723 1.25855
0.460376 -0.206883 1.31824
0.434546 -0.206541 1.30003
0.298337 -0.206312 1.22453
0.467052 -0.205972 1.30361
0.382615 -0.205634 1.25615
0.0244934 -0.205296 1.07184
0.221915 -0.20496 1.16534
0.478901 -0.204739 1.28643
0.201997 -0.204404 1.14279
0.223001 -0.204182 1.14597
0.16612 -0.203855 1.11228
0.423206 -0.203524 1.23568
0.308221 -0.203311 1.17076
0.130845 -0.203092 1.0748
-0.0730545 -0.202764 0.967737
0.13579 -0.202556 1.06473
-0.0128685 -0.202231 0.985301
0.10537 -0.202015 1.03719
0.231241 -0.201812 1.09268
0.175062 -0.20149 1.05952
0.306163 -0.201277 1.11787
0.187579 -0.201079 1.05111
0.181828 -0.200761 1.04318
0.259868 -0.20055 1.07503
0.161326 -0.200357 1.01825
-0.0420862 -0.200148 0.909386
0.213451 -0.199836 1.03212
0.102723 -0.199751 0.967108
0.12312 -0.199441 0.972279
0.0533918 -0.199236 0.930283
0.0138075 -0.199031 0.903367
0.30333 -0.198849 1.04055
0.0624728 -0.198646 0.913008
0.0556258 -0.198444 0.902475
0.14655 -0.198267 0.94032
0.00525813 -0.198067 0.862569
-0.0417057 -0.197768 0.834074
0.299284 -0.197569 0.997475
-0.153614 -0.197498 0.761276
0.0281011 -0.197301 0.845043
-0.0188357 -0.197007 0.816559
-0.0450425 -0.196813 0.796373
-0.182181 -0.196746 0.718011
-0.107868 -0.196553 0.748085
0.181213 -0.196361 0.885549
0.332884 -0.196074 0.956359
0.282631 -0.195979 0.922115
-0.0993939 -0.195823 0.723301
0.0583357 -0.195635 0.79509
0.180657 -0.195447 0.849178
-0.0804856 -0.195261 0.711537
-0.0850834 -0.195112 0.701361
-0.0157112 -0.194927 0.728968
-0.0469349 -0.194744 0.706278
0.258313 -0.194561 0.851825
0.0761383 -0.19438 0.753661
0.0460038 -0.194329 0.728633
-0.182038 -0.19415 0.607528
0.115781 -0.193971 0.749354
-0.0780826 -0.193793 0.645338
0.0606922 -0.193616 0.707639
-0.0549009 -0.193571 0.639814
0.126486 -0.193396 0.723412
0.0209633 -0.193222 0.663553
0.0553847 -0.193049 0.673664
-0.0967027 -0.192877 0.590518
0.16359 -0.192705 0.713559
0.282139 -0.192667 0.762721
-0.309365 -0.192498 0.459851
0.0981163 -0.19233 0.656469
0.069477 -0.192163 0.635022
-0.0928343 -0.19208 0.544832
0.0682498 -0.191914 0.618245
0.0712383 -0.1918 0.611431
-0.0748504 -0.191719 0.529352
-0.111243 -0.191556 0.504004
-0.0168482 -0.191395 0.544044
0.000140352 -0.191234 0.545375
0.326325 -0.191075 0.701297
-0.0429841 -0.190996 0.507616
0.244742 -0.190838 0.644302
-0.120553 -0.190736 0.453173
-0.0794051 -0.190659 0.464716
-0.280745 -0.190504 0.356841
0.136453 -0.190351 0.558225
0.151118 -0.190198 0.558334
-0.0886648 -0.190122 0.429414
-0.119495 -0.189972 0.406766
-0.0451061 -0.189822 0.436717
-0.198301 -0.189748 0.351091
-0.147922 -0.18966 0.367596
-0.143525 -0.189513 0.362517
-0.206329 -0.189441 0.322077
-0.0103089 -0.189296 0.412795
-0.145215 -0.189153 0.338039
-0.149177 -0.189082 0.327017
-0.0146701 -0.18894 0.386954
0.0827178 -0.1888 0.428318
-0.282986 -0.18873 0.236421
0.0374572 -0.188591 0.389297
-0.216322 -0.188454 0.255048
-0.0823121 -0.188385 0.313003
-0.0613829 -0.188314 0.314492
-0.151949 -0.18818 0.261804
0.138242 -0.188114 0.397835
0.155812 -0.187982 0.399196
0.0187325 -0.187851 0.323218
-0.156323 -0.187786 0.226617
0.0833935 -0.187657 0.339016
-0.127773 -0.187592 0.224355
-0.113043 -0.187465 0.22424
-0.19123 -0.187339 0.177649
-0.17804 -0.187277 0.175156
-0.319172 -0.187152 0.0970694
-0.056117 -0.18703 0.221059
-0.0930877 -0.186969 0.193473
-0.128102 -0.186848 0.168403
-0.058979 -0.186788 0.193857
-0.264246 -0.186669 0.0836365
-0.296684 -0.186551 0.0598104
-0.364885 -0.186492 0.0165885
-0.0886758 -0.186377 0.147059
-0.119029 -0.186319 0.122752
-0.27015 -0.186205 0.0395304
-0.0423042 -0.186093 0.145771
-0.0561993 -0.186037 0.129676
-0.412269 -0.185926 -0.0560698
-0.201944 -0.185872 0.0399357
-0.198206 -0.185763 0.0340632
-0.00177679 -0.185656 0.124514
-0.129442 -0.185603 0.0515053
-0.0604187 -0.185497 0.0782214
-0.111067 -0.185445 0.0437098
-0.137998 -0.185342 0.0224164
-0.217799 -0.185291 -0.0266836
-0.335201 -0.18519 -0.0932464
1.27484 -0.207569 1.7615
1.00134 -0.205915 1.64306
0.957098 -0.204762 1.63004
0.971188 -0.203768 1.64332
0.749268 -0.202958 1.53526
0.847365 -0.202258 1.58521
0.86901 -0.201576 1.59668
0.526386 -0.20091 1.42578
0.745454 -0.200323 1.5343
0.66792 -0.199769 1.49396
0.793022 -0.1992 1.5553
0.710589 -0.198743 1.51077
0.547599 -0.19819 1.42786
0.366811 -0.197736 1.33423
0.541109 -0.197295 1.41792
0.332725 -0.196843 1.31054
0.471615 -0.196502 1.37467
0.55426 -0.196064 1.41264
0.539905 -0.195716 1.40037
0.268218 -0.19529 1.26104
0.165051 -0.194954 1.20421
0.307176 -0.194621 1.27003
0.550821 -0.194188 1.38864
0.330869 -0.19396 1.2714
0.232449 -0.193535 1.2189
0.307094 -0.193311 1.24894
0.451504 -0.192888 1.31793
0.298134 -0.192568 1.23598
0.482329 -0.192349 1.32077
0.172003 -0.192032 1.16036
0.466243 -0.191715 1.30226
0.411108 -0.191399 1.2695
0.541477 -0.191189 1.32734
0.297861 -0.190875 1.20035
0.176721 -0.190562 1.13463
0.209983 -0.190356 1.14392
0.270005 -0.190045 1.1688
0.259939 -0.189838 1.15649
0.0936066 -0.189534 1.06814
0.249394 -0.189329 1.13878
0.200395 -0.189124 1.10705
0.36401 -0.188825 1.18365
0.0958822 -0.188521 1.04452
-0.0664898 -0.188327 0.955959
0.369753 -0.188126 1.16689
0.0973754 -0.187825 1.02566
0.307802 -0.187725 1.12156
0.27232 -0.187437 1.09857
0.309016 -0.187239 1.10976
0.372394 -0.187041 1.1343
0.0970642 -0.186759 0.991352
0.299408 -0.186563 1.08539
0.0497816 -0.186368 0.953457
0.467341 -0.186189 1.15479
0.0475588 -0.185996 0.937782
-0.0116624 -0.185707 0.903187
0.207202 -0.185515 1.00552
0.126289 -0.185342 0.957575
0.0471896 -0.185152 0.910936
0.352998 -0.184963 1.05676
0.0147926 -0.184774 0.880583
0.0155642 -0.184607 0.873434
0.0599804 -0.18442 0.888572
0.0480287 -0.184234 0.875532
0.0372134 -0.184049 0.863067
0.146205 -0.183888 0.909978
0.0226425 -0.183704 0.841139
-0.114092 -0.183522 0.76572
0.144022 -0.18334 0.88773
-0.0477812 -0.183185 0.784184
0.0813141 -0.183005 0.841682
0.047883 -0.182826 0.817921
0.0300844 -0.182647 0.801979
-0.021268 -0.182499 0.768593
-0.0461787 -0.182323 0.74909
-0.0858237 -0.182235 0.720184
-0.109158 -0.18206 0.701477
0.205689 -0.181885 0.851863
0.248577 -0.181712 0.866272
0.0134048 -0.181572 0.74089
0.24843 -0.181401 0.851357
-0.191919 -0.18123 0.624138
-0.225869 -0.181061 0.600117
-0.227323 -0.180892 0.592345
-0.00724779 -0.180843 0.692502
-0.091583 -0.180676 0.643281
-0.230843 -0.18051 0.566597
-0.111557 -0.180345 0.619184
0.0158458 -0.180181 0.675828
-0.268609 -0.180099 0.524576
-0.100649 -0.179975 0.600564
-0.321866 -0.179814 0.482884
-0.162038 -0.179653 0.555724
0.163919 -0.179573 0.709685
0.0238412 -0.179414 0.632572
-0.186147 -0.179256 0.520499
-0.138021 -0.179141 0.536446
-0.0222857 -0.179063 0.585301
0.111488 -0.178908 0.64509
-0.205447 -0.178753 0.479518
-0.201852 -0.1786 0.474207
-0.0504642 -0.178524 0.540897
-0.0426964 -0.178372 0.537667
-0.0382897 -0.178221 0.53275
-0.101803 -0.178192 0.490849
-0.218116 -0.178043 0.425553
0.015961 -0.177895 0.535445
0.00812819 -0.177748 0.524375
-0.285386 -0.177675 0.368616
0.100319 -0.17753 0.554306
-0.166283 -0.177386 0.413833
-0.203646 -0.177242 0.387972
0.0979233 -0.177171 0.529756
-0.177687 -0.17708 0.38348
-0.130736 -0.17701 0.39795
-0.161777 -0.17687 0.375215
-0.213061 -0.176731 0.342347
-0.0460449 -0.176594 0.418619
0.0468341 -0.176526 0.45605
-0.104668 -0.17639 0.37305
-0.269506 -0.176255 0.283369
-0.0501227 -0.176188 0.38405
-0.155988 -0.176055 0.323841
-0.240071 -0.175923 0.27451
-0.142549 -0.175858 0.314256
-0.390859 -0.175782 0.181352
-0.324615 -0.175718 0.205448
0.069463 -0.175589 0.395152
-0.222194 -0.175462 0.241974
0.0317069 -0.175399 0.359893
-0.296367 -0.175274 0.188487
-0.578716 -0.175212 0.0382771
-0.385114 -0.175088 0.12769
-0.170832 -0.174966 0.227427
-0.178817 -0.174905 0.21439
-0.246376 -0.174784 0.173186
-0.0922919 -0.174665 0.242786
-0.016518 -0.174605 0.271618
-0.273752 -0.174487 0.135536
-0.209473 -0.174429 0.158614
-0.143539 -0.174313 0.184093
-0.483321 -0.174198 0.00669551
-0.328791 -0.174141 0.0748871
-0.507505 -0.174028 -0.0220021
-0.0267655 -0.173972 0.209286
-0.142538 -0.173861 0.143843
-0.219506 -0.173751 0.0977806
-0.145039 -0.173697 0.125918
-0.0230875 -0.173589 0.179288
-0.154485 -0.173535 0.104484
-0.126859 -0.173429 0.110663
0.026246 -0.173376 0.1781
-0.233244 -0.173272 0.0406921
-0.360544 -0.173169 -0.0306436
0.162152 -0.173118 0.221571
-0.00930838 -0.173017 0.128124
-0.171389 -0.172966 0.0379394
-0.286801 -0.172867 -0.0275148
-0.1635 -0.172818 0.0249798
-0.195907 -0.172721 0.000994878
-0.378197 -0.172672 -0.0993185
-0.214026 -0.172577 -0.0250479
1.00525 -0.192889 1.62375
1.02709 -0.191222 1.65562
1.00831 -0.190169 1.65498
0.826603 -0.18923 1.5707
0.761504 -0.188391 1.54281
0.699404 -0.187669 1.51412
0.805322 -0.187034 1.56777
0.692991 -0.186472 1.51088
0.88154 -0.185868 1.60536
0.841091 -0.185338 1.5839
1.05528 -0.184897 1.68798
0.657543 -0.184382 1.48768
0.5438 -0.183957 1.42756
0.365684 -0.183534 1.33529
0.472373 -0.183124 1.38519
0.481775 -0.182703 1.38674
0.573473 -0.182295 1.42923
0.307927 -0.181968 1.29141
0.330517 -0.181571 1.29919
0.494538 -0.181248 1.37618
0.494183 -0.180852 1.37256
0.40098 -0.180541 1.32077
0.445659 -0.180231 1.33792
0.287137 -0.179923 1.25348
0.571023 -0.179623 1.39011
0.34008 -0.179318 1.26947
0.634709 -0.179019 1.41151
0.347587 -0.178721 1.2627
0.109401 -0.178421 1.13846
0.289519 -0.178125 1.22331
0.445364 -0.17783 1.29604
0.128213 -0.177632 1.13017
0.165116 -0.177338 1.14346
0.267388 -0.177046 1.18946
0.399583 -0.176852 1.24827
0.204176 -0.176561 1.14545
0.4837 -0.176368 1.27795
0.209504 -0.176081 1.13572
0.0907102 -0.17589 1.06909
0.0978049 -0.175603 1.06757
0.0943292 -0.175416 1.05854
0.156013 -0.175132 1.08434
0.271448 -0.174943 1.13487
0.241802 -0.17476 1.11275
0.0288758 -0.174479 1.00127
0.190757 -0.174292 1.07505
0.0294237 -0.174113 0.987064
0.267871 -0.173835 1.10129
0.43013 -0.173651 1.17529
0.210415 -0.173476 1.05809
0.321419 -0.173293 1.10648
0.30453 -0.173111 1.09093
0.0123831 -0.172838 0.939893
0.0679398 -0.172669 0.960301
-0.0398217 -0.172489 0.899334
0.0755606 -0.172309 0.949947
-0.0165802 -0.17213 0.896808
0.273758 -0.171967 1.03458
0.168212 -0.171789 0.974741
0.0985783 -0.171613 0.93287
0.35014 -0.171437 1.0516
-0.113272 -0.171278 0.812457
-0.0335382 -0.171104 0.845281
0.228865 -0.170844 0.971544
0.125557 -0.170758 0.910763
0.0281127 -0.170605 0.854551
0.126056 -0.170433 0.896494
-0.0525029 -0.170263 0.800191
0.0904213 -0.170009 0.866712
0.142033 -0.169946 0.882895
0.273885 -0.169778 0.9418
0.134289 -0.169611 0.864984
0.00528218 -0.169445 0.793466
-0.273712 -0.169279 0.646958
-0.164027 -0.169139 0.694184
-0.0782653 -0.168975 0.730048
0.0970308 -0.168812 0.810681
-0.0586059 -0.16865 0.725849
0.254859 -0.168489 0.875569
-0.128017 -0.168408 0.675092
-0.270532 -0.168276 0.596134
-0.118852 -0.168117 0.664958
0.0185289 -0.167959 0.726632
-0.120159 -0.167801 0.650271
0.303869 -0.167645 0.855267
0.0572489 -0.167597 0.722169
-0.0540875 -0.167442 0.659476
0.0474601 -0.167288 0.703222
0.0120272 -0.167135 0.678477
-0.187502 -0.166983 0.571681
0.0461395 -0.166907 0.6795
-0.27831 -0.166756 0.510245
-0.333742 -0.166639 0.474619
0.0426657 -0.166565 0.653825
0.0370235 -0.166417 0.643958
0.0243937 -0.166269 0.630593
0.0784665 -0.166123 0.650574
-0.0636077 -0.165977 0.572477
-0.252398 -0.165904 0.469098
-0.0198785 -0.165797 0.577317
-0.0214473 -0.165654 0.569452
-0.208817 -0.165583 0.466784
0.0720517 -0.165441 0.600132
-0.0715817 -0.165301 0.521223
-0.201637 -0.165161 0.449095
-0.232232 -0.165092 0.42482
-0.0330298 -0.164953 0.517315
0.0823149 -0.164885 0.566013
0.0705783 -0.164788 0.55193
-0.124483 -0.164653 0.447264
-0.273154 -0.164518 0.365785
-0.254701 -0.164451 0.366032
-0.121313 -0.164318 0.425572
-0.252435 -0.164186 0.352847
0.0269107 -0.164121 0.483541
-0.0814635 -0.16399 0.422178
0.0740039 -0.163861 0.492726
-0.197583 -0.163796 0.347952
-0.0660546 -0.163713 0.40528
-0.250666 -0.16365 0.303987
0.143819 -0.163523 0.494004
-0.129446 -0.163398 0.350134
-0.100847 -0.163336 0.355443
-0.181945 -0.163213 0.307641
-0.195915 -0.16309 0.293389
-0.247012 -0.16303 0.258845
-0.193783 -0.162909 0.278177
0.159554 -0.162789 0.447547
0.260037 -0.16273 0.488787
0.0527049 -0.162611 0.377804
0.00413545 -0.162553 0.344514
-0.179676 -0.162436 0.245273
-0.158916 -0.162321 0.248301
-0.16594 -0.162263 0.235775
-0.132555 -0.162199 0.243661
-0.150938 -0.162143 0.225444
-0.132028 -0.162031 0.227492
-0.33307 -0.16192 0.119548
-0.251758 -0.161865 0.151167
-0.170714 -0.161756 0.184241
0.0736188 -0.161702 0.297364
-0.18367 -0.161595 0.161248
-0.359712 -0.161541 0.0641765
-0.124414 -0.161436 0.174329
-0.215455 -0.161331 0.121292
-0.135101 -0.161279 0.152404
-0.189243 -0.161176 0.11779
0.0289755 -0.161125 0.217825
0.0138622 -0.161024 0.202697
0.087531 -0.160974 0.230449
0.0268949 -0.160875 0.192531
-0.408528 -0.160776 -0.0328016
-0.260702 -0.160728 0.0320112
-0.0242575 -0.160631 0.142581
-0.197592 -0.160583 0.0468031
-0.259542 -0.160489 0.0081454
-0.0344638 -0.160442 0.111562
-0.376871 -0.160349 -0.0673562
-0.238997 -0.160303 -0.00755303
-0.372839 -0.160212 -0.0822222
-0.186862 -0.160166 0.00162011
-0.441314 -0.160077 -0.133388
0.880757 -0.178472 1.55233
0.823379 -0.17665 1.55078
0.968072 -0.175585 1.63389
0.935997 -0.174718 1.62442
0.676605 -0.173929 1.4997
0.806724 -0.173248 1.56746
0.768295 -0.172662 1.54893
0.707849 -0.172075 1.51948
0.675495 -0.171585 1.50202
0.664211 -0.171027 1.49668
0.401735 -0.170605 1.36275
0.516768 -0.170143 1.41856
0.622148 -0.169737 1.46832
0.591132 -0.169345 1.44962
0.468123 -0.168955 1.38496
0.536169 -0.168577 1.41559
0.369812 -0.168199 1.32907
0.191095 -0.167822 1.2364
0.407247 -0.16753 1.33927
0.486787 -0.167155 1.3758
0.34628 -0.166865 1.30038
0.363114 -0.166576 1.30364
0.348909 -0.166289 1.29138
0.619746 -0.165925 1.42348
0.409466 -0.165725 1.31121
0.462214 -0.165363 1.33434
0.413298 -0.165166 1.30274
0.6472 -0.164886 1.41458
0.604404 -0.164612 1.38796
0.452517 -0.164338 1.30683
0.427988 -0.164066 1.28939
0.340211 -0.163881 1.23824
0.27722 -0.16361 1.20161
0.483003 -0.16334 1.29938
0.265416 -0.16307 1.18548
0.137552 -0.16289 1.11431
0.181654 -0.162712 1.12911
-0.122425 -0.162445 0.972005
0.0842494 -0.162178 1.07029
0.327243 -0.162003 1.18456
0.107626 -0.161739 1.06972
-0.052397 -0.161563 0.982531
0.175119 -0.161391 1.08905
0.107196 -0.16113 1.05009
0.433497 -0.160956 1.2061
0.328454 -0.160788 1.14633
0.128285 -0.160529 1.04127
0.022162 -0.160358 0.981089
0.0717657 -0.160187 0.998784
0.025401 -0.160023 0.968341
-0.055744 -0.159769 0.922821
0.0527506 -0.1596 0.969985
-0.110558 -0.15944 0.881045
0.0356981 -0.159272 0.947101
0.304001 -0.159106 1.07419
0.0177676 -0.158939 0.924019
0.0901033 -0.158784 0.952875
-0.0902606 -0.158619 0.855648
0.138331 -0.158373 0.965028
0.2556 -0.15821 1.01663
0.225934 -0.158141 0.992332
0.256702 -0.157898 1.0028
0.127865 -0.157737 0.931365
-0.077404 -0.157576 0.821716
0.190659 -0.157431 0.948351
-0.115478 -0.157272 0.788271
-0.0208212 -0.157114 0.828593
0.00945669 -0.156957 0.83673
-0.0657667 -0.1568 0.792121
-0.187468 -0.156739 0.721739
0.319381 -0.156583 0.968168
0.0536069 -0.156428 0.82829
-0.103267 -0.156274 0.742864
0.100499 -0.156121 0.837761
-0.0354983 -0.155987 0.762249
0.0294242 -0.155836 0.78772
-0.180526 -0.155685 0.675755
-0.0520565 -0.155535 0.733003
-0.208187 -0.155385 0.647951
-0.174377 -0.155311 0.655834
0.130118 -0.155185 0.800489
0.0435973 -0.155037 0.750238
0.15566 -0.154891 0.799279
-0.128094 -0.154745 0.650411
0.34159 -0.1546 0.878261
-0.11108 -0.154528 0.642929
-0.00918032 -0.154409 0.686191
-0.216675 -0.154267 0.575443
-0.00449258 -0.154125 0.674531
0.0769827 -0.154054 0.706283
-0.138991 -0.153913 0.591294
0.0161178 -0.153774 0.661843
-0.0837215 -0.153662 0.604127
-0.12973 -0.153593 0.572144
-0.136417 -0.153456 0.561781
-0.0585914 -0.153319 0.593669
-0.234736 -0.153183 0.498567
-0.0585353 -0.153116 0.577701
-0.192752 -0.152981 0.50356
-0.0881404 -0.152848 0.548827
-0.0144888 -0.152812 0.575801
-0.117487 -0.15268 0.517249
0.166167 -0.152549 0.652015
-0.194879 -0.152419 0.464425
-0.236536 -0.152354 0.434637
-0.188983 -0.152225 0.45134
0.124583 -0.152097 0.601041
-0.105455 -0.152033 0.477066
0.0315952 -0.151906 0.538501
-0.310258 -0.151815 0.359462
-0.391242 -0.151753 0.310009
-0.184832 -0.151629 0.406095
-0.263088 -0.151505 0.359837
-0.17688 -0.151444 0.393982
-0.186741 -0.151322 0.38191
-0.078675 -0.151202 0.428792
0.149693 -0.151141 0.534016
-0.00506743 -0.151022 0.449471
-0.0445136 -0.150904 0.422572
-0.144391 -0.150845 0.363671
0.0593871 -0.150728 0.45837
-0.0564508 -0.150708 0.390328
-0.229715 -0.150592 0.29648
-0.0524366 -0.150478 0.377889
-0.0194627 -0.150421 0.385401
-0.0771937 -0.150308 0.349289
-0.0929086 -0.150252 0.332455
-0.545404 -0.150141 0.0989428
-0.0706639 -0.150031 0.329034
-0.245279 -0.149976 0.232742
-0.207004 -0.149867 0.244582
-0.122395 -0.149813 0.277898
-0.214233 -0.149706 0.22466
-0.041561 -0.149599 0.303662
-0.159342 -0.149547 0.235774
0.053843 -0.149442 0.33501
-0.0994995 -0.14939 0.249336
-0.0896108 -0.149287 0.246901
0.00363275 -0.149235 0.284514
-0.299264 -0.149134 0.125663
0.000270968 -0.149033 0.268008
-0.242576 -0.148983 0.137564
-0.00783516 -0.148928 0.246094
-0.107754 -0.148879 0.187099
-0.271911 -0.148781 0.0975373
-0.207307 -0.148733 0.120795
0.152177 -0.148637 0.293027
-0.407236 -0.14859 0.00426821
-0.196214 -0.148496 0.102241
-0.151948 -0.148403 0.116814
0.00800011 -0.148357 0.187719
-0.32554 -0.148266 0.0133597
-0.110012 -0.14822 0.112044
-0.163967 -0.148131 0.077447
-0.262834 -0.148086 0.0189238
-0.460396 -0.147998 -0.0875084
-0.293394 -0.147954 -0.0131089
-0.0977385 -0.147868 0.0770354
-0.112652 -0.147825 0.0604659
-0.112118 -0.14774 0.0530159
-0.357979 -0.147657 -0.0776561
-0.388404 -0.147615 -0.102004
0.773813 -0.162148 1.52076
1.06935 -0.160991 1.68361
0.893961 -0.160197 1.60247
0.964352 -0.159475 1.64262
0.722488 -0.158851 1.52438
0.717681 -0.158226 1.52478
0.5276 -0.157775 1.4284
0.570757 -0.157224 1.45116
0.632523 -0.156787 1.48052
0.652711 -0.156338 1.48947
0.359557 -0.155914 1.34119
0.693658 -0.15554 1.50536
0.732145 -0.15518 1.52144
0.455551 -0.154821 1.38002
0.672511 -0.154474 1.48513
0.246934 -0.154127 1.26901
0.406423 -0.153781 1.34547
0.526095 -0.153502 1.40039
0.40617 -0.153167 1.33695
0.284459 -0.152891 1.2712
0.456887 -0.152625 1.35229
0.307468 -0.152361 1.27246
0.391206 -0.152105 1.30903
0.589401 -0.151772 1.40484
0.281304 -0.151511 1.24573
0.333775 -0.151257 1.26674
0.366136 -0.151004 1.27772
0.174788 -0.150819 1.17511
0.392878 -0.150568 1.27898
0.500051 -0.150322 1.32729
0.354197 -0.150072 1.24924
0.403491 -0.149822 1.26877
0.397939 -0.14965 1.2589
0.07065 -0.149405 1.09009
0.190532 -0.149236 1.14291
0.226989 -0.148992 1.15603
0.400476 -0.148826 1.23562
0.210019 -0.148583 1.13534
0.245171 -0.14842 1.14573
0.124647 -0.148178 1.08046
0.30731 -0.148017 1.16462
0.330589 -0.147856 1.16911
0.323617 -0.147616 1.16065
0.306681 -0.147458 1.145
0.111519 -0.147299 1.0403
0.165899 -0.147062 1.06254
0.042033 -0.146904 0.993509
0.222906 -0.14675 1.07676
0.209333 -0.146594 1.06289
-0.036515 -0.14636 0.935047
0.0459154 -0.14621 0.969058
0.441555 -0.146055 1.15982
0.257446 -0.145902 1.06071
0.159302 -0.145748 1.0046
-0.175685 -0.145602 0.82988
0.249688 -0.14545 1.03554
0.158137 -0.145223 0.984868
0.191798 -0.145072 0.994681
0.0878918 -0.144931 0.935467
-0.173616 -0.144781 0.797702
0.16079 -0.144633 0.957901
0.252231 -0.144484 0.996624
-0.255828 -0.144348 0.735296
-0.0123976 -0.144201 0.850017
0.111561 -0.144055 0.905008
0.011755 -0.143909 0.848121
-0.0156164 -0.143764 0.827456
-0.129679 -0.143705 0.760986
-0.202554 -0.143561 0.717573
-0.172718 -0.143418 0.725519
-0.00283362 -0.143276 0.803492
0.205829 -0.143134 0.900858
0.244563 -0.143008 0.912821
-0.0621018 -0.142868 0.75252
-0.0658592 -0.142728 0.743674
-0.157776 -0.142589 0.690749
0.0893166 -0.142451 0.807331
0.53407 -0.142314 1.02274
-0.189063 -0.142262 0.651653
-0.306844 -0.142126 0.585796
-0.0289555 -0.141991 0.717774
-0.0652196 -0.141856 0.692675
-0.0850764 -0.141722 0.675779
-0.189025 -0.141655 0.614819
-0.257826 -0.141542 0.572854
0.0148502 -0.14141 0.702217
-0.192837 -0.141279 0.591396
-0.0708661 -0.141214 0.643408
0.253476 -0.141083 0.798603
-0.0916256 -0.140954 0.619073
-0.349902 -0.140825 0.482953
-0.176527 -0.140784 0.559991
0.0286956 -0.140657 0.65561
-0.0563157 -0.14053 0.606107
-0.307501 -0.140405 0.473513
0.109594 -0.140342 0.673108
0.200816 -0.140218 0.711715
-0.438333 -0.140094 0.385131
-0.143175 -0.139971 0.525694
-0.069349 -0.139935 0.55287
-0.144869 -0.139814 0.50808
-0.0178021 -0.139693 0.564576
-0.212887 -0.139633 0.45809
-0.156265 -0.139514 0.479357
-0.118624 -0.139395 0.491126
-0.0560354 -0.139336 0.513481
0.18824 -0.139219 0.628559
0.0646618 -0.139102 0.559702
-0.0765792 -0.139045 0.480145
-0.0809646 -0.138958 0.469957
-0.0758805 -0.138844 0.465402
-0.352547 -0.138787 0.318127
-0.0493438 -0.138674 0.46262
-0.133111 -0.138562 0.413618
-0.121635 -0.138507 0.410413
-0.48527 -0.138396 0.221464
-0.449062 -0.138341 0.230626
-0.031581 -0.138232 0.432222
-0.166172 -0.138123 0.357769
-0.0547452 -0.138069 0.404538
-0.0407877 -0.137962 0.404345
-0.0665952 -0.137941 0.381438
-0.252493 -0.137835 0.281291
-0.0804131 -0.137731 0.360119
-0.292823 -0.137679 0.244957
-0.24768 -0.137576 0.260299
-0.168019 -0.137524 0.291169
0.131112 -0.137422 0.433487
-0.135588 -0.137321 0.292874
-0.186521 -0.137271 0.258439
0.151286 -0.137172 0.42006
-0.221255 -0.137122 0.224817
-0.28108 -0.137024 0.1876
-0.0735722 -0.136927 0.284033
-0.0699312 -0.136879 0.276871
-0.154122 -0.136783 0.227433
-0.208903 -0.136736 0.191054
-0.121977 -0.136641 0.22715
0.14715 -0.136594 0.352719
-0.129016 -0.136502 0.207245
-0.389576 -0.136455 0.0679633
-0.179934 -0.136364 0.165367
-0.205039 -0.136274 0.145379
-0.353864 -0.136229 0.0619504
-0.0510006 -0.13614 0.205919
-0.0733638 -0.136133 0.184413
-0.288881 -0.136045 0.0691539
0.0499732 -0.136002 0.229541
-0.28704 -0.135916 0.0535054
-0.0906627 -0.135874 0.142645
-0.398895 -0.135789 -0.0190308
-0.117242 -0.135747 0.112736
-0.0254495 -0.135665 0.151043
-0.0922845 -0.135624 0.108555
-0.156125 -0.135542 0.0690128
-0.254 -0.135502 0.0109939
-0.210601 -0.135422 0.0250392
-0.240182 -0.135383 0.00115513
-0.177394 -0.135304 0.0248618
0.00157753 -0.135227 0.106635
-0.321679 -0.135189 -0.0641091
0.981088 -0.147912 1.61117
1.09504 -0.146634 1.68913
0.983411 -0.145747 1.64421
0.961827 -0.145012 1.64043
0.849789 -0.144445 1.58708
0.413292 -0.143865 1.37195
0.836084 -0.143376 1.58413
0.815859 -0.142967 1.57276
0.379962 -0.142557 1.35361
0.562798 -0.14216 1.44358
0.525088 -0.141751 1.42365
0.704511 -0.141422 1.51018
0.654294 -0.141026 1.48379
0.397199 -0.140699 1.35214
0.528126 -0.140383 1.41425
0.530886 -0.140067 1.41232
0.483372 -0.139811 1.38367
0.505997 -0.139497 1.39174
0.408611 -0.139252 1.33792
0.198884 -0.138939 1.22987
0.459062 -0.138696 1.35488
0.700566 -0.138455 1.47055
0.364854 -0.138214 1.29763
0.441712 -0.13792 1.33254
0.358659 -0.13768 1.28601
0.17456 -0.137449 1.18875
0.331825 -0.137282 1.26039
0.304528 -0.137047 1.24174
0.269954 -0.136818 1.21929
0.127982 -0.136589 1.14317
0.267464 -0.136362 1.20779
0.393664 -0.136206 1.26374
0.0978508 -0.13598 1.11075
0.198415 -0.135754 1.15596
0.209272 -0.135598 1.15434
0.241275 -0.135377 1.16522
0.0945526 -0.135226 1.08472
0.263396 -0.135006 1.16406
0.265379 -0.134855 1.15798
0.165196 -0.134635 1.10286
0.279121 -0.134487 1.15269
-0.0877737 -0.134269 0.964256
-0.0439452 -0.134123 0.97906
0.262217 -0.133977 1.12502
0.04349 -0.13376 1.01072
0.0303284 -0.133617 0.997024
-0.120741 -0.133474 0.914402
0.0476293 -0.13333 0.991512
0.188105 -0.133117 1.05684
0.0890765 -0.132977 1.0002
0.0175515 -0.132836 0.957388
0.135405 -0.132695 1.00927
-0.101854 -0.132555 0.883611
0.124302 -0.132419 0.989547
0.0871154 -0.132279 0.963933
0.2098 -0.132072 1.0204
-0.0291534 -0.131934 0.893919
0.00596088 -0.13187 0.902174
-0.0306797 -0.131665 0.878986
-0.192338 -0.131529 0.791166
0.116599 -0.131393 0.93865
-0.112142 -0.131266 0.817076
0.113007 -0.131131 0.922671
0.244906 -0.130997 0.981646
-0.0144487 -0.130864 0.845
0.255339 -0.130732 0.97293
-0.0228739 -0.130674 0.824477
0.0754781 -0.130543 0.866694
0.0700293 -0.130412 0.857014
-0.28069 -0.130281 0.674702
-0.103991 -0.130152 0.756103
0.163036 -0.130033 0.882321
-0.107882 -0.129905 0.739911
0.0771427 -0.129777 0.825475
-0.0130285 -0.12965 0.773442
-0.12189 -0.129523 0.712066
-0.247678 -0.12946 0.64017
0.0943239 -0.129347 0.803809
0.109974 -0.129223 0.804688
-0.208357 -0.129098 0.638576
-0.180047 -0.128975 0.645785
-0.126674 -0.128852 0.665525
-0.370416 -0.128791 0.534679
0.118013 -0.128684 0.77145
-0.00471731 -0.128563 0.703133
-0.21006 -0.128443 0.593507
-0.290512 -0.128383 0.544319
0.260987 -0.128264 0.813116
-0.0926441 -0.128145 0.629345
0.0156148 -0.128027 0.676516
-0.346716 -0.127986 0.485817
-0.195665 -0.127869 0.554376
-0.213666 -0.127753 0.538403
0.131133 -0.127638 0.703827
-0.239775 -0.12758 0.509433
-0.151961 -0.127466 0.546361
-0.263146 -0.127353 0.483785
-0.00244354 -0.127296 0.605204
-0.0216383 -0.127204 0.587936
-0.109362 -0.127092 0.537071
-0.219806 -0.126982 0.474839
-0.15672 -0.126927 0.497452
-0.0767609 -0.126817 0.530416
-0.132018 -0.126708 0.495764
-0.302127 -0.126654 0.401784
-0.178922 -0.126547 0.456355
-0.366738 -0.12644 0.355408
-0.384774 -0.126409 0.336677
-0.0895122 -0.126303 0.47725
0.107344 -0.126251 0.566752
-0.0808046 -0.126147 0.46561
-0.141295 -0.126043 0.428286
-0.42092 -0.125991 0.279549
-0.238604 -0.125889 0.363617
-0.25304 -0.125788 0.349298
-0.248818 -0.125737 0.342483
-0.338439 -0.125637 0.290558
-0.331794 -0.125537 0.286754
-0.181667 -0.125488 0.35289
-0.532394 -0.125415 0.169459
-0.0420732 -0.125366 0.405685
-0.206837 -0.125269 0.316137
-0.206111 -0.125221 0.307563
-0.0957532 -0.125125 0.355559
0.0717776 -0.12503 0.432128
-0.302426 -0.124983 0.236083
-0.322541 -0.12489 0.218811
-0.320865 -0.124843 0.210703
-0.0861574 -0.124751 0.320822
-0.068687 -0.124659 0.322308
-0.115189 -0.124614 0.290103
-0.237454 -0.124524 0.221699
-0.0749176 -0.124479 0.294009
-0.128421 -0.12439 0.259965
-0.05554 -0.124346 0.287441
-0.132302 -0.124258 0.241745
-1.57294e-05 -0.124215 0.298918
0.123973 -0.124128 0.353574
0.000948013 -0.124043 0.284704
-0.204598 -0.124001 0.172949
-0.453685 -0.123916 0.0410229
0.0376277 -0.123875 0.277689
-0.208933 -0.123822 0.145856
0.0522481 -0.123781 0.267442
-0.391748 -0.1237 0.0379997
-0.332149 -0.123659 0.0587871
-0.210076 -0.123579 0.112351
-0.141658 -0.12354 0.137538
-0.119546 -0.123461 0.141093
-0.334789 -0.123422 0.0244409
-0.602524 -0.123345 -0.116958
-0.192208 -0.123307 0.0791585
-0.489115 -0.123231 -0.0768574
-0.217568 -0.123194 0.0498641
-0.138918 -0.123119 0.0815953
0.087624 -0.123082 0.185803
-0.114382 -0.123009 0.0771725
-0.223708 -0.122973 0.0134343
-0.0469431 -0.122902 0.094156
-0.0765758 -0.122831 0.0716539
-0.277823 -0.122796 -0.0380672
0.927041 -0.132287 1.59588
0.981649 -0.131343 1.63833
0.741536 -0.130684 1.52519
1.018 -0.130103 1.66816
0.615905 -0.129593 1.46989
0.842687 -0.129142 1.58436
0.730822 -0.128702 1.52929
0.495932 -0.128333 1.41065
0.696003 -0.127965 1.50955
0.53316 -0.127607 1.42675
0.717683 -0.127239 1.518
0.507782 -0.126944 1.40992
0.871685 -0.126649 1.58879
0.513759 -0.126364 1.40648
0.542378 -0.12607 1.41778
0.357417 -0.125786 1.32202
0.609668 -0.125565 1.44302
0.567716 -0.125273 1.41912
0.443932 -0.125062 1.35188
0.353778 -0.124781 1.30365
0.401967 -0.124562 1.32271
0.332002 -0.124344 1.28271
0.474766 -0.124135 1.34884
0.406619 -0.123919 1.30977
0.455531 -0.123711 1.32902
0.543625 -0.123497 1.3681
0.318174 -0.12329 1.25021
0.380758 -0.123084 1.27636
0.236444 -0.122878 1.19908
