ply
format ascii 1.0
comment Created by Open3D
element vertex 1718
property double x
property double y
property double z
end_header
-0.182024 0.126848 0.693459
-0.208573 0.126757 0.672351
-0.207253 0.126697 0.664214
-0.0294533 0.126612 0.745119
-0.239627 0.126551 0.631253
-0.144698 0.126473 0.670546
0.0465422 0.126412 0.757404
-0.156584 0.126352 0.647095
-0.092792 0.1263 0.669954
-0.0688849 0.126231 0.673457
-0.0572956 0.126171 0.670526
-0.227856 0.126108 0.5766
-0.0594797 0.126048 0.652076
-0.03788 0.125988 0.65418
-0.27094 0.125932 0.5288
-0.198584 0.125872 0.556295
-0.261237 0.125812 0.5163
-0.049829 0.125763 0.612944
-0.202085 0.125703 0.528159
-0.405415 0.125643 0.417852
-0.252725 0.125601 0.48492
-0.36478 0.125541 0.420261
-0.358673 0.125506 0.413821
-0.456666 0.125447 0.356201
-0.175731 0.125417 0.487006
-0.532036 0.125357 0.300254
-0.0269383 0.125297 0.544202
-0.16629 0.125268 0.464884
-0.206331 0.12521 0.436214
-0.22703 0.125154 0.417161
-0.200923 0.125094 0.421657
-0.228611 0.12507 0.397992
0.00220285 0.125011 0.504855
-0.264541 0.124959 0.362678
-0.189026 0.124929 0.390835
-0.239129 0.124879 0.356926
-0.0416272 0.124831 0.446763
-0.207166 0.124771 0.355485
-0.250042 0.124755 0.324001
-0.136901 0.124695 0.372075
-0.115268 0.124651 0.373869
-0.360661 0.124592 0.242692
-0.397185 0.124579 0.214268
-0.107275 0.12452 0.350753
-0.289237 0.124479 0.250639
-0.0731448 0.12442 0.35023
-0.41408 0.124391 0.170226
-0.19465 0.124352 0.270753
-0.278755 0.124294 0.220267
-0.0334547 0.124257 0.333671
-0.126219 0.124199 0.278869
-0.0829016 0.124169 0.291018
-0.233738 0.124135 0.206297
-0.43034 0.124076 0.0995954
-0.14057 0.124044 0.235118
-0.284694 0.123985 0.154667
-0.327829 0.123927 0.124721
0.0474469 0.123898 0.302881
0.0631148 0.123867 0.301294
-0.28276 0.123809 0.119996
-0.242435 0.123751 0.131807
-0.0311849 0.123722 0.227976
-0.0846385 0.123665 0.19288
-0.449179 0.123636 0.00116168
-0.315073 0.123579 0.0598901
-0.268395 0.123521 0.0749137
-0.253492 0.123495 0.0728165
0.0514349 0.123437 0.216972
-0.24364 0.12338 0.0611358
-0.200184 0.123322 0.0745736
-0.176031 0.123294 0.0772418
-0.110819 0.123236 0.101573
-0.289188 0.123179 0.00412256
-0.186794 0.123121 0.0470616
-0.388364 0.123064 -0.061973
-0.14444 0.123035 0.0506117
-0.370937 0.123013 -0.0722676
-0.213166 0.122956 -0.00162117
-0.457773 0.122899 -0.132156
0.0320209 0.143859 1.01611
-0.104972 0.143506 0.946292
-0.0361543 0.143258 0.97648
-0.19211 0.142908 0.89719
0.0467531 0.142735 1.01039
-0.0556866 0.14253 0.953868
-0.136505 0.142361 0.90718
-0.0796882 0.14216 0.930224
-0.022824 0.141995 0.952291
-0.096306 0.141834 0.909127
-0.177345 0.141642 0.863075
0.025141 0.141547 0.956029
-0.0895481 0.14142 0.891348
-0.0141905 0.141269 0.922388
-0.08907 0.141145 0.877564
-0.0625802 0.141001 0.884031
-0.0240554 0.140913 0.894878
-0.253513 0.140794 0.772686
-0.206936 0.140659 0.788982
-0.1121 0.140592 0.827433
-0.0152189 0.140462 0.868765
-0.14515 0.140383 0.795234
-0.0440268 0.140271 0.838184
-0.198885 0.140194 0.752133
-0.235916 0.140086 0.725952
-0.233214 0.140012 0.71862
-0.176518 0.139906 0.739243
-0.164335 0.139835 0.736585
-0.235236 0.139733 0.693345
-0.286598 0.139665 0.658844
-0.256723 0.139566 0.665922
-0.30354 0.1395 0.633681
-0.15809 0.139406 0.698411
-0.203084 0.13934 0.6671
-0.289048 0.139253 0.615946
-0.193338 0.139187 0.655005
-0.332621 0.139129 0.576312
-0.272177 0.139052 0.598088
-0.210084 0.138986 0.620358
-0.421704 0.13892 0.505789
-0.258464 0.138851 0.578769
-0.102023 0.138785 0.648245
-0.268022 0.138723 0.556406
-0.35778 0.138657 0.502796
-0.260221 0.138591 0.54286
-0.160513 0.138536 0.583667
-0.0285686 0.138471 0.640935
-0.0346853 0.138405 0.629188
-0.360574 0.138358 0.456984
-0.264467 0.138293 0.496359
-0.160895 0.138253 0.538671
-0.214921 0.138188 0.502989
-0.293512 0.138122 0.45504
-0.236451 0.138089 0.473905
0.067024 0.138024 0.617005
-0.14369 0.13796 0.502976
0.0719998 0.137927 0.601155
-0.0988833 0.137866 0.506994
-0.102688 0.137806 0.496317
-0.120335 0.137773 0.477844
-0.262742 0.137715 0.397817
-0.243515 0.13766 0.398551
-0.327848 0.137627 0.346751
-0.349104 0.137573 0.327192
-0.406054 0.137522 0.289731
-0.328902 0.137457 0.319749
-0.23169 0.137439 0.358254
-0.344932 0.137375 0.293088
-0.211896 0.137327 0.350514
-0.206079 0.137263 0.344893
-0.145519 0.137249 0.364959
-0.221712 0.137185 0.318345
-0.409506 0.137142 0.215247
-0.251791 0.137077 0.285603
-0.0162152 0.137068 0.39306
-0.237124 0.137004 0.274114
-0.126418 0.136965 0.320155
-0.166027 0.136901 0.291873
-0.0285192 0.136863 0.351259
-0.365284 0.136799 0.174412
-0.0799468 0.136768 0.307541
-0.171043 0.136732 0.25257
0.169866 0.136669 0.41458
0.150751 0.136636 0.395541
-0.238443 0.136572 0.192512
-0.217305 0.13654 0.193566
-0.18784 0.13651 0.19876
-0.17778 0.136446 0.195376
-0.247312 0.136383 0.152206
0.0664166 0.136354 0.299473
-0.11236 0.136291 0.201691
-0.170344 0.136228 0.164315
-0.240919 0.136233 0.11827
0.129479 0.13617 0.295091
-0.114764 0.136107 0.164602
-0.230217 0.136044 0.0985169
-0.0405513 0.135982 0.185001
-0.0349761 0.135958 0.178066
-0.171542 0.135895 0.101442
-0.195858 0.135864 0.0798403
-0.00162563 0.135801 0.16863
-0.134905 0.135739 0.0936733
0.0917239 0.135676 0.198679
-0.182 0.135614 0.0535161
-0.281091 0.135551 -0.00432118
-0.198147 0.135531 0.0273527
-0.00121397 0.135469 0.117531
-0.294617 0.135438 -0.0385704
-0.302524 0.135376 -0.0507974
-0.134647 0.135314 0.0248746
0.161579 0.157317 1.09363
0.273086 0.156855 1.14992
0.00591962 0.156506 1.01406
-0.180436 0.156123 0.919527
-0.187185 0.155933 0.9099
-0.107607 0.155634 0.946288
-0.33662 0.155449 0.825471
0.122193 0.155302 1.04759
-0.216399 0.15505 0.873777
-0.0276482 0.154907 0.960835
0.0366793 0.154732 0.986524
-0.173203 0.154561 0.875038
-0.122233 0.154422 0.893147
-0.134173 0.154258 0.880517
-0.116234 0.154159 0.88111
-0.0137667 0.153964 0.926501
-0.241866 0.153869 0.804014
0.0322787 0.153739 0.933589
-0.0555271 0.153591 0.882678
-0.370038 0.153519 0.716418
0.025627 0.153376 0.907128
0.0567357 0.153289 0.914098
-0.135704 0.153168 0.810236
-0.423304 0.153084 0.657797
-0.170987 0.152966 0.77626
-0.120039 0.152842 0.794208
0.105193 0.15277 0.897897
-0.178284 0.152652 0.748482
-0.235244 0.15258 0.711097
-0.225675 0.15247 0.708047
-0.244153 0.152398 0.689924
-0.164563 0.152295 0.721719
-0.0954771 0.152223 0.747396
-0.103837 0.152127 0.735044
-0.30254 0.152056 0.626844
-0.00466248 0.151984 0.766953
-0.372276 0.151921 0.574083
-0.193783 0.151836 0.654886
-0.376159 0.151765 0.554889
-0.204129 0.151688 0.63227
-0.331886 0.151617 0.559597
-0.187503 0.151545 0.623011
-0.132846 0.151476 0.641506
-0.0502927 0.151405 0.674019
-0.301536 0.151344 0.539362
-0.271526 0.151273 0.545616
-0.234026 0.151202 0.55563
-0.24129 0.151149 0.542752
-0.190829 0.151078 0.559258
-0.198842 0.151033 0.545795
-0.110277 0.150963 0.581362
-0.336013 0.150892 0.459796
-0.24609 0.150855 0.495086
-0.298924 0.150784 0.459987
-0.435527 0.150714 0.382994
0.0532954 0.150682 0.617631
-0.36122 0.150616 0.401576
-0.274576 0.150546 0.436245
-0.107382 0.150517 0.509961
-0.351624 0.150456 0.378941
-0.133755 0.150385 0.479243
-0.151143 0.150361 0.46056
-0.109219 0.150304 0.472518
-0.229407 0.150234 0.403811
0.0522183 0.150214 0.534525
-0.199784 0.150144 0.399924
-0.254439 0.150092 0.36349
-0.33123 0.150041 0.315932
-0.386042 0.149971 0.279948
-0.103907 0.149958 0.410748
-0.463815 0.149888 0.222228
-0.0343938 0.149842 0.42767
-0.265009 0.149807 0.302753
-0.107174 0.149763 0.372348
-0.231493 0.149722 0.30081
-0.239512 0.149652 0.288264
-0.153977 0.149613 0.321597
-0.288955 0.149544 0.245586
-0.101789 0.149509 0.32959
0.0496552 0.149472 0.395825
-0.112105 0.149436 0.305401
-0.0815886 0.149368 0.312159
-0.165498 0.149333 0.260644
-0.249955 0.1493 0.208817
0.0572627 0.149231 0.353946
-0.182913 0.149197 0.224312
-0.243142 0.149132 0.185622
-0.0846774 0.149064 0.256397
-0.309666 0.149035 0.134191
-0.160032 0.148967 0.200562
-0.00908813 0.148933 0.266513
-0.122123 0.148906 0.200228
-0.234409 0.148838 0.135655
-0.0934073 0.14877 0.197737
-0.166049 0.148746 0.15159
-0.367274 0.148678 0.0425668
-0.188485 0.148611 0.12356
0.0929816 0.148543 0.255902
-0.106301 0.148521 0.146374
-0.298567 0.148488 0.0407617
-0.330315 0.14842 0.0165101
-0.305871 0.148353 0.0203635
-0.071751 0.148285 0.129064
-0.162128 0.148218 0.0755239
-0.276493 0.148184 0.00889415
-0.0743458 0.148132 0.101116
-0.067887 0.148065 0.0960079
-0.166773 0.147998 0.0382352
-0.344862 0.147964 -0.0602378
0.00711494 0.147897 0.107435
-0.340023 0.14783 -0.0744421
0.108466 0.147763 0.141502
-0.00103584 0.170376 1.02471
-0.0555275 0.169789 0.999975
-0.186313 0.169458 0.931202
-0.350375 0.169168 0.844865
-0.1506 0.168842 0.941326
0.033687 0.16864 1.02715
-0.0669533 0.168401 0.9714
-0.143513 0.168205 0.926728
-0.282408 0.168012 0.850837
0.137149 0.167783 1.05504
-0.134906 0.16767 0.910697
0.0719936 0.167519 1.00676
-0.0341467 0.167268 0.948728
-0.292828 0.167161 0.810988
-0.234099 0.167016 0.83288
-0.0211871 0.166847 0.932473
-0.13865 0.166707 0.866208
-0.209686 0.166546 0.823666
-0.259702 0.166468 0.789615
-0.0976746 0.166313 0.863491
-0.338754 0.166219 0.73435
-0.114856 0.166087 0.838624
-0.332679 0.165996 0.721056
-0.275166 0.165868 0.742087
-0.0190091 0.165733 0.86263
-0.0897216 0.165649 0.818486
0.0736084 0.165528 0.892292
0.0852707 0.165447 0.889268
-0.228794 0.16533 0.724311
-0.108306 0.165253 0.775635
-0.298616 0.165177 0.671558
0.114623 0.165063 0.870195
-0.422087 0.164991 0.592842
-0.209959 0.164889 0.690646
-0.0163915 0.164813 0.778553
-0.191682 0.164719 0.682465
-0.327369 0.164643 0.605762
-0.149418 0.164566 0.685894
-0.188785 0.164482 0.65758
-0.154907 0.164405 0.665691
-0.181972 0.164329 0.643334
-0.395215 0.164253 0.527899
-0.391045 0.164185 0.52096
-0.373804 0.164109 0.520781
-0.166817 0.164032 0.61549
-0.0651537 0.163974 0.657089
-0.305136 0.163898 0.528326
-0.299425 0.163847 0.52174
-0.15938 0.163771 0.583002
-0.0534741 0.163695 0.627209
-0.376779 0.163654 0.455897
0.0589367 0.163579 0.665018
-0.0961454 0.163503 0.578756
-0.327249 0.163467 0.453425
-0.145967 0.163395 0.53525
-0.0886574 0.163357 0.554187
-0.0724598 0.163288 0.553423
-0.258664 0.163221 0.451404
-0.107494 0.163183 0.517288
0.0909554 0.163118 0.607548
-0.413927 0.163056 0.346088
-0.312299 0.162996 0.387829
-0.368648 0.162958 0.349973
-0.299888 0.162901 0.375229
-0.117058 0.162845 0.457466
-0.277611 0.162808 0.367522
0.0308732 0.162755 0.512534
-0.278806 0.162704 0.34841
-0.175898 0.162629 0.391248
-0.00642306 0.162581 0.466649
-0.173296 0.162543 0.37357
-0.255876 0.162497 0.32289
-0.181159 0.162453 0.350803
-0.32446 0.162379 0.270569
-0.398027 0.162374 0.22324
-0.255838 0.1623 0.285762
-0.378538 0.162261 0.21486
-0.133503 0.162187 0.328818
-0.0498011 0.16215 0.361063
-0.155505 0.162113 0.29861
-0.247757 0.162078 0.242825
-0.185118 0.162004 0.265608
-0.124464 0.161972 0.286221
-0.0662448 0.161898 0.306808
-0.311971 0.161868 0.174176
-0.178263 0.161794 0.232519
-0.399342 0.161766 0.112156
-0.2126 0.16173 0.195962
0.0185998 0.161693 0.302001
-0.373132 0.161631 0.097327
-0.275696 0.161557 0.137563
-0.0275228 0.161534 0.251718
-0.295619 0.161461 0.109198
-0.18952 0.161388 0.153785
-0.216831 0.161367 0.130143
0.104952 0.161294 0.282581
0.0713153 0.161222 0.257319
-0.13389 0.161185 0.145202
-0.161424 0.161167 0.121392
-0.271452 0.161094 0.0579491
-0.137925 0.161022 0.116293
0.0427719 0.160949 0.198231
-0.160229 0.160934 0.0866281
-0.179614 0.160861 0.0685314
-0.361297 0.160789 -0.0307055
-0.292591 0.160717 -0.0047401
-0.288461 0.160645 -0.0110543
-0.206992 0.160573 0.0213092
-0.281014 0.160501 -0.0240651
-0.121554 0.160465 0.0462135
-0.257852 0.160393 -0.0302848
-0.236347 0.160322 -0.0278737
0.106055 0.16025 0.134993
-0.1231 0.18392 0.976617
-0.109523 0.1832 0.987735
-0.159317 0.182843 0.959401
-0.304258 0.182438 0.884569
-0.0939316 0.182175 0.984331
-0.193416 0.181867 0.930196
-0.121889 0.181609 0.96051
-0.0601063 0.181311 0.986867
-0.196502 0.181186 0.910368
-0.145698 0.180937 0.930195
-0.123897 0.180735 0.934541
-0.184589 0.180573 0.896764
-0.025827 0.180377 0.969486
-0.233072 0.180219 0.858394
-0.288077 0.180031 0.824107
-0.478061 0.179848 0.722231
-0.298585 0.179738 0.803469
-0.152397 0.179588 0.868976
-0.221277 0.179482 0.825995
-0.102527 0.179335 0.877745
0.0995159 0.179171 0.971555
-0.339482 0.179071 0.743408
-0.0515651 0.178931 0.879635
-0.157837 0.178793 0.818742
-0.0638725 0.178699 0.856992
-0.0327371 0.178556 0.864943
-0.114343 0.178474 0.815149
0.0308083 0.178339 0.879958
-0.124335 0.178254 0.793481
-0.303937 0.17813 0.695692
-0.157544 0.178048 0.759939
-0.15983 0.177929 0.750707
-0.00317606 0.177847 0.820104
-0.33902 0.177737 0.643921
-0.228831 0.177655 0.690104
-0.179378 0.177554 0.706389
-0.309004 0.177472 0.632682
0.0764437 0.17738 0.816779
-0.0557155 0.177298 0.741821
-0.019453 0.177214 0.751134
-0.317018 0.177133 0.593488
-0.371637 0.177052 0.557332
-0.221736 0.176977 0.623264
-0.219113 0.176896 0.615743
-0.161741 0.176831 0.635208
-0.238253 0.17675 0.588132
-0.295617 0.176669 0.550646
-0.246296 0.176613 0.565875
-0.158051 0.176532 0.601204
-0.322561 0.176486 0.509307
-0.221872 0.176405 0.550868
-0.356451 0.176365 0.473812
-0.303106 0.176285 0.491699
-0.273046 0.176207 0.497893
-0.405308 0.176167 0.422014
-0.155911 0.176092 0.53783
-0.203945 0.176019 0.504879
-0.0818418 0.175989 0.555936
-0.318994 0.175922 0.428319
-0.254263 0.175841 0.451972
-0.511178 0.175776 0.314426
-0.0728236 0.175753 0.523448
-0.0212891 0.175693 0.540018
-0.160581 0.175613 0.461684
-0.127586 0.175595 0.467918
-0.37594 0.17554 0.334439
-0.253035 0.17546 0.387223
-0.345521 0.175407 0.331628
-0.222581 0.175396 0.382669
-0.375343 0.175317 0.297636
-0.195107 0.175269 0.378296
-0.318775 0.175223 0.30695
-0.201087 0.175144 0.357161
-0.107019 0.17514 0.3936
-0.0408476 0.175061 0.418065
-0.403413 0.17502 0.227166
-0.305453 0.17498 0.266502
0.0664501 0.174902 0.443822
-0.0416375 0.174906 0.379019
-0.220081 0.174827 0.281203
-0.301592 0.174793 0.230673
-0.177807 0.174753 0.282941
-0.163753 0.174683 0.281184
-0.296952 0.174643 0.204971
-0.117359 0.174614 0.284888
-0.119046 0.174575 0.274437
-0.356576 0.174509 0.146789
-0.336769 0.17447 0.147095
-0.389884 0.174406 0.111605
-0.093369 0.174367 0.250273
-0.155401 0.174306 0.210275
-0.0782065 0.174228 0.240348
-0.0100158 0.174208 0.264354
-0.0816844 0.174169 0.218947
0.0695957 0.174091 0.286081
-0.126369 0.174073 0.177958
-0.00877555 0.173996 0.228257
0.136817 0.173957 0.291501
-0.16062 0.173903 0.133655
-0.0840095 0.173826 0.163481
-0.195792 0.173748 0.0991193
-0.0291764 0.173735 0.172182
-0.189083 0.173658 0.0837654
-0.0553517 0.173581 0.142177
-0.272774 0.173504 0.0250207
-0.108866 0.173466 0.0974627
-0.162531 0.173417 0.061403
-0.174821 0.173341 0.0468271
-0.00554476 0.173264 0.123043
-0.316675 0.173226 -0.0420162
-0.212763 0.173149 0.00153143
-0.0318685 0.173073 0.0835777
-0.146581 0.172996 0.0178284
-0.207642 0.17292 -0.021088
-0.166055 0.172844 -0.0086733
0.129154 0.196757 1.11999
-0.297449 0.196375 0.903164
-0.269909 0.195841 0.916511
-0.103619 0.195461 0.996178
0.0783764 0.19513 1.08277
-0.174071 0.194852 0.95107
-0.0252989 0.19453 1.02093
-0.326734 0.194395 0.861897
-0.398688 0.194127 0.820337
-0.0609378 0.193908 0.982669
-0.210913 0.193693 0.901072
-0.0426858 0.193438 0.97941
-0.212153 0.193313 0.886254
-0.0301645 0.193145 0.969728
-0.187138 0.192946 0.884393
-0.183614 0.192783 0.878582
-0.198649 0.192593 0.864066
0.0461393 0.192478 0.977898
-0.18089 0.192321 0.856725
-0.190207 0.192145 0.844841
-0.0993704 0.192037 0.881592
-0.379966 0.191888 0.73353
-0.35506 0.191784 0.737262
-0.135058 0.191639 0.839447
-0.35358 0.191485 0.72256
-0.277243 0.19139 0.751876
-0.129596 0.191253 0.81775
-0.172737 0.191161 0.787259
-0.279109 0.191029 0.726058
-0.167311 0.190941 0.772972
-0.409284 0.190813 0.643893
-0.321045 0.190726 0.679047
-0.0788613 0.190607 0.791876
-0.202066 0.19052 0.721327
-0.250371 0.190443 0.688031
-0.127742 0.190324 0.741119
-0.276448 0.190251 0.657538
-0.13868 0.190137 0.718112
-0.0747319 0.190069 0.740771
-0.204895 0.189983 0.666779
-0.136246 0.189896 0.692211
-0.538054 0.18981 0.482431
-0.1177 0.189706 0.684132
-0.324914 0.189647 0.571029
-0.158239 0.189581 0.645053
-0.129238 0.189495 0.650703
-0.401948 0.189439 0.504828
-0.451925 0.189353 0.471002
-0.104877 0.189267 0.635703
-0.145146 0.189179 0.606812
-0.192915 0.189136 0.573136
-0.226058 0.189052 0.547707
-0.0683728 0.189009 0.616771
-0.101628 0.188929 0.591241
-0.211386 0.18885 0.527408
-0.113678 0.188818 0.566264
-0.371454 0.188745 0.428317
-0.188209 0.188702 0.510185
-0.301308 0.188632 0.444529
-0.24279 0.188564 0.464629
-0.272709 0.188499 0.440457
-0.141063 0.188456 0.496546
-0.153801 0.188394 0.480916
-0.140334 0.188334 0.478335
-0.163148 0.188319 0.456555
-0.113516 0.188234 0.47266
-0.0321451 0.18818 0.503927
-0.192113 0.188127 0.41447
-0.530485 0.188085 0.235582
-0.210631 0.188036 0.385986
-0.0424881 0.187988 0.460481
-0.201013 0.187944 0.371588
-0.0197696 0.187902 0.452522
-0.177077 0.187859 0.364187
-0.297038 0.187817 0.294527
-0.154177 0.187736 0.357246
-0.0712083 0.187699 0.388946
-0.0133698 0.187657 0.408199
-0.216568 0.18758 0.297789
-0.171972 0.187589 0.309173
-0.162886 0.187506 0.305088
-0.235375 0.187476 0.258905
-0.205842 0.187434 0.264024
-0.251235 0.187365 0.23237
-0.28836 0.187339 0.203767
-0.466878 0.187298 0.104873
-0.124745 0.187233 0.266884
-0.272935 0.187192 0.183162
-0.0812081 0.187171 0.268886
-0.342132 0.187129 0.128804
-0.254313 0.187069 0.163565
-0.0767403 0.187028 0.242739
-0.230759 0.186971 0.156535
-0.0290583 0.186929 0.247781
-0.0556213 0.186874 0.225259
-0.088544 0.186792 0.200249
-0.017105 0.18678 0.225635
-0.147569 0.186698 0.151864
-0.272656 0.186657 0.0797387
-0.0129255 0.186606 0.200274
-0.101021 0.186524 0.147705
-0.307087 0.186483 0.0351038
-0.0151169 0.186435 0.171715
0.00683802 0.186353 0.174188
-0.0418552 0.186272 0.141345
0.090664 0.186307 0.19607
-0.0668834 0.186226 0.108805
-0.327762 0.186145 -0.030117
0.0216018 0.186064 0.13609
-0.0774485 0.185983 0.0780985
-0.0891392 0.185902 0.0637946
-0.16466 0.18582 0.0175833
0.0772576 0.185819 0.128009
-0.320994 0.185738 -0.0795632
-0.118734 0.185657 0.0131282
-0.0871085 0.185577 0.0205094
-0.175534 0.210932 0.970292
-0.0992107 0.20991 1.01633
-0.113131 0.209189 1.01172
0.111632 0.208887 1.11863
0.0317852 0.208428 1.07623
-0.149578 0.208178 0.97916
-0.0938207 0.207784 1.0034
-0.185768 0.207639 0.949093
-0.112026 0.207352 0.98037
0.162067 0.207022 1.11267
-0.295201 0.206883 0.87565
-0.191585 0.206609 0.92169
-0.173783 0.206387 0.923848
-0.0632209 0.206255 0.970669
-0.30573 0.205996 0.843447
-0.159102 0.205868 0.908244
-0.130508 0.205696 0.914914
-0.140709 0.205496 0.902746
-0.0392928 0.205376 0.944849
-0.24353 0.205211 0.835015
-0.372349 0.205026 0.763307
-0.241228 0.204913 0.820154
-0.0888592 0.204756 0.888515
-0.24301 0.204647 0.802671
-0.17566 0.204495 0.82847
-0.0680972 0.204334 0.874545
-0.631293 0.204242 0.58389
-0.0256756 0.20409 0.878842
-0.393223 0.203995 0.686097
-0.277675 0.203856 0.735793
-0.0923973 0.203764 0.819418
-0.194348 0.203631 0.760263
-0.243524 0.203539 0.726681
-0.271807 0.203416 0.704188
-0.191364 0.203324 0.735433
-0.232934 0.203211 0.706118
-0.249181 0.203119 0.689036
-0.310487 0.203016 0.649668
-0.208212 0.202924 0.691863
-0.265019 0.202831 0.654553
-0.301994 0.20274 0.627139
-0.338484 0.202657 0.599792
-0.13981 0.202566 0.690217
-0.37242 0.202494 0.564609
-0.215471 0.202403 0.634185
-0.385643 0.202312 0.540216
-0.153861 0.202251 0.646596
-0.0240531 0.20216 0.70263
-0.311003 0.202109 0.549434
-0.34639 0.202019 0.522882
-0.0986486 0.201973 0.636936
-0.0453859 0.201884 0.654693
-0.203383 0.201797 0.56677
-0.179033 0.201714 0.56997
-0.192086 0.201678 0.553441
-0.127527 0.2016 0.576642
-0.250158 0.201555 0.505542
-0.0338675 0.201479 0.604563
-0.287767 0.201407 0.468436
-0.129827 0.201382 0.537193
-0.180272 0.201315 0.502688
-0.147066 0.201251 0.509956
-0.182051 0.201206 0.482706
-0.353448 0.201144 0.387624
-0.141864 0.201085 0.483979
-0.198158 0.201029 0.446342
-0.284234 0.200984 0.393565
-0.178674 0.20093 0.436806
-0.297192 0.200879 0.367955
-0.262079 0.200831 0.375867
-0.106488 0.200787 0.443939
-0.268406 0.200741 0.353285
-0.116234 0.200698 0.419625
-0.157039 0.200653 0.38951
-0.329296 0.200613 0.293585
-0.120249 0.20053 0.389265
-0.0323769 0.200539 0.422295
-0.026462 0.200495 0.415554
-0.226767 0.200418 0.306461
0.0307643 0.200387 0.425227
0.0198913 0.200343 0.410104
-0.209507 0.200271 0.28637
-0.254206 0.200289 0.252908
-7.39037e-05 0.200245 0.370296
-0.0442236 0.200177 0.339092
-0.145511 0.200156 0.278254
-0.0388833 0.200112 0.321901
-0.132512 0.20005 0.265865
-0.27414 0.200033 0.184763
-0.20599 0.199945 0.210205
-0.184703 0.199931 0.210514
-0.182499 0.199887 0.201967
0.122555 0.199831 0.345142
-0.356183 0.199864 0.0943215
-0.0392921 0.199777 0.244155
-0.21888 0.199734 0.144726
-0.276941 0.199682 0.10626
-0.262374 0.199639 0.103916
-0.0526045 0.19959 0.199326
-0.0262581 0.199546 0.202879
0.0192094 0.199499 0.216097
-0.194163 0.199456 0.0997983
-0.0789165 0.19941 0.147867
0.00901411 0.199324 0.183267
-0.295017 0.199324 0.020617
-0.112278 0.199238 0.10343
-0.143034 0.199152 0.0795039
0.0410057 0.199154 0.160849
-0.17601 0.199068 0.0438001
-0.0205543 0.198983 0.112995
-0.266444 0.198897 -0.0184735
0.0892979 0.198854 0.149829
-0.111877 0.198816 0.0395749
0.086697 0.198731 0.130351
-0.20763 0.198646 -0.0253152
-0.326933 0.198561 -0.0934625
0.0514966 0.198476 0.087264
-0.126079 0.198391 -0.0100052
-0.217752 0.223559 0.97019
0.0466109 0.222794 1.10459
0.00492343 0.222411 1.07931
-0.224056 0.22187 0.96321
0.0810436 0.221602 1.10936
0.0171699 0.22118 1.0738
-0.260075 0.220919 0.928725
-0.0812792 0.220612 1.01251
-0.440056 0.220257 0.8284
-0.0495362 0.220109 1.01527
-0.396617 0.219815 0.835959
-0.247671 0.219576 0.903711
-0.165979 0.219385 0.936985
-0.3282 0.219155 0.849034
-0.145278 0.219018 0.931982
-0.349046 0.218798 0.82312
0.0142746 0.218617 0.997099
-0.187793 0.218408 0.888928
-0.14906 0.218233 0.900545
-0.243953 0.218109 0.844427
-0.330961 0.217938 0.793131
-0.0719861 0.217749 0.91518
-0.331251 0.217633 0.776762
-0.223155 0.217471 0.822902
-0.17535 0.21736 0.837959
-0.0478043 0.217203 0.893767
-0.0225561 0.217096 0.897481
0.0984774 0.216939 0.950058
-0.148337 0.21684 0.817629
0.0870548 0.216694 0.927191
-0.0393841 0.216598 0.85492
-0.20787 0.216455 0.762515
-0.169164 0.216364 0.77274
-0.180391 0.216227 0.758889
0.0132333 0.21614 0.846493
-0.390009 0.216008 0.636556
-0.299284 0.215928 0.672626
-0.282441 0.215801 0.672649
-0.227549 0.215726 0.690716
-0.227787 0.215631 0.681599
-0.506325 0.215535 0.533374
-0.197176 0.215452 0.678754
0.012011 0.215356 0.774405
-0.257443 0.215283 0.630283
-0.378429 0.215188 0.560861
-0.32906 0.215126 0.575945
-0.274985 0.215031 0.594067
-0.141928 0.214935 0.651695
-0.018634 0.214885 0.703538
-0.142082 0.21479 0.632915
-0.352242 0.214698 0.518888
-0.16902 0.214656 0.600542
-0.282788 0.21457 0.534609
-0.192954 0.214523 0.569706
-0.130783 0.214439 0.591698
-0.119494 0.214359 0.588198
-0.304975 0.214281 0.486262
-0.182701 0.214254 0.537183
-0.283813 0.214183 0.477327
-0.1018 0.214135 0.558542
-0.0129934 0.214066 0.593598
-0.278805 0.214 0.451293
-0.0783733 0.213937 0.542057
-0.0711341 0.213924 0.535196
-0.0228454 0.213867 0.549783
-0.326468 0.213812 0.388362
-0.524775 0.213765 0.279444
-0.247984 0.213713 0.408182
-0.273345 0.213664 0.385792
-0.122804 0.213618 0.451301
-0.122766 0.213571 0.441571
-0.163393 0.213527 0.411448
-0.0408812 0.213486 0.462842
-0.349917 0.213447 0.298412
-0.308815 0.213401 0.309229
-0.130533 0.213365 0.388409
0.1497 0.213332 0.518515
-0.289974 0.213301 0.288617
-0.103285 0.213254 0.37224
0.0260913 0.213226 0.42682
-0.19577 0.213154 0.306732
-0.132886 0.21313 0.327971
-0.200333 0.213109 0.283996
-0.138955 0.213063 0.304978
-0.0954752 0.213044 0.316422
0.00885012 0.213027 0.358242
-0.349402 0.212981 0.169418
-0.0712698 0.212967 0.298098
-0.21875 0.212908 0.214936
-0.031313 0.212898 0.298181
-0.0990221 0.212852 0.254639
0.12745 0.212798 0.358372
-0.179485 0.212792 0.194349
-0.17059 0.212788 0.188201
-0.0311187 0.212742 0.248259
-0.0910869 0.212694 0.208657
-0.0858435 0.212693 0.200606
0.0091618 0.212648 0.238439
-0.109555 0.212603 0.169392
0.0272761 0.212558 0.228145
-0.125513 0.212515 0.142029
-0.0726935 0.21252 0.157661
-0.107581 0.212474 0.130563
0.0710961 0.212435 0.210116
-0.125102 0.21239 0.102368
-0.206762 0.212352 0.0517239
-0.121269 0.212307 0.0848286
0.104244 0.212271 0.187742
0.00421013 0.212181 0.129122
0.0365556 0.212192 0.134393
0.00837609 0.212102 0.111707
0.00138662 0.212012 0.0996243
-0.487278 0.212024 -0.155637
0.0182807 0.211935 0.0885609
0.00984476 0.211846 0.0757694
-0.261945 0.211757 -0.0686917
-0.0488381 0.211667 0.0293029
-0.0681403 0.211578 0.0111001
0.0584311 0.211489 0.0658411
-0.231055 0.236747 0.974151
-0.0507848 0.235937 1.06648
-0.0719586 0.235362 1.05424
-0.189005 0.23496 0.991238
-0.301709 0.234512 0.931231
-0.248124 0.234233 0.95156
-0.286202 0.233906 0.926892
-0.0353381 0.233527 1.04762
-0.134536 0.233368 0.989611
-0.355417 0.233055 0.873403
-0.0875907 0.232799 1.00061
-0.146889 0.232596 0.963375
-0.0978317 0.232348 0.98109
0.142702 0.232108 1.09445
-0.178409 0.231964 0.925346
-0.118295 0.231771 0.947716
-0.0172958 0.231545 0.991121
-0.225358 0.231358 0.879339
0.0286005 0.231144 0.999055
0.184596 0.231015 1.06834
-0.32048 0.230837 0.807948
-0.047033 0.23064 0.937156
-0.27939 0.23052 0.812144
-0.18815 0.230351 0.849796
-0.378873 0.230235 0.74554
-0.1913 0.230072 0.8313
-0.160815 0.229904 0.838596
-0.369779 0.229799 0.725077
-0.209011 0.229645 0.797292
-0.159641 0.229544 0.812897
-0.3717 0.229397 0.698597
-0.282577 0.229296 0.734099
-0.129195 0.22916 0.802348
-0.140919 0.229059 0.787445
-0.20913 0.228935 0.744719
-0.380103 0.228833 0.65021
0.0136092 0.22875 0.837719
-0.369829 0.228619 0.637536
-0.187763 0.228542 0.719134
-0.449455 0.228417 0.579738
0.00470721 0.228346 0.797294
-0.0834781 0.228226 0.744561
-0.243171 0.228161 0.655096
-0.336131 0.228048 0.599884
-0.37188 0.227982 0.572416
-0.173789 0.227881 0.662513
-0.408641 0.227827 0.535287
-0.181174 0.227727 0.640083
0.0644604 0.227677 0.753035
-0.316373 0.227579 0.553653
-0.325184 0.227535 0.539286
-0.0988379 0.227443 0.643393
-0.216365 0.227355 0.575515
-0.141206 0.227269 0.603928
-0.108625 0.227237 0.610051
-0.346648 0.227158 0.481772
-0.0676743 0.227131 0.610986
0.0116888 0.227058 0.641296
-0.24927 0.226987 0.501394
-0.28194 0.226938 0.475244
-0.0513746 0.226871 0.581057
0.0644367 0.226806 0.629441
0.0181756 0.226745 0.596738
-0.285957 0.226736 0.434085
-0.251878 0.226681 0.441448
-0.193692 0.226628 0.460814
-0.175163 0.226579 0.460289
-0.412586 0.226529 0.331803
0.00670443 0.226482 0.531622
-0.103311 0.226438 0.466737
-0.120294 0.226397 0.448319
0.10682 0.226407 0.550926
-0.144345 0.226309 0.416549
-0.247921 0.226273 0.354738
-0.0162118 0.22624 0.460519
-0.389847 0.226209 0.26358
-0.190103 0.22623 0.352304
0.0655115 0.226181 0.470355
-0.0115949 0.226156 0.421587
-0.384769 0.226132 0.224737
-0.327045 0.226063 0.244276
-0.161759 0.226044 0.316567
0.181853 0.226028 0.477975
0.0790685 0.226014 0.416142
-0.237234 0.22605 0.246519
-0.273975 0.225954 0.219402
-0.10831 0.225944 0.29171
-0.218935 0.225937 0.225833
-0.151599 0.225931 0.248896
-0.194184 0.225927 0.21696
-0.175922 0.225925 0.21541
0.208223 0.225877 0.397758
-0.119819 0.225877 0.22302
-0.147925 0.225878 0.198215
0.074233 0.225881 0.298508
-0.160752 0.225886 0.170196
-0.287404 0.225892 0.0960204
-0.0712815 0.225852 0.194205
-0.123052 0.225861 0.157412
0.0901407 0.225919 0.252067
-0.312334 0.22593 0.0398684
-0.290179 0.225942 0.0399597
-0.00458957 0.225956 0.171745
-0.178554 0.226032 0.0724006
0.00177969 0.226095 0.150489
-0.103526 0.226223 0.0843623
-0.257045 0.25073 0.970722
-0.11284 0.249635 1.04863
-0.114122 0.249028 1.04627
-0.0637366 0.248476 1.06892
-0.131597 0.247999 1.03132
-0.00483331 0.247582 1.09014
-0.158506 0.247289 1.0068
-0.129936 0.246947 1.0154
-0.0596329 0.246663 1.04397
-0.538139 0.24633 0.798947
-0.204783 0.246056 0.958935
-0.0761475 0.245787 1.01649
-0.23005 0.245575 0.931904
-0.11277 0.245317 0.983669
-0.100981 0.245066 0.982597
-0.260026 0.244863 0.89535
-0.216893 0.244624 0.909803
-0.139528 0.24448 0.939826
-0.341148 0.244286 0.831209
0.0069998 0.244063 0.997946
-0.421977 0.243929 0.774696
-0.190945 0.243744 0.882303
-0.117511 0.24354 0.911427
-0.390804 0.243416 0.765899
-0.235197 0.24324 0.835673
-0.0694769 0.243121 0.909589
-0.138623 0.242951 0.866929
0.029589 0.242778 0.943003
-0.213842 0.24267 0.812199
-0.219813 0.242511 0.800981
-0.216976 0.242405 0.79329
-0.28803 0.242255 0.749405
-0.131463 0.242148 0.8186
-0.0943857 0.24201 0.828607
-0.167587 0.241904 0.782937
-0.306343 0.241778 0.704848
-0.118738 0.241672 0.789598
-0.099185 0.241557 0.790478
-0.164761 0.241452 0.748655
-0.211609 0.241349 0.716144
0.0102674 0.241244 0.818062
-0.2217 0.241154 0.692796
-0.287048 0.241049 0.651117
-0.239161 0.240971 0.665578
-0.334829 0.240866 0.608752
-0.473423 0.240801 0.529769
-0.277957 0.240696 0.618523
-0.424577 0.240642 0.535345
-0.158013 0.240539 0.659636
-0.158776 0.240491 0.649285
-0.269805 0.240394 0.584681
-0.222406 0.240301 0.599242
-0.273631 0.240262 0.563508
0.0433254 0.240175 0.712747
-0.0293321 0.240123 0.666556
-0.14357 0.240039 0.600154
-0.221829 0.240011 0.550749
-0.0899061 0.239933 0.607324
0.143481 0.239859 0.714581
-0.203335 0.239787 0.531686
-0.314552 0.239719 0.466539
-0.214884 0.239706 0.505837
-0.169834 0.239644 0.518721
0.00743143 0.239637 0.596713
0.0606188 0.239581 0.613562
-0.305075 0.239528 0.420922
-0.0903969 0.239476 0.518444
-0.0911411 0.239426 0.508231
0.0395257 0.239379 0.563673
-0.239993 0.239335 0.413973
-0.212086 0.239294 0.417937
-0.231286 0.239256 0.398298
-0.118703 0.239271 0.443542
-0.172566 0.23922 0.406815
-0.38054 0.239187 0.292694
0.0975542 0.239157 0.52156
0.0396598 0.239129 0.482385
-0.153556 0.239104 0.375502
-0.029914 0.239132 0.426034
-0.0532938 0.239112 0.403978
-0.103436 0.239094 0.368497
-0.0296873 0.239078 0.394918
-0.284266 0.239065 0.257133
-0.302582 0.239054 0.237438
-0.129162 0.239045 0.313571
-0.231215 0.239039 0.251927
-0.298738 0.239034 0.20751
-0.126562 0.239081 0.281927
-0.327491 0.23908 0.170732
0.0537498 0.239081 0.350587
-0.191183 0.239084 0.217322
-0.166333 0.239143 0.217821
-0.0126532 0.2392 0.282784
-0.468427 0.239209 0.0439724
-0.228115 0.23933 0.150988
-0.238006 0.239342 0.135038
-0.0174741 0.239469 0.232018
0.146709 0.239715 0.298435
-0.0398858 0.263966 1.08998
0.156328 0.262811 1.19389
-0.178076 0.262041 1.02688
-0.134415 0.261667 1.04307
-0.305285 0.261092 0.955022
-0.171825 0.260781 1.01525
-0.12596 0.260293 1.03437
0.0304481 0.259991 1.10599
0.0630076 0.259694 1.11565
-0.152168 0.259346 1.00222
-0.0966412 0.259061 1.02324
-0.315686 0.258836 0.906064
-0.332641 0.25856 0.890735
-0.174311 0.258292 0.962963
-0.153054 0.258077 0.965859
-0.252073 0.25782 0.909273
-0.0418389 0.257667 1.00574
-0.210599 0.25746 0.913549
-0.125043 0.257221 0.949039
-0.082262 0.256991 0.963019
-0.147004 0.256852 0.92184
0.0329416 0.256659 1.00384
-0.281555 0.256525 0.837734
-0.0310633 0.256338 0.95496
-0.225631 0.256139 0.849866
-0.317364 0.256016 0.795006
-0.0410849 0.25584 0.924995
-0.168374 0.255723 0.852289
-0.0935597 0.255553 0.881482
-0.442653 0.255388 0.698658
-0.10667 0.255277 0.857511
-0.254429 0.255124 0.775186
-0.199122 0.255013 0.79372
-0.332141 0.254873 0.718591
-0.308883 0.254762 0.72112
-0.296154 0.254634 0.718683
-0.324371 0.254524 0.695492
-0.211904 0.254408 0.742738
-0.320104 0.254298 0.679573
-0.233231 0.254196 0.71383
-0.210024 0.254086 0.716384
-0.0287175 0.253996 0.797662
-0.072941 0.253886 0.766515
-0.61626 0.25381 0.48528
-0.259919 0.2537 0.654429
-0.262207 0.253637 0.643505
-0.198134 0.253527 0.666533
-0.307416 0.253473 0.601967
-0.317738 0.253368 0.587748
0.0858448 0.253266 0.780433
-0.148215 0.253222 0.653328
-0.14136 0.253127 0.64755
-0.217973 0.253089 0.599066
-0.0577766 0.253001 0.669859
-0.395776 0.25297 0.490579
-0.290163 0.252888 0.533979
-0.296602 0.252809 0.521303
-0.148596 0.252788 0.58487
-0.280776 0.252716 0.509222
-0.228414 0.252647 0.525795
0.0626604 0.252636 0.660741
-0.0155877 0.252573 0.611907
-0.101102 0.252514 0.559389
-0.315744 0.25246 0.442219
-0.0527192 0.252458 0.562987
-0.059877 0.252405 0.549551
-0.222622 0.252355 0.458271
-0.0408718 0.252308 0.539191
-0.273835 0.252265 0.412705
-0.153482 0.252277 0.461884
-0.170961 0.252239 0.443041
-0.365521 0.252204 0.335612
-0.118818 0.252172 0.448766
0.178139 0.252142 0.587002
0.0062627 0.252168 0.489824
-0.00747018 0.252144 0.472622
-0.0891599 0.252122 0.421398
-0.0781839 0.252103 0.416463
-0.256497 0.252139 0.315885
-0.311512 0.252125 0.277867
-0.0393621 0.252113 0.403392
-0.119009 0.252148 0.352158
-0.211812 0.252195 0.294128
-0.0595771 0.252191 0.359537
-0.135304 0.25219 0.310929
0.0427671 0.252243 0.388223
0.0210146 0.252301 0.365497
-0.0445287 0.252359 0.320881
-0.0113761 0.252479 0.324458
-0.053118 0.252489 0.292616
-0.161709 0.252617 0.225155
-0.174181 0.252869 0.203431
0.124482 0.253375 0.332514
-0.248374 0.276736 1.00301
0.14246 0.275791 1.20043
-0.1411 0.275318 1.05409
-0.0164136 0.274652 1.11463
-0.283458 0.274188 0.97651
-0.0773898 0.273804 1.07383
-0.0171631 0.273353 1.09924
-0.0573181 0.273038 1.07253
-0.0619926 0.272796 1.06256
-0.034953 0.272367 1.07114
-0.322343 0.272131 0.91977
-0.162009 0.271837 0.993106
-0.270004 0.271551 0.932198
0.0715888 0.271323 1.09525
-0.0965238 0.271049 1.00415
0.0502228 0.270783 1.07038
-0.375124 0.270624 0.849015
-0.029486 0.27041 1.01397
-0.298943 0.270163 0.871879
-0.427096 0.270014 0.799009
-0.0987449 0.26981 0.955221
-0.472956 0.269584 0.760505
-0.238945 0.269445 0.8686
-0.199362 0.269252 0.880311
-0.34734 0.269048 0.79843
-0.243541 0.268921 0.841286
-0.269159 0.26874 0.820264
-0.526578 0.268619 0.682443
-0.235801 0.268444 0.819552
-0.0394501 0.268329 0.908557
-0.0473025 0.268161 0.896269
-0.222844 0.268005 0.799964
-0.161137 0.267891 0.821669
0.0050171 0.267748 0.896036
-0.131464 0.267633 0.818666
-0.0741671 0.267504 0.838422
-0.110779 0.267389 0.811004
-0.0731993 0.267273 0.820715
-0.284004 0.267159 0.706217
-0.218623 0.267057 0.729636
-0.292299 0.266942 0.683718
-0.23863 0.266854 0.701084
-0.286473 0.266786 0.667373
-0.253873 0.266664 0.674728
-0.210587 0.266602 0.686501
-0.471218 0.266489 0.547131
-0.615786 0.266432 0.464907
-0.124284 0.266322 0.701579
-0.128693 0.266271 0.689344
-0.332441 0.266168 0.578294
-0.0587774 0.266068 0.705903
-0.0859547 0.266028 0.682132
-0.00483327 0.265935 0.71337
-0.2089 0.265901 0.601052
-0.227273 0.265815 0.582442
-0.137468 0.265733 0.617873
-0.00692364 0.26571 0.672706
-0.237098 0.265634 0.548046
-0.305957 0.265562 0.503993
-0.237522 0.265549 0.527618
-0.240799 0.265483 0.516255
-0.426823 0.265474 0.412601
0.0522853 0.265418 0.642277
0.0185559 0.265362 0.615539
-0.469783 0.265365 0.360522
-0.296458 0.265316 0.437211
-0.0621588 0.265269 0.54434
-0.119026 0.265226 0.505838
-0.0812227 0.265241 0.513692
-0.192394 0.265204 0.447941
0.0411424 0.265249 0.553164
-0.123376 0.265194 0.461047
-0.093527 0.265165 0.465667
-0.359789 0.265171 0.321644
-0.0994137 0.265206 0.440456
0.0446184 0.265188 0.501989
-0.218074 0.265173 0.360118
-0.070659 0.265215 0.42232
-0.220289 0.265204 0.336898
-0.0773981 0.265299 0.395918
0.0384085 0.265295 0.443097
0.132931 0.265402 0.477708
-0.296472 0.265405 0.252174
0.114879 0.265463 0.446039
-0.0793692 0.265585 0.335996
0.169083 0.265713 0.447184
0.049134 0.265846 0.374064
0.148672 0.266235 0.406191
-0.0454926 0.266693 0.290232
0.11549 0.290096 1.19378
0.112907 0.288961 1.19638
-0.0390461 0.288405 1.11663
0.148375 0.28777 1.20767
-0.177463 0.287366 1.03903
-0.499388 0.286886 0.873386
-0.303859 0.286552 0.964546
-0.195685 0.286161 1.01281
-0.0486003 0.285837 1.07966
-0.292782 0.285519 0.950821
-0.128011 0.285147 1.02722
-0.196669 0.284842 0.985998
0.216623 0.284546 1.18567
-0.130996 0.284371 1.00324
-0.033946 0.284027 1.04548
-0.183876 0.283858 0.961832
-0.0439281 0.283632 1.02394
-0.171674 0.283367 0.95275
-0.270699 0.283113 0.895803
-0.214097 0.282959 0.915265
-0.0081925 0.282749 1.01019
-0.0495412 0.282516 0.981831
-0.36595 0.282374 0.814668
-0.265807 0.282176 0.856598
-0.277043 0.28204 0.84196
-0.102678 0.281847 0.920944
-0.125187 0.28165 0.901563
-0.191169 0.281527 0.859409
-0.278067 0.281347 0.807617
-0.0656399 0.281228 0.90463
-0.332316 0.281057 0.762843
-0.230067 0.280947 0.804654
-0.17762 0.28078 0.82239
-0.157654 0.280677 0.822979
-0.357147 0.280518 0.714666
-0.226473 0.280421 0.770525
-0.0877518 0.280269 0.831239
-0.198093 0.28018 0.766503
-0.34602 0.280034 0.683808
-0.480267 0.279933 0.607319
-0.0531327 0.279814 0.811777
-0.236892 0.279727 0.710336
-0.223609 0.279659 0.707131
-0.0555587 0.279535 0.782145
-0.292737 0.279475 0.653613
-0.158035 0.279357 0.711887
-0.227638 0.2793 0.667098
-0.0250049 0.279188 0.759269
-0.134329 0.279092 0.695221
-0.121127 0.279033 0.691878
-0.0906438 0.278952 0.697526
-0.36105 0.278893 0.552388
-0.186087 0.278826 0.630068
-0.226871 0.278739 0.600182
-0.118756 0.278714 0.643796
-0.35495 0.278635 0.516104
-0.297788 0.278617 0.53414
-0.193956 0.278545 0.576362
-0.153097 0.278476 0.587048
-0.173921 0.278468 0.565938
-0.00241797 0.278406 0.641847
-0.198031 0.278348 0.534149
-0.331879 0.27835 0.456375
-0.272952 0.278298 0.47585
0.0814267 0.278307 0.642089
-0.473241 0.278262 0.354669
-0.40283 0.27822 0.379741
-0.247761 0.278238 0.446179
-0.329352 0.278202 0.395156
-0.0682377 0.278196 0.515003
-0.145001 0.278226 0.465337
-0.315322 0.278201 0.369766
-0.178624 0.278237 0.426739
-0.157633 0.278259 0.426079
-0.122779 0.278302 0.432
-0.0692988 0.278291 0.448117
-0.0182757 0.278339 0.46204
-0.237532 0.278441 0.339928
-0.135082 0.278439 0.380374
-0.135947 0.278555 0.367238
-0.122189 0.278615 0.362304
-0.234455 0.278742 0.293268
-0.25695 0.279 0.26693
0.0757096 0.279142 0.420077
-0.0285859 0.279686 0.348068
-0.0542702 0.303105 1.12241
-0.0140842 0.302283 1.14171
0.00505264 0.301401 1.15133
-0.20276 0.301039 1.04087
-0.119849 0.300469 1.07846
-0.097714 0.29997 1.0848
-0.0660008 0.299702 1.09298
-0.126565 0.299218 1.05784
0.0454606 0.298882 1.13711
-0.29539 0.298552 0.959885
0.126596 0.298296 1.16313
-0.092372 0.297852 1.04839
-0.0521688 0.297667 1.05986
-0.155651 0.297422 1.0003
-0.180781 0.297125 0.980617
-0.0978735 0.296837 1.01485
-0.205955 0.296604 0.952884
-0.0393594 0.296331 1.0288
-0.249921 0.296168 0.91469
-0.258226 0.295946 0.902517
-0.364971 0.295696 0.841514
0.081224 0.295544 1.05567
-0.0247899 0.295334 0.994532
-0.368944 0.295108 0.814549
-0.0555376 0.294969 0.962182
-0.0619608 0.294771 0.950708
-0.113956 0.294638 0.915574
-0.0318101 0.294445 0.948358
-0.345788 0.294322 0.782125
-0.277917 0.294137 0.807667
-0.30239 0.293965 0.786893
-0.40911 0.293841 0.724324
-0.259272 0.293683 0.790532
-0.232854 0.293578 0.794293
-0.169086 0.293415 0.817544
-0.464233 0.293317 0.660438
-0.176803 0.293162 0.795439
-0.243573 0.293072 0.752434
-0.407714 0.292924 0.661564
-0.128634 0.292841 0.791394
-0.18497 0.292748 0.753671
-0.203982 0.292616 0.735178
-0.0867935 0.292548 0.78387
-0.308983 0.292423 0.663695
-0.34931 0.292362 0.633545
-0.0897781 0.292245 0.754126
-0.386076 0.292184 0.596
-0.0647765 0.292083 0.747262
-0.349185 0.292022 0.595089
-0.124037 0.291936 0.69807
-0.131594 0.291838 0.684877
0.0814336 0.291804 0.781045
-0.244128 0.291713 0.608752
-0.339919 0.291687 0.550409
-0.0248618 0.291604 0.698327
-0.366285 0.291584 0.517066
-0.191926 0.291509 0.594535
-0.103691 0.291488 0.628128
-0.065033 0.291428 0.637522
-0.168683 0.291422 0.574967
0.073792 0.291362 0.686275
0.0112993 0.291369 0.644096
-0.0969628 0.291309 0.58004
-0.0354057 0.29127 0.600584
-0.27493 0.291286 0.469772
-0.0820926 0.291245 0.555993
0.0673908 0.291266 0.619588
-0.252405 0.291259 0.448978
-0.0983436 0.29129 0.514723
-0.141249 0.291264 0.482842
-0.287362 0.291301 0.398409
-0.0013982 0.291323 0.530233
-0.039305 0.291367 0.499774
0.0095493 0.291414 0.512652
0.0826707 0.291516 0.536819
0.0980711 0.291511 0.53376
-0.0224495 0.291627 0.46088
-0.245254 0.291751 0.336719
-0.00330645 0.291815 0.445844
-0.226233 0.292079 0.319415
0.235708 0.292358 0.535176
-0.121278 0.292844 0.338181
-0.0849602 0.316161 1.11981
-0.297742 0.315397 1.01147
0.13292 0.3147 1.22409
-0.25078 0.314257 1.02645
-0.203523 0.313574 1.04728
0.0163769 0.313207 1.1506
-0.335568 0.312779 0.968753
-0.0331887 0.312278 1.11502
-0.174398 0.312006 1.03668
-0.140268 0.311662 1.04692
-0.0976293 0.311325 1.06136
0.023123 0.310996 1.11477
-0.0917909 0.310738 1.04948
-0.0804165 0.310423 1.04808
-0.262873 0.310117 0.94967
-0.385321 0.309872 0.880517
-0.336881 0.309693 0.895976
-0.175079 0.309408 0.969482
0.0105027 0.309135 1.05476
-0.119846 0.308906 0.981504
-0.279829 0.308745 0.89259
-0.167248 0.308495 0.941107
-0.267967 0.30828 0.882554
0.00249609 0.308131 1.00874
-0.26494 0.307907 0.866959
-0.348334 0.307769 0.816108
-0.0117712 0.30757 0.97603
0.0547415 0.307375 1.0009
-0.215494 0.307246 0.856519
-0.0450255 0.307058 0.933295
-0.189804 0.306937 0.851571
0.00604721 0.306757 0.940966
-0.0665023 0.306643 0.895277
-0.221665 0.306491 0.808806
-0.412091 0.306353 0.704521
-0.0965524 0.306227 0.853076
-0.378269 0.306105 0.702958
-0.310728 0.305978 0.727531
-0.178708 0.305828 0.784675
-0.241071 0.305746 0.743727
-0.215873 0.305654 0.746678
-0.427353 0.305528 0.631773
-0.366669 0.305453 0.652267
-0.169989 0.305389 0.740601
-0.227751 0.305264 0.702573
-0.395615 0.305149 0.609351
-0.224374 0.305097 0.68482
-0.380666 0.304987 0.597337
-0.200956 0.304943 0.676941
-0.159239 0.304841 0.688366
-0.15938 0.304805 0.677944
-0.175768 0.30471 0.66022
-0.0868441 0.304682 0.694229
-0.320963 0.304595 0.567542
-0.442486 0.304558 0.496464
-0.421587 0.304496 0.496949
-0.109167 0.304473 0.642638
-0.291003 0.304406 0.541842
-0.150926 0.304403 0.601075
-0.234023 0.304343 0.549552
-0.0627523 0.304348 0.624282
-0.277472 0.304356 0.505968
-0.136528 0.304307 0.56632
-0.376837 0.304279 0.435731
-0.202571 0.304301 0.511716
-0.16443 0.304326 0.519591
-0.0282362 0.304293 0.577334
-0.194576 0.304359 0.482375
0.0398908 0.304396 0.588229
-0.228743 0.304375 0.443381
-0.348479 0.304465 0.371374
0.00689048 0.304513 0.537508
-0.0856422 0.304618 0.478858
-0.104404 0.304733 0.456942
-0.0686123 0.304857 0.462158
-0.145657 0.304922 0.411817
-0.162858 0.305059 0.390334
0.0156327 0.305338 0.464563
0.0323255 0.305773 0.455552
0.0294803 0.331136 1.17867
0.0555692 0.329534 1.19901
-0.323185 0.328573 1.00957
-0.225896 0.328012 1.05354
-0.100564 0.327389 1.1123
-0.0948018 0.32684 1.11045
-0.177195 0.32639 1.06339
-0.13991 0.325858 1.07716
-0.0772846 0.325489 1.10172
-0.256816 0.325126 1.00515
-0.102149 0.324705 1.0764
-0.0777346 0.324357 1.08166
-0.01297 0.324088 1.1062
-0.0977575 0.323754 1.05675
-0.0921102 0.323429 1.05242
-0.455215 0.323238 0.862128
-0.101675 0.322929 1.0316
-0.222869 0.32268 0.962997
-0.261513 0.322388 0.936207
0.030132 0.322214 1.07315
-0.503776 0.321977 0.798092
-0.0340764 0.321709 1.02523
-0.0648616 0.321482 1.00165
0.0175981 0.321323 1.03385
-0.280315 0.321083 0.876902
-0.179846 0.320934 0.918007
-0.2012 0.320724 0.898985
0.0688357 0.320511 1.0257
-0.124678 0.320378 0.919672
-0.283519 0.320181 0.83178
-0.318492 0.320051 0.80499
-0.309631 0.319868 0.800793
-0.369434 0.31975 0.761463
-0.257912 0.319569 0.808588
-0.201269 0.319417 0.827929
-0.105829 0.319286 0.866405
-0.275457 0.31915 0.772426
-0.267796 0.319055 0.766571
-0.197925 0.318899 0.792613
-0.337566 0.318812 0.713016
-0.122357 0.318665 0.811641
0.0204836 0.318576 0.873319
-0.0613719 0.318446 0.823196
-0.229384 0.318374 0.729249
-0.303141 0.318309 0.682339
0.00969201 0.318182 0.829547
-0.355337 0.318124 0.636925
-0.0833585 0.31802 0.763419
-0.0831943 0.317909 0.754097
0.117555 0.317867 0.844165
-0.02707 0.317765 0.762352
-0.337431 0.317731 0.596765
-0.198092 0.317675 0.656324
0.0933278 0.31761 0.79204
-0.181264 0.31757 0.64443
-0.0303706 0.317492 0.710079
-0.198895 0.317481 0.615108
-0.143241 0.317475 0.632175
-0.00325503 0.317408 0.692225
-0.495543 0.317409 0.435222
-0.0802753 0.317358 0.632703
-0.0512649 0.31737 0.636202
-0.0406116 0.317385 0.630473
-0.241379 0.317341 0.519857
-0.0645854 0.317363 0.597103
-0.129464 0.317417 0.553066
0.0177403 0.317386 0.616251
-0.161602 0.317422 0.515244
-0.160653 0.317502 0.503759
0.120423 0.317593 0.632167
0.0583624 0.317643 0.589583
-0.0954319 0.317752 0.500312
-0.179447 0.317871 0.445777
-0.111448 0.317999 0.467104
-0.268409 0.318067 0.376801
-0.0963175 0.318345 0.448041
0.130573 0.318641 0.546418
0.0534412 0.318867 0.49375
0.22669 0.344752 1.28447
-0.231094 0.342852 1.06542
-0.0883431 0.341921 1.13592
0.0371029 0.34127 1.19472
-0.201363 0.340522 1.07267
-0.483481 0.340051 0.925732
-0.135112 0.339489 1.09509
-0.194477 0.33894 1.06049
0.0472483 0.338646 1.17355
-0.073958 0.338268 1.10612
-0.00151597 0.337898 1.13546
-0.113663 0.337537 1.07243
-0.524986 0.337184 0.859733
-0.0157068 0.336909 1.10646
-0.272388 0.336572 0.970959
-0.197616 0.336244 1.00108
-0.333782 0.335983 0.924991
-0.199606 0.335673 0.984656
-0.0994601 0.335488 1.02586
-0.183427 0.335196 0.976275
-0.0770131 0.334954 1.02132
-0.279173 0.334681 0.912449
-0.0886716 0.334517 0.998653
-0.163897 0.334288 0.952765
-0.142198 0.33413 0.954508
0.0147705 0.333893 1.02484
-0.156325 0.333678 0.930887
-0.0729727 0.333535 0.963315
-0.422765 0.333328 0.779954
-0.103103 0.333193 0.930456
-0.269913 0.332994 0.83851
-0.400658 0.332867 0.763742
-0.209682 0.332691 0.850428
-0.196604 0.332508 0.848263
-0.185978 0.332397 0.844013
-0.138547 0.332222 0.858946
-0.218635 0.332119 0.809253
-0.254814 0.331992 0.781814
-0.334677 0.331881 0.732341
-0.17195 0.331748 0.804453
-0.20442 0.331599 0.779171
-0.222371 0.331521 0.760271
-0.240493 0.33138 0.742073
-0.0689241 0.33131 0.817839
-0.273883 0.331245 0.705293
-0.35599 0.331127 0.654839
-0.0939111 0.331061 0.775839
-0.390703 0.33096 0.617842
-0.400634 0.330849 0.603406
-0.044394 0.330809 0.771163
-0.264917 0.330773 0.650488
-0.164502 0.330714 0.690586
-0.170577 0.330648 0.677529
-0.300576 0.330605 0.602217
-0.196923 0.330523 0.644229
-0.175864 0.330512 0.644044
-0.309109 0.330501 0.566703
0.00775529 0.330501 0.714272
-0.176069 0.330436 0.612355
-0.169039 0.330448 0.604853
0.179738 0.330394 0.769087
-0.0708058 0.330409 0.632756
-0.332764 0.330451 0.490373
-0.237324 0.330477 0.526891
0.0718077 0.330442 0.671069
-0.0922364 0.330511 0.577272
-0.0025328 0.33055 0.610739
-0.190425 0.330639 0.504755
-0.091669 0.330739 0.541927
-0.119989 0.330794 0.516169
-0.119562 0.330912 0.503936
0.0681531 0.33104 0.585198
-0.0371058 0.331242 0.518964
-0.11222 0.33153 0.46663
0.0215279 0.331837 0.518462
-0.196747 0.332223 0.39318
-0.0702888 0.35728 1.15511
-0.0628271 0.356071 1.16047
-0.0569608 0.355283 1.16059
-0.477511 0.354429 0.948257
0.0192635 0.35383 1.19189
-0.287705 0.353342 1.0325
-0.155582 0.352758 1.09372
-0.109229 0.352187 1.11195
-0.0761503 0.351883 1.12067
-0.111265 0.351332 1.098
-0.268909 0.350952 1.01224
0.0710745 0.35066 1.17434
-0.301179 0.350293 0.981164
-0.0273289 0.349937 1.11095
-0.404504 0.349591 0.915139
-0.200291 0.349317 1.00923
-0.418835 0.349116 0.891148
-0.232961 0.348794 0.976653
-0.0917091 0.348483 1.03973
-0.0794615 0.348229 1.0377
-0.0454573 0.348047 1.04573
-0.194223 0.347763 0.963549
-0.367291 0.347522 0.868747
-0.219068 0.347355 0.933773
-0.263291 0.3471 0.903581
-0.0529796 0.34686 1.0005
-0.231952 0.346711 0.901752
-0.12856 0.346497 0.944941
-0.100913 0.346356 0.949428
-0.206703 0.34615 0.887959
-0.163907 0.346017 0.899946
-0.19657 0.34582 0.874969
-0.135378 0.345626 0.896885
0.041282 0.345506 0.975686
0.0105544 0.345347 0.951251
-0.290274 0.34524 0.791175
-0.173531 0.345067 0.840655
-0.00785655 0.344969 0.913744
-0.298885 0.344805 0.759254
-0.178518 0.344698 0.809802
-0.0835296 0.344616 0.847362
-0.278276 0.344471 0.740827
-0.200826 0.344398 0.769525
-0.0931371 0.344261 0.814117
-0.233523 0.344197 0.733801
-0.244754 0.344138 0.718014
-0.434902 0.344032 0.613336
-0.505513 0.343917 0.568538
-0.0265107 0.343875 0.797669
-0.198853 0.343837 0.701078
