ply
format ascii 1.0
comment Created by Open3D
element vertex 1757
property double x
property double y
property double z
end_header
0.885455 -0.831497 0.837609
0.996279 -0.832177 0.876995
1.14861 -0.833078 0.935888
1.16113 -0.826896 1.35435
0.707831 -0.823879 1.13078
1.07534 -0.821484 1.3145
0.86226 -0.820021 1.20319
0.907602 -0.818266 1.22264
0.910842 -0.816853 1.21933
0.951474 -0.816031 1.23168
1.012 -0.814671 1.2568
1.03611 -0.813887 1.26075
0.842456 -0.81312 1.15574
0.790916 -0.812372 1.12172
0.92282 -0.811436 1.18044
0.655915 -0.811034 1.03695
0.72689 -0.81065 1.06232
0.851504 -0.810283 1.11443
0.835582 -0.809934 1.09618
0.73155 -0.809605 1.03379
0.688667 -0.809447 1.00106
0.78834 -0.809287 1.03962
0.70775 -0.809295 0.98716
0.765946 -0.809166 1.00482
0.8269 -0.809357 1.02214
0.779573 -0.809413 0.986037
1.07037 -0.809581 1.11839
0.71595 -0.809924 0.927168
0.591234 -0.810279 0.850726
0.753896 -0.810645 0.917897
0.891011 -0.811024 0.972213
1.12028 -0.811417 1.07252
0.935758 -0.812066 0.964499
0.93249 -0.812721 0.947049
0.992632 -0.813384 0.961242
0.876668 -0.814056 0.887315
1.19775 -0.814737 1.03184
1.07506 -0.815634 0.953241
0.758041 -0.816344 0.778502
1.03062 -0.817264 0.897357
1.06697 -0.818187 0.898054
0.880066 -0.819115 0.787069
1.12586 -0.813523 1.34324
0.867193 -0.809643 1.22167
0.908216 -0.806684 1.24527
0.675358 -0.804926 1.12574
0.936479 -0.803188 1.25314
0.725321 -0.801789 1.14267
1.05184 -0.800419 1.30093
0.87433 -0.799627 1.20416
0.911358 -0.798541 1.21624
0.591691 -0.79756 1.04944
0.869113 -0.796825 1.17991
0.736946 -0.796109 1.10551
0.959648 -0.795712 1.20684
0.843734 -0.795034 1.1404
0.842391 -0.794672 1.12955
0.796761 -0.794327 1.09648
0.760775 -0.794001 1.06814
0.601988 -0.793693 0.978312
0.598138 -0.793547 0.96508
0.675848 -0.793418 0.992533
0.558111 -0.793445 0.92141
0.521915 -0.793327 0.891861
0.789503 -0.793379 1.01326
0.762616 -0.793621 0.986375
0.883392 -0.793798 1.03368
1.06415 -0.794083 1.11036
1.03774 -0.794272 1.08398
1.04773 -0.794856 1.07359
0.956969 -0.79551 1.01241
1.04037 -0.795925 1.03964
0.933246 -0.796594 0.97016
0.728428 -0.797033 0.853114
1.17953 -0.79772 1.06261
1.03978 -0.798643 0.975307
1.2048 -0.799343 1.04164
0.73523 -0.800053 0.790598
0.926062 -0.801204 0.867209
1.21642 -0.802137 0.994794
0.863206 -0.803279 0.799368
1.20955 -0.804216 0.954868
0.99756 -0.805244 0.830644
0.997456 -0.80009 1.28568
0.853173 -0.794798 1.22906
0.960246 -0.792461 1.28263
0.94631 -0.790142 1.27567
1.07508 -0.788423 1.33694
0.629107 -0.786727 1.11077
0.626539 -0.785371 1.10453
1.19451 -0.784587 1.38054
0.866491 -0.783283 1.21137
0.618798 -0.782229 1.08105
0.658279 -0.781501 1.09259
0.724768 -0.780789 1.11756
0.794879 -0.779908 1.14529
0.628002 -0.779542 1.05174
0.745889 -0.778896 1.10212
0.968714 -0.778565 1.20325
0.865333 -0.778251 1.1412
0.687293 -0.777956 1.04172
0.884706 -0.777679 1.12988
1.02879 -0.777703 1.18971
0.67829 -0.777463 1.00372
0.785317 -0.777519 1.04484
0.848658 -0.777589 1.06404
0.801109 -0.777676 1.0277
0.793003 -0.777858 1.01054
0.680049 -0.777967 0.941364
0.750478 -0.778353 0.962304
0.838176 -0.77875 0.991808
0.984544 -0.779158 1.05057
0.920187 -0.779577 1.00389
0.909685 -0.780009 0.984056
0.969812 -0.780922 0.99676
0.990111 -0.78162 0.990757
0.88939 -0.782325 0.924181
1.07231 -0.783038 0.999358
0.838692 -0.783983 0.864896
0.946751 -0.785147 0.899966
0.807635 -0.786139 0.812418
0.900776 -0.787096 0.841176
0.94761 -0.788056 0.846728
1.26575 -0.789418 0.985542
1.09613 -0.790478 0.882207
0.8481 -0.780834 1.23626
1.11681 -0.777645 1.37542
0.972956 -0.775357 1.30353
0.587534 -0.773658 1.10774
0.822183 -0.771979 1.22194
0.851033 -0.770326 1.23315
0.848141 -0.769551 1.22374
0.705196 -0.767951 1.14885
0.632993 -0.767212 1.10466
0.775168 -0.766489 1.16759
0.848394 -0.765284 1.19873
0.761148 -0.764605 1.14676
0.644749 -0.764244 1.07847
0.613822 -0.763601 1.05449
0.621924 -0.763273 1.0483
0.788501 -0.76267 1.12289
0.758159 -0.762378 1.09729
0.77042 -0.762104 1.0929
0.673019 -0.761973 1.03288
0.694843 -0.761891 1.0322
0.887919 -0.761671 1.11794
0.74716 -0.761745 1.03509
0.88288 -0.761834 1.09039
0.797633 -0.761937 1.03512
0.756609 -0.762056 1.00187
0.916136 -0.762254 1.06844
0.786237 -0.762655 0.989114
0.518418 -0.763022 0.841017
0.989648 -0.763452 1.06206
0.811211 -0.764142 0.956745
0.677309 -0.764593 0.875073
0.536555 -0.765297 0.788481
1.16991 -0.766241 1.0875
0.876101 -0.766967 0.924208
0.89858 -0.767696 0.919012
0.975713 -0.768878 0.938441
0.807973 -0.769882 0.836451
0.987543 -0.77085 0.908298
1.16544 -0.772028 0.978023
0.93767 -0.773284 0.844411
0.95686 -0.774463 0.834705
0.892374 -0.775749 0.78248
0.808866 -0.777118 0.720198
0.942785 -0.76653 1.2951
0.797701 -0.76339 1.22736
0.958963 -0.761132 1.30807
1.10418 -0.75858 1.38243
0.879309 -0.756922 1.26691
0.90498 -0.755597 1.27487
0.695777 -0.754522 1.16405
0.616459 -0.753243 1.11934
0.666258 -0.752204 1.13789
0.726436 -0.751488 1.15987
0.788155 -0.750291 1.18532
0.671752 -0.749616 1.11883
0.64985 -0.748959 1.0995
0.644753 -0.74832 1.08849
0.740735 -0.747996 1.12626
0.578749 -0.747395 1.03663
1.07865 -0.747105 1.27619
0.820608 -0.746544 1.13833
0.831192 -0.74629 1.13305
0.895033 -0.746337 1.15267
0.698865 -0.746117 1.04382
0.810703 -0.745916 1.08888
0.907594 -0.746008 1.12476
0.76749 -0.745924 1.04318
0.707535 -0.746038 1.00051
0.722927 -0.74637 0.994241
0.763588 -0.746574 1.00134
0.938825 -0.746944 1.07475
0.813937 -0.747378 0.997707
0.987991 -0.747821 1.07006
1.15665 -0.748276 1.13964
0.749311 -0.749221 0.918289
0.881631 -0.749701 0.969508
0.940533 -0.750429 0.982521
0.730451 -0.751648 0.858078
0.903022 -0.752391 0.927779
1.0052 -0.753584 0.959547
0.988968 -0.754609 0.933088
0.912335 -0.7558 0.875386
0.923143 -0.75686 0.862168
0.995576 -0.758456 0.87646
0.802943 -0.759743 0.760058
0.810879 -0.761053 0.743756
1.04364 -0.762618 0.838252
1.06898 -0.754462 1.35729
0.745358 -0.749424 1.21107
0.853257 -0.746335 1.26991
0.67874 -0.743817 1.18445
0.875318 -0.742179 1.2797
0.861053 -0.740563 1.26946
0.634822 -0.739499 1.15017
0.437348 -0.738235 1.04642
0.513386 -0.737205 1.07815
0.670267 -0.736496 1.14851
0.711544 -0.735309 1.16382
0.663103 -0.734338 1.13307
0.647706 -0.733687 1.11704
0.672392 -0.733054 1.12097
0.752288 -0.732734 1.15072
0.647697 -0.732136 1.08984
0.72837 -0.731559 1.1215
0.710301 -0.73129 1.10201
0.728195 -0.731037 1.10041
0.614551 -0.730802 1.03296
0.868958 -0.730584 1.14943
0.499676 -0.730384 0.953966
0.722574 -0.730202 1.05449
0.763581 -0.730311 1.06235
0.587703 -0.730235 0.962861
0.972124 -0.730366 1.1423
0.67548 -0.730511 0.98111
0.689579 -0.730886 0.973918
0.812051 -0.731323 1.02053
0.569362 -0.731769 0.884485
0.805968 -0.732224 0.988018
0.472464 -0.732927 0.80499
0.749182 -0.733408 0.928387
0.533501 -0.73414 0.804052
0.737198 -0.73513 0.887803
0.9622 -0.735877 0.983661
1.05998 -0.737122 1.01283
1.05417 -0.738325 0.990429
0.979338 -0.739368 0.934451
0.661122 -0.740647 0.755297
0.955389 -0.742147 0.880969
1.02189 -0.743551 0.893312
0.83175 -0.744864 0.77785
0.990179 -0.746576 0.834139
0.992026 -0.748109 0.8132
0.803307 -0.735974 1.24693
0.712807 -0.732084 1.21137
0.971566 -0.729906 1.34085
0.663516 -0.727977 1.18559
0.839296 -0.726373 1.27045
0.758506 -0.724792 1.22694
1.00151 -0.723752 1.34228
0.534685 -0.722522 1.10383
0.675557 -0.721516 1.16798
0.468107 -0.720527 1.0579
0.644594 -0.719377 1.14076
1.01907 -0.718731 1.31971
0.766402 -0.718102 1.18502
0.647218 -0.71749 1.11698
0.532101 -0.716897 1.05089
0.618455 -0.716322 1.08545
0.638363 -0.716056 1.08497
0.80826 -0.71552 1.16111
0.670177 -0.715288 1.08146
0.799719 -0.715073 1.13553
0.300183 -0.714874 0.874972
0.817214 -0.714694 1.1226
0.741207 -0.714531 1.0736
0.779993 -0.714656 1.08027
0.453004 -0.714589 0.905207
0.704384 -0.714736 1.01804
0.787043 -0.714896 1.04642
0.678438 -0.715069 0.979085
0.717093 -0.715714 0.982495
0.640114 -0.715945 0.930598
0.926452 -0.716415 1.05889
0.760096 -0.717137 0.959254
0.867325 -0.717872 0.996313
0.839172 -0.718864 0.96406
0.962932 -0.71938 1.01069
0.917737 -0.720631 0.968251
0.886783 -0.721842 0.933136
0.913135 -0.722665 0.929064
0.807741 -0.724161 0.854866
0.925991 -0.725453 0.893719
1.01246 -0.726966 0.915248
0.85915 -0.728684 0.815532
1.11081 -0.730403 0.918245
1.01315 -0.732124 0.846229
0.98789 -0.733693 0.81132
0.997012 -0.722998 1.34775
1.07101 -0.718656 1.3974
0.961742 -0.715671 1.34773
1.00128 -0.714071 1.36453
0.825977 -0.711653 1.27873
0.948386 -0.710609 1.33386
0.606216 -0.709063 1.15966
0.717192 -0.708047 1.20899
0.852896 -0.706549 1.27355
0.67824 -0.705871 1.17815
0.527773 -0.704906 1.09656
0.424171 -0.704257 1.03656
0.667217 -0.703328 1.15158
1.08926 -0.702713 1.35425
0.671099 -0.702115 1.13673
0.849552 -0.701535 1.21744
0.456339 -0.700974 1.01223
0.571939 -0.700431 1.06132
0.767991 -0.700194 1.14882
0.523735 -0.699689 1.01778
0.481406 -0.699485 0.985903
0.544513 -0.699298 1.00665
0.715299 -0.699128 1.08114
0.67812 -0.698974 1.05154
0.599629 -0.698904 1.00078
0.812766 -0.698987 1.0949
0.765504 -0.699103 1.05861
0.755889 -0.699285 1.04073
0.54954 -0.69951 0.924205
0.52344 -0.699711 0.897949
0.63653 -0.700414 0.938139
0.886926 -0.700894 1.04836
0.723366 -0.701382 0.951537
0.903349 -0.702132 1.02482
0.670433 -0.70314 0.889992
0.67939 -0.703896 0.877658
1.01817 -0.704928 1.02846
0.971045 -0.706199 0.984756
0.855944 -0.707481 0.90695
0.724685 -0.708986 0.819585
1.03041 -0.710496 0.950633
1.13374 -0.712214 0.979091
0.893837 -0.71405 0.835115
0.987207 -0.715779 0.8584
1.20681 -0.717694 0.94354
0.84509 -0.719439 0.739055
1.06816 -0.706005 1.39817
0.861003 -0.702249 1.30435
0.77535 -0.699845 1.26345
1.11228 -0.697455 1.43384
0.632318 -0.695908 1.19086
0.743503 -0.694889 1.24038
0.715357 -0.693379 1.2232
0.799111 -0.692387 1.25892
0.764761 -0.690926 1.23843
0.702179 -0.689971 1.20084
0.474513 -0.68933 1.07884
0.514701 -0.688408 1.0925
0.770478 -0.687798 1.21208
0.611606 -0.686913 1.12604
0.414816 -0.686339 1.01917
0.649153 -0.685783 1.12778
0.506044 -0.685245 1.04757
0.654339 -0.684725 1.11297
0.8383 -0.684508 1.19435
0.503401 -0.684026 1.01795
0.538751 -0.683842 1.02484
0.841529 -0.683673 1.16536
0.520718 -0.683521 0.993979
0.68608 -0.683386 1.06559
0.587169 -0.683325 1.0046
0.588898 -0.683431 0.992885
0.764463 -0.683386 1.06904
0.531172 -0.683569 0.939319
0.679901 -0.683764 1.00052
0.237563 -0.684208 0.76461
0.391592 -0.684677 0.826701
0.774314 -0.685169 1.00298
0.83278 -0.685668 1.01706
0.671406 -0.686672 0.917963
0.747217 -0.687191 0.940547
0.8146 -0.688219 0.955611
0.504528 -0.689261 0.781816
0.987632 -0.690541 1.00303
0.793051 -0.692333 0.882008
0.640384 -0.693846 0.783714
1.16186 -0.695363 1.02241
1.04364 -0.697198 0.939115
1.13076 -0.699318 0.956547
0.901097 -0.70137 0.815966
1.10125 -0.703311 0.890955
0.990897 -0.705541 0.808698
0.759123 -0.695557 1.23235
0.810325 -0.688785 1.28607
0.795803 -0.685906 1.28381
0.81191 -0.68355 1.29383
0.836346 -0.68172 1.30492
0.853596 -0.680209 1.31056
0.641914 -0.679213 1.19866
0.533158 -0.67774 1.14116
0.581905 -0.676773 1.15937
0.448088 -0.67582 1.08625
0.481702 -0.674714 1.09782
0.875334 -0.6738 1.28826
0.538704 -0.672903 1.11349
0.716312 -0.672025 1.19575
0.654048 -0.671456 1.1562
0.55543 -0.670903 1.09838
0.750684 -0.67049 1.18665
0.461258 -0.669965 1.03329
0.674178 -0.669459 1.13101
0.600081 -0.668971 1.08512
0.596807 -0.66878 1.07278
0.659802 -0.66833 1.09523
0.872372 -0.668172 1.19062
0.69829 -0.66803 1.09259
0.565821 -0.667905 1.01527
0.487383 -0.667796 0.964859
0.722411 -0.667747 1.0708
0.617944 -0.667887 1.00578
0.656482 -0.668058 1.01206
0.57199 -0.668291 0.956411
0.434617 -0.668511 0.874399
0.410618 -0.668744 0.848985
0.550065 -0.669484 0.901971
0.496818 -0.669987 0.860139
0.715693 -0.670756 0.952599
0.856856 -0.671545 1.00605
0.782689 -0.672582 0.950162
0.775775 -0.673858 0.926289
1.04209 -0.67492 1.04041
0.868127 -0.676719 0.929435
0.821028 -0.678444 0.882329
0.617482 -0.680058 0.757674
0.949306 -0.6823 0.89644
0.841313 -0.684545 0.815197
0.932483 -0.686981 0.832166
1.0004 -0.689249 0.838556
1.04551 -0.691847 0.831227
0.744929 -0.676066 1.25569
0.792825 -0.672452 1.28943
0.891005 -0.670133 1.3405
0.686738 -0.667824 1.24037
0.650026 -0.666032 1.22092
0.708995 -0.664854 1.24557
0.578952 -0.663585 1.17634
0.699805 -0.662328 1.23251
0.675263 -0.660912 1.21703
0.539859 -0.659985 1.14311
0.474622 -0.659366 1.10238
0.593007 -0.65847 1.15522
0.431551 -0.657591 1.06807
0.647558 -0.657018 1.16774
0.492429 -0.656175 1.08358
0.60315 -0.655637 1.13044
0.366272 -0.655115 1.00342
0.777878 -0.654331 1.20233
0.735185 -0.654125 1.17041
0.587528 -0.653751 1.0871
0.456898 -0.653294 1.01285
0.652807 -0.65313 1.09999
0.583857 -0.65271 1.05637
0.639115 -0.652578 1.07299
0.697146 -0.652462 1.0909
0.551262 -0.652362 1.00675
0.571263 -0.652278 1.00545
0.745417 -0.652468 1.07942
0.807672 -0.652414 1.09904
0.753105 -0.652629 1.05848
0.383612 -0.652856 0.860362
0.884886 -0.653094 1.09754
0.627899 -0.65384 0.952204
0.824513 -0.654105 1.03685
0.716468 -0.654882 0.965732
0.706813 -0.655908 0.942098
0.949231 -0.656717 1.04593
0.710365 -0.658271 0.904052
0.969561 -0.659557 1.01297
1.04686 -0.661141 1.02886
0.849742 -0.663164 0.904494
0.854339 -0.664991 0.882249
0.710409 -0.667428 0.7815
0.951888 -0.669992 0.872488
0.890711 -0.672638 0.811493
1.04908 -0.675387 0.859459
1.19887 -0.678521 0.900376
0.774005 -0.659738 1.28233
0.750747 -0.65668 1.27753
0.791318 -0.654407 1.29984
0.835376 -0.652146 1.32391
0.878636 -0.650688 1.34261
0.4904 -0.649431 1.14435
0.756353 -0.648006 1.27428
0.697805 -0.646777 1.24078
0.626758 -0.645855 1.19912
0.637281 -0.644946 1.19819
0.705612 -0.644052 1.22611
0.5588 -0.643174 1.14638
0.607072 -0.6426 1.16227
0.742515 -0.641756 1.22352
0.606716 -0.64093 1.14905
0.45249 -0.640405 1.06344
0.731129 -0.639897 1.19418
0.541271 -0.639129 1.09239
0.473225 -0.638658 1.04959
0.535222 -0.638479 1.0699
0.587636 -0.638122 1.0866
0.514316 -0.637696 1.04091
0.591588 -0.637557 1.06862
0.754328 -0.637168 1.14074
0.259508 -0.637061 0.882206
0.797142 -0.63697 1.1398
0.735181 -0.636894 1.0975
0.571389 -0.636834 1.00418
0.494194 -0.637025 0.952465
0.485097 -0.637252 0.934554
0.468757 -0.637245 0.914595
0.616942 -0.63749 0.975191
0.499055 -0.637998 0.900939
0.462313 -0.63851 0.867226
0.554796 -0.639289 0.89627
0.566634 -0.640083 0.884855
0.508632 -0.640895 0.838375
0.681992 -0.642449 0.902414
0.835872 -0.643515 0.96004
0.792406 -0.645311 0.913875
0.959102 -0.647624 0.969134
1.04912 -0.649957 0.98582
0.944317 -0.65258 0.902982
0.794084 -0.655464 0.795501
0.730554 -0.658612 0.729405
1.13898 -0.661891 0.898246
1.22839 -0.665737 0.903441
0.525754 -0.643473 1.17043
0.968768 -0.640955 1.39578
0.649887 -0.638728 1.23842
0.81162 -0.636995 1.31828
0.654682 -0.635567 1.23691
0.364213 -0.633865 1.0906
0.761718 -0.632937 1.28332
0.387009 -0.631731 1.09178
0.599144 -0.630668 1.19278
0.62804 -0.629497 1.2029
0.377678 -0.628629 1.07146
0.407384 -0.627776 1.07997
0.685161 -0.627224 1.21058
0.18266 -0.62653 0.952009
0.622925 -0.626002 1.16374
0.522917 -0.625212 1.10711
0.647346 -0.624717 1.16075
0.558365 -0.623965 1.10942
0.555654 -0.623507 1.09929
0.641466 -0.623337 1.1315
0.358573 -0.622988 0.980576
0.467456 -0.622574 1.02599
0.564466 -0.622178 1.06536
0.510126 -0.622064 1.02715
0.379443 -0.621704 0.952452
0.689401 -0.621622 1.09619
0.538389 -0.621554 1.00934
0.267513 -0.621502 0.862466
0.636642 -0.621465 1.03549
0.53788 -0.621691 0.972743
0.653563 -0.621685 1.01883
0.795496 -0.622176 1.07458
0.426095 -0.622434 0.876267
0.339616 -0.62296 0.817534
0.575868 -0.623508 0.919998
0.637961 -0.624307 0.933595
0.458379 -0.625121 0.826218
0.739373 -0.626173 0.947414
0.790834 -0.627737 0.950185
0.752155 -0.629314 0.907729
0.847112 -0.63162 0.926845
0.733227 -0.634449 0.837715
0.935918 -0.637695 0.903784
0.729535 -0.641142 0.76375
0.940247 -0.64495 0.829533
0.931987 -0.649465 0.780588
0.938058 -0.632359 1.36814
0.797174 -0.627749 1.31541
0.605263 -0.625279 1.22338
0.586824 -0.6231 1.21627
0.553304 -0.621405 1.19854
0.666355 -0.620012 1.25217
0.411486 -0.618807 1.12065
0.692194 -0.617734 1.2561
0.824476 -0.616271 1.31996
0.703444 -0.615392 1.25332
0.42473 -0.614528 1.1078
0.536555 -0.613677 1.15747
0.688278 -0.612843 1.22703
0.683122 -0.612024 1.21806
0.568214 -0.611501 1.15226
0.663591 -0.61083 1.19262
0.414519 -0.610057 1.06148
0.518418 -0.609577 1.10486
0.589792 -0.608841 1.13374
0.420759 -0.608665 1.0386
0.52997 -0.608045 1.08565
0.689563 -0.607627 1.15652
0.42015 -0.607227 1.01279
0.509986 -0.607107 1.04675
0.525441 -0.606741 1.04523
0.28267 -0.606651 0.912694
0.683432 -0.60632 1.10361
0.4289 -0.606261 0.964984
0.367183 -0.606216 0.922666
0.665911 -0.606186 1.06047
0.446202 -0.606171 0.938954
0.541931 -0.606413 0.97333
0.538254 -0.606418 0.959686
0.547082 -0.60693 0.948678
0.493381 -0.607203 0.908091
0.818255 -0.607749 1.05483
0.249715 -0.608314 0.754698
0.476704 -0.609125 0.850536
0.700906 -0.61045 0.941243
0.343349 -0.611509 0.742939
0.592452 -0.613578 0.840595
0.772691 -0.615664 0.903616
0.839812 -0.618674 0.903242
0.925067 -0.622396 0.906612
0.830167 -0.626863 0.814293
1.17767 -0.631821 0.939394
0.981673 -0.615406 1.40708
0.716676 -0.612074 1.28453
0.738754 -0.609938 1.29767
0.74817 -0.608268 1.30143
0.821066 -0.606608 1.33695
0.441623 -0.604961 1.14626
0.464519 -0.60378 1.15368
0.544114 -0.602451 1.19048
0.435067 -0.601297 1.13183
0.638475 -0.600437 1.22745
0.662093 -0.599591 1.23311
0.557127 -0.59848 1.17632
0.619862 -0.597665 1.20141
0.593828 -0.596865 1.18203
0.371316 -0.596357 1.06243
0.117465 -0.595699 0.92822
0.672186 -0.595215 1.19711
0.706621 -0.594477 1.20765
0.237894 -0.594026 0.964624
0.511877 -0.593674 1.09229
0.421632 -0.592984 1.04022
0.390319 -0.592578 1.01564
0.791438 -0.592189 1.20718
0.594952 -0.591872 1.09942
0.276823 -0.591768 0.929335
0.562717 -0.591423 1.06299
0.326171 -0.591097 0.9353
0.373439 -0.591039 0.947604
0.443152 -0.590995 0.971032
0.49478 -0.590966 0.985318
0.724787 -0.59095 1.08869
0.611049 -0.590947 1.0201
0.503292 -0.590953 0.95444
0.753166 -0.591225 1.06565
0.680006 -0.591499 1.01533
0.460558 -0.592043 0.889863
0.390126 -0.592605 0.83875
0.721887 -0.593411 0.986919
0.743313 -0.594229 0.979796
0.562487 -0.595556 0.867739
0.774382 -0.597397 0.948173
0.69406 -0.599466 0.880728
0.788106 -0.602751 0.891306
1.06049 -0.607259 0.981751
0.899903 -0.613069 0.845759
1.36375 -0.621484 1.00214
0.82303 -0.599992 1.33524
0.87447 -0.597008 1.36909
0.659609 -0.594641 1.2657
0.536466 -0.59273 1.20513
1.13626 -0.591108 1.50412
0.625121 -0.589942 1.24456
0.693362 -0.588628 1.27577
0.521762 -0.587486 1.18593
0.684315 -0.586355 1.26312
0.551296 -0.585515 1.19054
0.482219 -0.584412 1.15181
0.249469 -0.5836 1.02925
0.574292 -0.582802 1.1854
0.681587 -0.582291 1.2308
0.638363 -0.581635 1.20199
0.362272 -0.580879 1.05748
0.502097 -0.58014 1.12084
0.233742 -0.579686 0.978106
0.40399 -0.579067 1.05587
0.561412 -0.578639 1.12588
0.727312 -0.577966 1.2019
0.580013 -0.577831 1.11747
0.500293 -0.577253 1.07004
0.471211 -0.576886 1.04643
0.607402 -0.576536 1.10533
0.454102 -0.576455 1.01754
0.643931 -0.57617 1.10283
0.333514 -0.575863 0.938148
0.489625 -0.57582 1.0048
0.51076 -0.575548 1.00567
0.268331 -0.575534 0.872848
0.555389 -0.575533 1.00468
0.402125 -0.575786 0.914457
0.494552 -0.575812 0.948769
0.431056 -0.576083 0.903274
0.522161 -0.576393 0.934782
0.261161 -0.576689 0.790333
0.518666 -0.577261 0.903034
0.727116 -0.578345 0.98732
0.722457 -0.579171 0.966961
0.63991 -0.580785 0.901624
0.703964 -0.582838 0.906178
0.486226 -0.585892 0.762099
0.917751 -0.591345 0.924121
0.919669 -0.599786 0.848155
0.68489 -0.58435 1.27562
0.924117 -0.581598 1.40226
0.718404 -0.57928 1.30352
0.614414 -0.577684 1.25066
0.527979 -0.576098 1.20657
0.513862 -0.574957 1.19557
0.763508 -0.573673 1.31751
0.432393 -0.572555 1.14794
0.260198 -0.571449 1.0578
0.223899 -0.570627 1.03361
0.550847 -0.569548 1.19293
0.509851 -0.568754 1.16627
0.453063 -0.567975 1.13165
0.48531 -0.567477 1.13953
0.673216 -0.566835 1.22632
0.38884 -0.56583 1.07962
0.820877 -0.565373 1.28719
0.303554 -0.56493 1.01998
0.447715 -0.564324 1.08474
0.368913 -0.563648 1.03855
0.584062 -0.563318 1.13682
0.502286 -0.562928 1.08708
0.497828 -0.5623 1.07778
0.364006 -0.561993 1.00143
0.432203 -0.561648 1.0264
0.418128 -0.561319 1.01011
0.476014 -0.561007 1.0297
0.432561 -0.560957 0.996657
0.320812 -0.560694 0.931081
0.372598 -0.560666 0.945503
0.308277 -0.560412 0.903585
0.527958 -0.560411 1.00176
0.399201 -0.560418 0.925649
0.2389 -0.560438 0.833666
0.559136 -0.560471 0.981851
0.765655 -0.560774 1.07111
0.33139 -0.561324 0.83805
0.545317 -0.561668 0.930653
0.610532 -0.562472 0.945325
0.434135 -0.563071 0.840752
0.534976 -0.564388 0.869175
0.416972 -0.566 0.785817
0.625446 -0.568818 0.856183
0.648816 -0.574502 0.811366
0.762044 -0.569457 1.31876
0.433917 -0.566499 1.1637
0.573592 -0.564503 1.23576
0.742675 -0.562943 1.31947
0.735997 -0.561122 1.31725
0.391479 -0.560277 1.13913
0.460567 -0.558753 1.17278
0.639895 -0.55766 1.25847
0.409535 -0.556577 1.13928
0.489201 -0.555776 1.1731
0.68897 -0.55472 1.26887
0.279326 -0.55421 1.05596
0.642773 -0.553447 1.23148
0.374919 -0.552809 1.09047
0.578971 -0.551809 1.18812
0.561644 -0.551348 1.1711
0.465517 -0.550734 1.11586
0.341724 -0.550039 1.04741
0.333915 -0.549619 1.03492
0.490363 -0.549031 1.10583
0.230632 -0.548383 0.969144
0.502295 -0.548005 1.09613
0.426094 -0.547697 1.04866
0.400798 -0.547095 1.0289
0.380689 -0.547008 1.00784
0.279443 -0.546477 0.949596
0.32413 -0.546169 0.962638
0.510434 -0.545877 1.04637
0.358686 -0.545842 0.959113
0.363618 -0.545591 0.951868
0.364431 -0.545341 0.942567
0.265339 -0.54534 0.881382
0.377999 -0.545347 0.926008
0.463943 -0.545367 0.957177
0.179523 -0.545399 0.803064
0.367565 -0.545444 0.885081
0.399685 -0.545759 0.887007
0.125097 -0.545833 0.73747
0.476309 -0.546403 0.896887
0.653995 -0.546988 0.969397
0.481078 -0.547863 0.864272
0.512038 -0.549454 0.855302
0.537924 -0.551065 0.843577
0.634934 -0.55532 0.846049
0.718627 -0.554325 1.3036
0.714668 -0.551699 1.30875
0.557302 -0.549486 1.23428
0.454103 -0.547962 1.18188
0.572009 -0.546448 1.24004
0.537497 -0.545358 1.21892
0.466042 -0.544134 1.18036
0.531284 -0.543065 1.20904
0.469406 -0.542007 1.17414
0.407534 -0.541224 1.13721
0.699608 -0.540452 1.27721
0.605236 -0.539549 1.225
0.40328 -0.5388 1.11789
0.340323 -0.537806 1.08216
0.510534 -0.537344 1.159
0.505048 -0.536734 1.14916
0.505165 -0.536039 1.14279
0.438703 -0.535614 1.10108
0.433864 -0.534776 1.09339
0.237173 -0.534377 0.986413
0.552134 -0.533809 1.1366
0.480581 -0.533435 1.09203
0.428137 -0.533076 1.05692
0.404992 -0.532536 1.0379
0.561468 -0.532204 1.10708
0.30932 -0.531888 0.971828
0.176159 -0.531376 0.897633
0.212421 -0.531088 0.906404
0.527028 -0.531052 1.05236
0.534443 -0.530804 1.04641
0.358757 -0.530556 0.948913
0.490787 -0.530322 1.00517
0.548647 -0.530329 1.02243
0.418512 -0.530122 0.947412
0.575935 -0.530156 1.01424
0.161927 -0.530202 0.795244
0.236707 -0.530261 0.820546
0.482651 -0.530589 0.929236
0.489688 -0.530891 0.918668
0.558821 -0.531252 0.938656
0.485649 -0.531843 0.885589
0.4776 -0.532722 0.862694
0.676747 -0.534307 0.937545
0.682795 -0.536387 0.911683
0.678684 -0.539487 1.28832
0.664348 -0.536926 1.28831
0.609271 -0.534765 1.26503
0.626784 -0.533279 1.27302
0.711686 -0.531801 1.31471
0.681652 -0.530476 1.29784
0.504819 -0.529679 1.20359
0.432631 -0.528498 1.16464
0.607532 -0.527464 1.24816
0.521818 -0.5267 1.19934
0.447897 -0.525808 1.15743
0.567822 -0.524807 1.21334
0.475848 -0.524076 1.16124
0.312658 -0.523359 1.07345
0.686453 -0.522754 1.25332
0.719133 -0.52206 1.26335
0.396867 -0.521469 1.09513
0.274526 -0.520801 1.02751
0.415572 -0.520398 1.08951
0.417027 -0.519832 1.08304
0.54824 -0.519207 1.14192
0.266827 -0.518902 0.991982
0.305759 -0.518305 1.00456
0.264358 -0.517968 0.974914
0.459554 -0.517446 1.06507
0.386431 -0.517134 1.01939
0.486706 -0.516866 1.06007
0.375836 -0.516345 0.997241
0.46123 -0.516309 1.02862
0.0672981 -0.515833 0.823938
0.137226 -0.515589 0.849297
0.50223 -0.515588 1.02022
0.353133 -0.515362 0.935938
0.175023 -0.515163 0.836936
0.267397 -0.515179 0.871413
0.322723 -0.515218 0.887163
0.602229 -0.51527 1.0149
0.285838 -0.515369 0.844298
0.227446 -0.515449 0.802844
0.214969 -0.515753 0.78247
0.575674 -0.516117 0.948164
0.495388 -0.516769 0.89092
0.441058 -0.517581 0.845279
0.763525 -0.51895 0.983275
0.590204 -0.521569 0.862686
0.962546 -0.524676 1.43499
0.595692 -0.521924 1.26073
0.507098 -0.520328 1.21677
0.315233 -0.518623 1.12209
0.639936 -0.51732 1.28263
0.546638 -0.515887 1.23526
0.541771 -0.514855 1.22901
0.381689 -0.513832 1.14514
0.525292 -0.512819 1.21307
0.389851 -0.51207 1.13944
0.567196 -0.51108 1.22416
0.591565 -0.510355 1.23032
0.211788 -0.509642 1.03434
0.478789 -0.508792 1.16288
0.424954 -0.508102 1.12976
0.72244 -0.507674 1.27023
0.442781 -0.50685 1.12533
0.642631 -0.506444 1.21685
0.350146 -0.50588 1.06349
0.300183 -0.505255 1.03192
0.353292 -0.504708 1.05128
0.0222423 -0.50435 0.877042
0.329263 -0.503818 1.02327
0.614377 -0.503485 1.15695
0.171107 -0.50297 0.927942
0.576915 -0.502662 1.12179
0.637943 -0.502164 1.14483
0.382799 -0.501882 1.00802
0.457426 -0.501631 1.03584
0.561546 -0.501146 1.08039
0.213534 -0.501131 0.894934
0.321447 -0.500903 0.939238
0.358492 -0.50068 0.948077
0.281355 -0.500471 0.89972
0.305765 -0.500278 0.902013
0.465649 -0.500296 0.970248
0.405889 -0.500125 0.930279
0.376863 -0.500183 0.903716
0.0869107 -0.500253 0.746592
0.47916 -0.500379 0.930086
0.545379 -0.500476 0.950804
0.594295 -0.500846 0.9605
0.404501 -0.501436 0.848917
0.442301 -0.502307 0.848655
0.560978 -0.503197 0.88863
0.340618 -0.505787 0.744165
0.783676 -0.510139 1.34838
0.632845 -0.507598 1.28106
0.420256 -0.505795 1.17709
0.437094 -0.504131 1.18682
0.218791 -0.502724 1.07699
0.53177 -0.501577 1.23077
0.631045 -0.500571 1.27663
0.519799 -0.499324 1.21922
0.563492 -0.498336 1.23723
0.191256 -0.497606 1.04523
0.385175 -0.496887 1.13625
0.532634 -0.496039 1.20513
0.511771 -0.495094 1.19069
0.266959 -0.494652 1.06018
0.33523 -0.493826 1.08939
0.617963 -0.493162 1.22454
0.224116 -0.492594 1.02063
0.282793 -0.491954 1.04361
0.538088 -0.4914 1.16421
0.352913 -0.490785 1.06511
0.665925 -0.490422 1.21302
0.523827 -0.489894 1.13478
0.407325 -0.489371 1.06932
0.373528 -0.489042 1.0436
0.21456 -0.488535 0.956814
0.605603 -0.48823 1.14334
0.514835 -0.48774 1.09056
0.414719 -0.48746 1.03132
0.287887 -0.486987 0.9604
0.32055 -0.486733 0.967368
0.497348 -0.4865 1.04623
0.468953 -0.486269 1.02248
0.275186 -0.48605 0.915964
0.580158 -0.485836 1.05878
0.135186 -0.485638 0.826498
0.263973 -0.485455 0.880968
0.613321 -0.485287 1.04559
0.211276 -0.485315 0.832812
0.108844 -0.485205 0.771046
0.36325 -0.485244 0.886386
0.468065 -0.485331 0.926508
0.461375 -0.485481 0.910314
0.375333 -0.485853 0.852448
0.323181 -0.486177 0.811944
0.330855 -0.486577 0.800661
0.530361 -0.487724 0.878545
0.336048 -0.490092 0.748461
0.578597 -0.49575 1.24763
0.438282 -0.493146 1.18666
0.500002 -0.491148 1.22187
0.403818 -0.489527 1.17512
0.492755 -0.488401 1.21692
0.574545 -0.487168 1.25611
0.591122 -0.48594 1.26269
0.412706 -0.485088 1.16871
0.550656 -0.484125 1.23389
0.589784 -0.483283 1.24868
0.699365 -0.482337 1.29962
0.547696 -0.481644 1.21785
0.346362 -0.480962 1.11119
0.147883 -0.480148 1.0071
0.392137 -0.479487 1.12312
0.389824 -0.478925 1.11505
0.484772 -0.478286 1.15629
0.23883 -0.477737 1.02635
0.381477 -0.477122 1.0913
0.5061 -0.476587 1.14657
0.34025 -0.475997 1.05711
0.465361 -0.475478 1.11255
0.175154 -0.475143 0.958747
0.650489 -0.474639 1.18921
0.357266 -0.474142 1.03536
0.322521 -0.47384 1.00906
0.481322 -0.473358 1.08112
0.145872 -0.473081 0.904289
0.422265 -0.472616 1.03505
0.0937261 -0.472363 0.861478
0.216718 -0.471915 0.915426
0.444955 -0.471904 1.01812
0.0363995 -0.471472 0.806187
0.376243 -0.471261 0.966491
0.259385 -0.471055 0.898411
0.540738 -0.470868 1.02928
0.140689 -0.470696 0.819313
0.438258 -0.470538 0.958035
0.148622 -0.470395 0.803029
0.0715686 -0.470431 0.752691
0.442494 -0.470354 0.927378
0.15918 -0.470401 0.773806
0.446013 -0.470504 0.9048
0.540346 -0.470616 0.939449
0.326101 -0.470997 0.817328
0.722917 -0.471393 1.00057
0.485493 -0.472337 0.861598
0.581854 -0.473678 0.885778
0.828766 -0.481476 1.37362
0.774391 -0.478601 1.35855
0.397313 -0.476896 1.17237
0.579697 -0.475318 1.26494
0.353363 -0.473983 1.15117
0.484484 -0.472779 1.21507
0.47264 -0.4717 1.2065
0.451849 -0.47075 1.19239
0.515137 -0.469808 1.22029
0.243171 -0.468876 1.08054
0.480345 -0.46819 1.19327
0.691266 -0.467381 1.29399
0.656158 -0.466478 1.27253
0.430324 -0.465915 1.15281
0.543875 -0.465034 1.20558
0.550248 -0.464632 1.20061
0.518586 -0.463857 1.17991
0.494028 -0.463475 1.15936
0.343742 -0.462716 1.07928
0.171718 -0.462354 0.984844
0.346648 -0.461839 1.06528
0.451777 -0.461329 1.11079
0.30024 -0.460773 1.0284
0.355262 -0.460279 1.04877
0.187248 -0.459972 0.955956
0.332253 -0.459492 1.02122
0.377992 -0.459019 1.03683
0.299432 -0.458745 0.988499
0.0495615 -0.458288 0.856193
0.410256 -0.458054 1.02717
0.0633512 -0.457598 0.846373
0.081016 -0.457377 0.845735
0.175817 -0.457159 0.883643
0.27805 -0.456741 0.927128
0.182141 -0.456747 0.867639
0.238669 -0.456354 0.888074
0.213398 -0.456164 0.865737
0.458473 -0.456002 0.978321
0.215286 -0.455825 0.846923
0.233748 -0.455686 0.846008
0.448492 -0.45576 0.941237
0.332259 -0.455602 0.873152
0.469812 -0.455547 0.931004
0.126617 -0.455599 0.747464
0.411279 -0.455771 0.876717
0.430578 -0.455897 0.873715
0.278837 -0.45629 0.782635
0.171101 -0.456698 0.713399
0.45586 -0.45783 0.833433
0.410861 -0.46023 0.776332
0.595505 -0.467447 1.25586
0.592867 -0.464538 1.26766
0.486108 -0.462529 1.21973
0.418196 -0.460996 1.18718
0.274985 -0.459699 1.11499
0.472227 -0.458528 1.21199
0.495192 -0.457362 1.22186
0.253892 -0.456435 1.09755
0.511419 -0.455516 1.22264
0.494272 -0.454605 1.21036
0.442409 -0.453935 1.17862
0.326428 -0.453144 1.11595
0.280522 -0.452261 1.08917
0.288907 -0.451619 1.08742
0.361591 -0.451075 1.11698
0.332124 -0.450452 1.09619
0.49095 -0.449842 1.16947
0.188084 -0.449317 1.01116
0.231193 -0.448574 1.02786
0.325462 -0.448218 1.06663
0.21533 -0.44749 1.00663
0.454441 -0.447156 1.11767
0.387239 -0.446665 1.07702
0.449002 -0.446179 1.10083
0.506266 -0.445875 1.12073
0.553296 -0.445404 1.13708
0.201422 -0.444939 0.953943
0.251746 -0.444667 0.970133
0.212694 -0.444217 0.943306
0.431532 -0.443774 1.04539
0.00528492 -0.443535 0.823034
0.287978 -0.443108 0.956932
0.196369 -0.442895 0.901677
0.258506 -0.442686 0.923263
0.109192 -0.442282 0.840995
0.32718 -0.442086 0.940405
0.195777 -0.44171 0.866869
0.197168 -0.441528 0.857875
0.0126684 -0.441376 0.755655
0.132107 -0.441207 0.805582
0.234759 -0.441077 0.846743
0.368118 -0.440961 0.90313
0.232521 -0.441004 0.823493
0.22933 -0.440859 0.811905
0.0676986 -0.440824 0.720014
0.39653 -0.440881 0.872458
0.124844 -0.441066 0.723384
-0.0843707 -0.4412 0.606035
0.370802 -0.441598 0.818261
0.363477 -0.442091 0.798284
0.529811 -0.442958 0.861385
0.7457 -0.453952 1.32498
0.758795 -0.450354 1.35158
0.349743 -0.448407 1.1525
0.702339 -0.446811 1.33119
0.601676 -0.44555 1.28031
0.600526 -0.444183 1.28021
0.534527 -0.443274 1.2436
0.385176 -0.442261 1.16631
0.455297 -0.441368 1.19772
0.386998 -0.440586 1.15895
0.407015 -0.439706 1.16527
0.371202 -0.438837 1.14363
0.23821 -0.438202 1.07128
0.416743 -0.437443 1.15588
0.340023 -0.437048 1.10951
0.483307 -0.436302 1.17645
0.333834 -0.435704 1.09565
0.186513 -0.434971 1.01722
0.227904 -0.434613 1.02967
0.481811 -0.434113 1.14974
0.327247 -0.433401 1.06759
0.254572 -0.433071 1.02281
0.422336 -0.432589 1.09971
0.436525 -0.432113 1.09979
0.188863 -0.431642 0.968924
0.208023 -0.431139 0.971801
0.328427 -0.430684 1.02487
0.266598 -0.430443 0.984774
0.250355 -0.429975 0.969688
0.387988 -0.429541 1.03123
0.193909 -0.429318 0.92489
0.235841 -0.429089 0.936628
0.0504515 -0.428676 0.836516
0.20077 -0.428269 0.904217
0.127441 -0.428069 0.858085
0.360481 -0.427873 0.965105
0.59429 -0.427495 1.07432
0.385107 -0.427312 0.960126
0.375813 -0.427134 0.94584
0.328939 -0.426985 0.912487
0.215386 -0.426657 0.847581
0.147698 -0.4265 0.80392
0.18937 -0.426387 0.814501
0.396294 -0.426288 0.90758
0.12195 -0.42615 0.760418
0.149369 -0.426201 0.762231
0.276894 -0.426128 0.815361
0.321892 -0.426248 0.825261
0.308758 -0.426266 0.807133
0.103177 -0.426586 0.689686
0.373768 -0.426813 0.811264
0.140251 -0.42723 0.678827
0.37255 -0.428176 0.773824
0.659498 -0.436288 1.30186
0.560542 -0.434192 1.25977
0.35205 -0.432635 1.15802
0.484607 -0.431412 1.22377
0.538426 -0.430082 1.25121
0.693679 -0.42909 1.32628
0.581165 -0.428213 1.26644
0.641202 -0.427343 1.29286
0.559418 -0.42648 1.24835
0.47101 -0.425626 1.20049
0.301517 -0.424875 1.11115
0.34293 -0.424254 1.12607
0.495408 -0.423513 1.1977
0.306459 -0.42291 1.09734
0.403165 -0.422181 1.14105
0.0538728 -0.421596 0.960415
0.361948 -0.421094 1.10769
0.151796 -0.420529 0.996491
0.407797 -0.420039 1.11767
0.108852 -0.419554 0.961349
0.283473 -0.419018 1.04234
0.36264 -0.418547 1.075
0.134636 -0.41808 0.954053
0.276398 -0.417619 1.01796
-0.0109316 -0.417125 0.867679
0.298131 -0.416679 1.01514
0.090714 -0.416442 0.902305
0.141587 -0.415981 0.920867
0.12484 -0.415555 0.90529
0.294236 -0.415135 0.982747
0.396823 -0.41492 1.02476
0.151397 -0.414701 0.89282
0.112427 -0.414302 0.865946
0.0999858 -0.413909 0.852296
0.262475 -0.413716 0.924091
0.167406 -0.413528 0.867073
0.310462 -0.413165 0.930922
0.277365 -0.412989 0.904784
0.0991843 -0.412818 0.806069
0.326351 -0.412489 0.911668
0.243484 -0.412331 0.860501
-0.0544323 -0.412028 0.703324
0.157787 -0.411882 0.799589
0.255869 -0.411786 0.838283
0.0596603 -0.411652 0.730228
0.269341 -0.411576 0.824523
0.505551 -0.411512 0.931956
0.313153 -0.411573 0.823777
0.256728 -0.411526 0.784715
0.170236 -0.411664 0.728669
0.365274 -0.41181 0.813296
0.282273 -0.412043 0.757968
0.145419 -0.412459 0.673748
0.578417 -0.413485 0.867901
0.529886 -0.422536 1.23399
0.561389 -0.420295 1.25915
0.723278 -0.418684 1.34359
0.429009 -0.417284 1.198
0.465646 -0.415994 1.21689
0.482259 -0.415031 1.22268
0.558479 -0.414179 1.25725
0.357155 -0.413118 1.15512
0.28612 -0.412279 1.11603
0.325701 -0.41166 1.13015
0.403058 -0.410837 1.16519
0.408414 -0.410111 1.16332
0.43307 -0.409515 1.16985
0.291147 -0.4088 1.09432
0.203734 -0.408221 1.04472
0.323867 -0.407518 1.10017
0.299421 -0.407029 1.08124
0.174991 -0.406476 1.01298
0.20473 -0.405997 1.02108
0.276065 -0.405524 1.04996
0.294373 -0.404999 1.05287
0.13917 -0.404538 0.96841
0.184766 -0.404082 0.984323
0.00808535 -0.403789 0.887464
0.0599474 -0.403346 0.906424
0.253088 -0.402709 0.998039
0.0961075 -0.402476 0.910472
0.21754 -0.40205 0.964124
0.204757 -0.401802 0.948848
0.0678224 -0.401389 0.873211
0.309411 -0.400983 0.9868
-0.157579 -0.400582 0.74606
0.172767 -0.400373 0.90201
0.448193 -0.399988 1.03236
0.106 -0.399608 0.853862
0.356075 -0.399424 0.969467
0.471467 -0.399055 1.01968
0.106622 -0.39888 0.82775
0.271702 -0.398541 0.902527
0.0594816 -0.398378 0.786803
0.265686 -0.39822 0.880255
0.0716755 -0.397915 0.775175
0.122628 -0.397769 0.79089
0.393638 -0.397626 0.916597
0.257313 -0.397355 0.840045
0.146633 -0.397225 0.774794
0.173192 -0.397151 0.77756
0.0820761 -0.397033 0.721983
0.158192 -0.396978 0.749329
0.369137 -0.396935 0.843964
0.364536 -0.397003 0.829623
0.413433 -0.396976 0.843058
0.270685 -0.397126 0.75873
0.218456 -0.397364 0.718676
0.0637697 -0.397531 0.628163
0.258865 -0.398294 0.705919
0.771057 -0.409057 1.3486
0.392483 -0.406288 1.17467
0.71701 -0.404626 1.34147
0.547779 -0.403272 1.25841
0.44878 -0.402126 1.20847
0.539369 -0.400984 1.25336
0.544747 -0.400158 1.25254
0.450495 -0.399128 1.204
0.744965 -0.398312 1.34772
0.449753 -0.39771 1.19448
0.262969 -0.396909 1.09752
0.147037 -0.396203 1.03506
0.188578 -0.395622 1.05009
0.060313 -0.394925 0.981445
0.0950701 -0.39436 0.993003
0.464103 -0.393675 1.17297
0.205556 -0.393127 1.03776
0.582127 -0.392656 1.21935
0.461573 -0.391988 1.15445
0.167857 -0.391667 0.999397
0.186511 -0.391211 1.00195
0.131784 -0.390563 0.969861
-0.000349679 -0.390118 0.89697
0.00465676 -0.389829 0.891024
0.329585 -0.389396 1.04658
0.532385 -0.388969 1.14104
0.0971143 -0.388546 0.91644
0.421303 -0.388129 1.07154
0.120201 -0.387884 0.912176
0.290536 -0.387481 0.99024
0.259333 -0.387083 0.967499
0.297287 -0.386691 0.979299
0.417875 -0.386305 1.03238
0.0411814 -0.386111 0.834754
0.066391 -0.385735 0.840065
0.456343 -0.38555 1.0257
0.0136678 -0.385192 0.796921
0.190738 -0.384837 0.877994
0.154768 -0.384669 0.850519
0.205069 -0.384505 0.866146
0.149799 -0.384166 0.830922
0.216223 -0.384011 0.854533
-0.0776818 -0.383714 0.699575
-0.00693196 -0.383571 0.725235
0.0250001 -0.383432 0.73145
0.145181 -0.383167 0.783215
0.106022 -0.38304 0.753769
0.295521 -0.382918 0.838615
0.146699 -0.382684 0.755558
0.0635914 -0.382573 0.703985
0.267542 -0.382528 0.795205
0.219495 -0.382427 0.761055
0.206152 -0.3824 0.743432
0.288221 -0.382544 0.771555
0.000994022 -0.382459 0.617648
-0.13886 -0.382696 0.533728
0.325905 -0.382948 0.75193
0.247281 -0.383124 0.699303
0.311352 -0.383891 0.711173
0.648703 -0.392674 1.29872
0.571736 -0.390775 1.26778
0.664133 -0.389366 1.31659
0.556779 -0.388158 1.26352
0.525613 -0.387153 1.24653
0.487223 -0.38615 1.22595
0.445163 -0.385152 1.20356
0.420932 -0.38436 1.18798
0.35379 -0.383686 1.14976
0.183199 -0.382997 1.06
0.336685 -0.382311 1.1323
0.319514 -0.381547 1.12015
0.134491 -0.38099 1.0219
0.319578 -0.38032 1.10996
0.336422 -0.379851 1.11178
0.442906 -0.379316 1.15917
0.163271 -0.378661 1.01481
0.349817 -0.378207 1.10142
0.265261 -0.377756 1.05247
0.416446 -0.377253 1.12198
0.0426905 -0.376814 0.928366
0.202478 -0.376379 1.0015
0.159498 -0.375949 0.973221
0.103281 -0.375482 0.938759
0.373787 -0.375065 1.06714
0.257805 -0.374653 1.00224
0.315457 -0.374246 1.02413
0.243979 -0.374003 0.97966
0.375111 -0.37361 1.03819
0.349379 -0.373241 1.01803
0.174881 -0.373021 0.921848
0.201689 -0.372643 0.928107
0.216517 -0.37227 0.928335
0.14392 -0.371903 0.88481
0.214287 -0.371542 0.912724
0.229383 -0.371364 0.910945
0.121155 -0.371014 0.849479
0.114449 -0.370845 0.836727
0.186221 -0.370519 0.865016
0.271151 -0.370345 0.898167
0.220432 -0.370037 0.865041
0.0896974 -0.369718 0.792054
0.205097 -0.369575 0.840124
0.286015 -0.369436 0.870916
0.276149 -0.369169 0.8578
0.133931 -0.369002 0.77737
0.0485152 -0.368753 0.726303
-0.0461829 -0.368635 0.669088
0.176982 -0.36852 0.770767
0.0961282 -0.368302 0.721655
0.208837 -0.368199 0.767988
0.327621 -0.368162 0.81658
-0.0196182 -0.368069 0.632829
0.136217 -0.36805 0.699747
0.114299 -0.367966 0.678549
0.0674955 -0.367964 0.643955
0.252674 -0.368123 0.723416
0.0685401 -0.368138 0.619936
0.213369 -0.368311 0.679035
0.0860978 -0.368821 0.598012
0.117789 -0.369589 0.593332
0.619386 -0.379212 1.27808
0.627051 -0.377107 1.29237
0.450638 -0.375553 1.20885
0.634916 -0.374293 1.30262
0.446653 -0.373221 1.20818
0.518841 -0.372258 1.24286
0.326239 -0.371385 1.14422
0.369016 -0.370618 1.16218
0.300805 -0.369857 1.12464
0.0142557 -0.369102 0.977902
0.411701 -0.368437 1.17222
0.362988 -0.367694 1.14436
0.330225 -0.367153 1.12231
0.218318 -0.366502 1.06192
0.28015 -0.366046 1.08629
0.509168 -0.365525 1.19501
0.36881 -0.364889 1.12035
0.270269 -0.364446 1.06448
0.249118 -0.363948 1.04795
0.325791 -0.363516 1.07962
0.107342 -0.363088 0.963715
0.217399 -0.362479 1.01414
-0.0819504 -0.362199 0.856162
0.428088 -0.361787 1.1044
-0.0754325 -0.36138 0.845827
0.271182 -0.360978 1.0123
-0.0266871 -0.36058 0.85649
0.0512088 -0.360188 0.888537
0.227308 -0.359801 0.969651
0.502792 -0.359575 1.09861
0.106827 -0.359201 0.893586
0.138309 -0.358832 0.902247
-0.00846045 -0.358644 0.8197
0.218481 -0.358285 0.926015
0.0287178 -0.357931 0.823937
-0.0355416 -0.357583 0.784566
0.181287 -0.357411 0.883696
0.177446 -0.357075 0.874431
0.360229 -0.356743 0.958452
-0.0555252 -0.356417 0.743156
0.076192 -0.356264 0.799554
-0.0576015 -0.355948 0.725149
0.253123 -0.355804 0.870972
0.152499 -0.355664 0.811084
0.0498175 -0.355364 0.752097
0.093023 -0.355232 0.764042
0.277796 -0.354981 0.848231
0.222491 -0.354701 0.812738
0.333512 -0.354586 0.858426
0.0517425 -0.354474 0.707681
0.0627062 -0.354262 0.704534
-0.0501809 -0.354106 0.638789
0.0377427 -0.353911 0.673942
0.0356608 -0.353819 0.662837
0.112036 -0.353797 0.690104
0.284061 -0.353714 0.76594
0.151492 -0.353636 0.689442
-0.0267535 -0.353636 0.589128
0.269038 -0.353566 0.726702
0.404682 -0.353665 0.782098
0.182519 -0.353837 0.657674
0.137524 -0.353873 0.623532
0.152112 -0.354385 0.613172
0.115581 -0.355148 0.57406
0.465212 -0.363412 1.20844
0.275801 -0.361736 1.12041
0.271765 -0.360427 1.12108
0.42549 -0.359393 1.19766
0.295287 -0.358365 1.13226
0.614643 -0.357531 1.28954
0.530827 -0.35669 1.24536
0.381766 -0.355953 1.16743
0.459967 -0.355222 1.20312
0.269693 -0.354579 1.10363
0.420464 -0.354046 1.17345
0.209584 -0.353333 1.06452
0.164476 -0.352815 1.0363
0.561032 -0.352261 1.22936
0.396879 -0.351753 1.14156
0.232978 -0.351136 1.05519
0.125033 -0.350706 0.994662
0.231665 -0.350221 1.0421
0.252338 -0.349801 1.04583
0.229822 -0.349384 1.02795
0.24805 -0.348792 1.03253
0.264268 -0.348385 1.03397
0.228375 -0.348116 1.00774
0.331193 -0.34772 1.0524
0.179443 -0.347328 0.969752
0.165812 -0.346941 0.956132
0.419178 -0.346558 1.07598
0.386406 -0.34618 1.05272
0.203981 -0.345807 0.954608
0.284245 -0.345439 0.987801
0.0256073 -0.345077 0.851507
0.121778 -0.344876 0.890684
0.246097 -0.344536 0.945627
0.163206 -0.344188 0.897091
0.24052 -0.344009 0.926621
0.161507 -0.343675 0.879901
0.257105 -0.343343 0.920477
0.21739 -0.34318 0.891332
0.237881 -0.342858 0.894276
0.194253 -0.342541 0.865112
0.18994 -0.342391 0.853551
0.0267106 -0.342085 0.764495
0.0540851 -0.341944 0.768698
0.0546796 -0.341647 0.76146
0.216106 -0.341386 0.834221
0.158292 -0.341229 0.796068
0.362883 -0.340984 0.89023
0.18875 -0.340829 0.793917
0.0337442 -0.340601 0.708097
0.337335 -0.34034 0.852006
0.143355 -0.340237 0.745152
0.203035 -0.340137 0.765089
-0.0309926 -0.34004 0.638132
0.182449 -0.339799 0.73677
0.0586075 -0.339626 0.665909
0.391049 -0.339544 0.822018
-0.0569049 -0.339466 0.58789
-0.188755 -0.339321 0.512696
0.0947562 -0.339395 0.642341
0.236945 -0.339267 0.703943
0.300376 -0.339291 0.724203
0.0160756 -0.339324 0.570479
0.402161 -0.339365 0.751833
0.01377 -0.339456 0.54529
0.000913091 -0.339736 0.52401
0.143998 -0.340257 0.57751
0.427356 -0.349953 1.18354
0.588604 -0.348085 1.27378
0.408535 -0.346648 1.1885
0.398754 -0.345652 1.18334
0.565882 -0.344661 1.26663
0.125106 -0.34376 1.04499
0.304629 -0.342959 1.1324
0.165095 -0.342247 1.05928
0.530201 -0.341441 1.23965
0.350884 -0.34084 1.14543
0.468259 -0.340222 1.19979
0.302066 -0.339607 1.11239
0.233694 -0.339101 1.07262
0.159424 -0.338494 1.03116
0.108022 -0.338002 0.999801
0.220937 -0.337404 1.0519
0.285551 -0.336987 1.0777
0.0670886 -0.336515 0.962668
0.272715 -0.336107 1.05893
-0.0636046 -0.335703 0.884196
0.235936 -0.335129 1.0295
0.451641 -0.334733 1.13074
0.334013 -0.334342 1.06529
0.354679 -0.334084 1.06737
0.20667 -0.333703 0.986652
0.0698439 -0.333326 0.911498
0.0413773 -0.332953 0.890493
0.157737 -0.332586 0.94187
0.251912 -0.332223 0.982121
0.0511681 -0.331864 0.874877
0.176265 -0.331511 0.930518
0.0723999 -0.331162 0.87164
0.164123 -0.330983 0.908449
0.0539797 -0.330643 0.846357
0.203674 -0.330309 0.914143
-0.280751 -0.32998 0.664825
0.14463 -0.329817 0.868322
-0.214497 -0.329497 0.68157
-0.00251884 -0.329183 0.780323
0.109414 -0.329025 0.827074
0.208685 -0.328728 0.869292
0.0793184 -0.328429 0.797233
-0.00354657 -0.328274 0.74659
-0.0279046 -0.328002 0.726723
0.514463 -0.327719 0.990385
0.136492 -0.327567 0.79219
-0.0912532 -0.32732 0.67035
0.128623 -0.32717 0.771077
0.0355524 -0.326939 0.71639
0.140657 -0.326791 0.759728
0.00754101 -0.326577 0.684832
0.0285417 -0.32633 0.68745
-0.286424 -0.326233 0.520106
-0.0537603 -0.325996 0.628449
0.103945 -0.325907 0.697352
0.031752 -0.325679 0.653161
0.0579188 -0.325598 0.656207
0.0598539 -0.32552 0.647095
0.0633326 -0.325375 0.639674
-0.0358364 -0.325237 0.580833
0.15999 -0.325107 0.669402
0.0701287 -0.325046 0.614182
0.302166 -0.325068 0.718793
-0.0595774 -0.325017 0.527521
0.145291 -0.324968 0.619518
0.0417401 -0.325009 0.556072
0.234596 -0.325058 0.640714
0.283837 -0.32521 0.652132
-0.0602338 -0.325403 0.466319
0.125961 -0.326248 0.536564
0.397431 -0.334664 1.17215
0.497961 -0.333034 1.23017
0.393799 -0.33191 1.17984
0.627538 -0.330951 1.29653
0.384512 -0.330001 1.17481
0.371179 -0.329229 1.16582
0.370917 -0.328449 1.16352
0.489527 -0.327766 1.21952
0.0953357 -0.327088 1.01911
0.0405292 -0.32649 0.987443
0.17371 -0.325922 1.04945
0.321292 -0.325333 1.11896
0.136845 -0.324747 1.02246
0.369683 -0.324269 1.13328
-0.0130519 -0.323863 0.935466
0.249174 -0.323289 1.06226
0.151698 -0.322889 1.00706
0.479753 -0.322435 1.16532
0.289143 -0.322044 1.0635
0.188757 -0.321606 1.00741
-0.0412837 -0.321105 0.887327
0.240738 -0.320725 1.02176
0.312454 -0.320349 1.05102
0.266742 -0.320102 1.01994
0.129197 -0.319736 0.944483
0.268595 -0.319374 1.00747
0.351673 -0.319017 1.04227
0.112623 -0.318664 0.915977
0.0370812 -0.318316 0.871401
0.260992 -0.317972 0.976515
0.208418 -0.317633 0.94335
-0.00765581 -0.317457 0.826319
-0.00597264 -0.317127 0.82021
0.171528 -0.316802 0.901969
0.0374948 -0.316481 0.827918
0.0863555 -0.316321 0.843215
0.136326 -0.316009 0.861083
-0.00696259 -0.315702 0.782293
0.0265146 -0.315398 0.791864
-0.0171322 -0.315099 0.762825
0.248655 -0.314805 0.888453
0.0964217 -0.314667 0.803
0.188546 -0.314383 0.841703
0.18891 -0.314252 0.832468
0.20359 -0.313978 0.832351
0.204307 -0.313831 0.823533
0.0108609 -0.31359 0.718929
-0.101429 -0.313331 0.655171
0.257024 -0.313187 0.825219
0.257378 -0.312971 0.817224
0.271512 -0.31283 0.815108
0.0654967 -0.312587 0.704325
0.00995666 -0.31249 0.666781
0.0112664 -0.312257 0.659552
-0.143568 -0.312029 0.574192
0.147792 -0.311944 0.709959
0.110817 -0.311727 0.683418
0.119332 -0.311649 0.677672
-0.0679024 -0.311503 0.57501
0.0700483 -0.311371 0.634771
0.0250107 -0.31124 0.603016
0.151314 -0.31118 0.655946
-0.0678799 -0.310994 0.537921
0.144664 -0.310941 0.633882
0.208321 -0.310891 0.655359
-0.0519891 -0.3108 0.515445
0.160699 -0.310758 0.611317
-0.10469 -0.31072 0.468113
-0.0505934 -0.310774 0.483324
0.110701 -0.310743 0.553356
0.146283 -0.310809 0.559129
0.233098 -0.311196 0.585839
0.222997 -0.311496 0.565329
0.420329 -0.321595 1.1726
0.306884 -0.319642 1.12854
0.724054 -0.318321 1.34193
0.456092 -0.317242 1.20979
0.24245 -0.31633 1.10276
0.341966 -0.315501 1.15134
0.443524 -0.314751 1.19998
0.39159 -0.314094 1.17074
0.164046 -0.313441 1.0537
0.275662 -0.312793 1.10622
0.413135 -0.312221 1.17073
0.248742 -0.311748 1.08306
0.211092 -0.311183 1.06
0.0485642 -0.310621 0.974504
0.232065 -0.310164 1.0607
0.226543 -0.309714 1.05231
0.418631 -0.309224 1.1433
0.342083 -0.308841 1.0986
0.0817636 -0.308406 0.962706
0.407051 -0.308031 1.11887
0.136353 -0.307612 0.977656
0.290708 -0.307131 1.04981
0.107696 -0.306767 0.951767
-0.0753471 -0.306407 0.853681
0.224097 -0.306171 0.995198
0.178756 -0.30582 0.96588
0.260826 -0.305474 1.00024
0.129257 -0.305132 0.927747
0.0286583 -0.304794 0.870707
0.12151 -0.30446 0.910358
0.0976838 -0.304153 0.89134
0.116782 -0.303825 0.89408
0.117964 -0.303503 0.887823
0.0980745 -0.303184 0.870989
0.022258 -0.303021 0.824074
0.0727868 -0.302712 0.842372
0.16482 -0.302407 0.881378
0.0500841 -0.302253 0.814916
0.182771 -0.301959 0.874143
0.149348 -0.301668 0.850287
0.0628723 -0.301522 0.797893
-0.0121473 -0.301238 0.753192
-0.117233 -0.300958 0.693408
0.0910394 -0.300683 0.790251
-0.0246549 -0.300414 0.725057
-0.0940878 -0.300291 0.680934
-0.101426 -0.300031 0.669818
0.124829 -0.299915 0.773454
-0.145448 -0.299665 0.630765
0.0748834 -0.299527 0.731784
0.122026 -0.299283 0.747747
0.225284 -0.299044 0.791709
0.32514 -0.298811 0.833911
0.328971 -0.298716 0.826098
0.0250157 -0.298493 0.666284
-0.141408 -0.298406 0.573251
0.0609008 -0.298191 0.666458
0.116965 -0.298112 0.684576
0.104049 -0.297907 0.670058
-0.108331 -0.297779 0.554701
-0.161324 -0.29764 0.519192
-0.000310433 -0.297513 0.590521
0.275068 -0.297324 0.71997
0.0425653 -0.297265 0.593561
