ply
format ascii 1.0
comment Created by Open3D
element vertex 1654
property double x
property double y
property double z
end_header
0.328659 -0.134041 1.07618
0.131969 -0.133862 0.97186
0.0789288 -0.133611 0.941598
0.268837 -0.133328 1.03386
0.214732 -0.133151 1.00087
0.188503 -0.132871 0.985033
0.0148714 -0.132696 0.89228
0.133166 -0.132514 0.945749
-0.0536433 -0.132279 0.848356
0.197596 -0.132108 0.968032
0.0964385 -0.131938 0.911504
-0.0961244 -0.131769 0.809264
0.289238 -0.131601 0.995976
-0.00604389 -0.131435 0.842353
-0.153935 -0.131226 0.763776
0.077267 -0.131088 0.87256
-0.0239839 -0.130925 0.815947
-0.126149 -0.130763 0.758858
-0.0772895 -0.130602 0.77726
0.00951061 -0.130489 0.813147
-0.0789478 -0.130332 0.762814
-0.113319 -0.130177 0.739495
-0.0808293 -0.130043 0.748953
-0.0511297 -0.129891 0.757639
0.0238052 -0.129758 0.788326
-0.0881781 -0.129626 0.72556
-0.137672 -0.129526 0.69301
0.0633514 -0.12938 0.787254
0.0330094 -0.12925 0.765305
-0.089824 -0.129121 0.697114
-0.0883763 -0.129029 0.689824
0.137984 -0.128901 0.796225
-0.0727668 -0.128774 0.684072
-0.0714575 -0.128647 0.677952
-0.0524311 -0.128563 0.679283
-0.169209 -0.128437 0.614109
-0.168024 -0.128313 0.607918
-0.187617 -0.128235 0.589768
-0.0572781 -0.128112 0.64814
-0.045486 -0.127989 0.647238
-0.0282432 -0.127919 0.647322
-0.0273632 -0.127798 0.640946
-0.0480766 -0.127681 0.623649
-0.188004 -0.127615 0.545031
-0.0984955 -0.127496 0.582959
-0.0958352 -0.127378 0.577459
-0.182907 -0.127319 0.525086
-0.0899275 -0.127202 0.564735
-0.137615 -0.127085 0.534046
0.0219918 -0.127027 0.604999
0.0152415 -0.126914 0.594715
-0.121298 -0.1268 0.51958
0.0246151 -0.126747 0.583569
-0.0446323 -0.126634 0.542064
-0.196857 -0.126583 0.456925
-0.0595948 -0.126472 0.518657
-0.0385337 -0.126416 0.520335
-0.285391 -0.126313 0.389751
-0.239916 -0.126204 0.405561
-0.273204 -0.12615 0.380061
-0.178944 -0.126051 0.419933
-0.0587024 -0.125998 0.471193
-0.385288 -0.125902 0.300557
-0.217488 -0.125797 0.377474
-0.238419 -0.125745 0.358141
-0.185927 -0.125654 0.376933
-0.0557216 -0.125602 0.433161
-0.146744 -0.1255 0.380628
-0.152525 -0.125449 0.368862
-0.181313 -0.125363 0.346887
-0.199679 -0.125263 0.33064
-0.0694426 -0.125213 0.386872
-0.138054 -0.125132 0.344863
-0.122847 -0.125083 0.34357
-0.129538 -0.124986 0.333112
-0.0623386 -0.124889 0.359583
-0.160876 -0.124861 0.300702
-0.289204 -0.124766 0.229376
-0.17774 -0.124719 0.276192
-0.0515153 -0.124626 0.332121
-0.0413571 -0.124601 0.327482
-0.152644 -0.12451 0.264618
-0.157737 -0.124419 0.254833
-0.222819 -0.124374 0.213352
-0.234894 -0.124285 0.200051
-0.230715 -0.124265 0.192294
-0.110634 -0.124177 0.24503
-0.19476 -0.124134 0.194005
-0.0456594 -0.124048 0.261225
-0.339634 -0.124005 0.105267
-0.124336 -0.12392 0.205557
-0.155349 -0.123863 0.18165
-0.128336 -0.123822 0.186162
-0.0802627 -0.12374 0.202772
-0.230353 -0.123699 0.118722
-0.168119 -0.123618 0.142381
-0.216689 -0.123579 0.10908
-0.173575 -0.123499 0.123147
-0.08036 -0.12346 0.160726
-0.112815 -0.123383 0.136974
-0.250148 -0.123306 0.060758
-0.123984 -0.123268 0.11479
-0.149155 -0.123193 0.0946181
-0.17914 -0.123186 0.0693641
-0.131395 -0.123113 0.0855995
-0.234422 -0.123077 0.0249997
-0.230962 -0.123005 0.019054
-0.0537378 -0.12297 0.0985646
-0.145684 -0.122899 0.0448761
-0.0797817 -0.122865 0.06871
-0.061365 -0.122796 0.0701616
0.41777 -0.122851 1.10402
0.404599 -0.122122 1.11019
0.248736 -0.121768 1.03258
0.00718509 -0.121443 0.911173
0.313264 -0.121087 1.06473
0.158717 -0.120828 0.984743
0.327335 -0.120569 1.06637
0.121922 -0.120343 0.959933
0.122049 -0.120086 0.957345
0.149278 -0.119926 0.965047
0.105923 -0.119672 0.940716
0.104511 -0.119514 0.934108
0.0138397 -0.119292 0.885089
0.0197262 -0.119135 0.882138
0.198508 -0.118979 0.965634
0.27917 -0.118789 1.00131
0.21812 -0.118581 0.96678
0.147653 -0.118429 0.925616
-0.102316 -0.118278 0.794691
-0.189757 -0.118128 0.745017
0.0823916 -0.118003 0.874277
-0.173654 -0.117855 0.740292
0.0368091 -0.117709 0.839543
0.0262867 -0.117563 0.828281
-0.0779036 -0.117419 0.770161
-0.115324 -0.117298 0.744668
-0.0755884 -0.117156 0.75849
-0.108882 -0.117035 0.73507
-0.0842489 -0.116914 0.740621
0.0563688 -0.116799 0.803997
-0.140657 -0.11668 0.698716
0.0535682 -0.116545 0.789664
0.0623138 -0.116427 0.787272
-0.118729 -0.11631 0.689991
0.110853 -0.116222 0.79696
-0.119164 -0.116092 0.675674
-0.067984 -0.11599 0.69402
0.0673225 -0.115875 0.754917
-0.0357395 -0.115793 0.69541
0.0466854 -0.115669 0.730251
0.0790766 -0.115566 0.739291
-0.0880627 -0.11549 0.647585
0.0255459 -0.11537 0.69792
-0.000197682 -0.115266 0.67797
0.0521458 -0.115156 0.697367
-0.139736 -0.115086 0.593103
-0.232704 -0.114977 0.539829
-0.116048 -0.114917 0.589503
-0.132251 -0.114805 0.574753
-0.28096 -0.114701 0.493449
-0.0804619 -0.114642 0.585086
-0.13714 -0.114536 0.549926
-0.0579405 -0.114432 0.582625
-0.0840811 -0.114377 0.560819
-0.226818 -0.114272 0.482612
-0.134438 -0.11422 0.51996
-0.0918188 -0.114117 0.534428
-0.0856873 -0.114015 0.530647
-0.238577 -0.113965 0.445314
-0.0930539 -0.113863 0.511212
0.0286888 -0.113813 0.563247
-0.0871251 -0.113716 0.498348
-0.0681084 -0.113616 0.500966
-0.184681 -0.113572 0.433661
-0.130194 -0.113474 0.453993
-0.157399 -0.113376 0.43347
-0.150261 -0.113334 0.427944
-0.225874 -0.113238 0.383194
-0.089275 -0.113191 0.442646
-0.201219 -0.113104 0.379393
-0.233841 -0.113057 0.354227
-0.0702756 -0.112964 0.429029
-0.224061 -0.112917 0.343282
-0.192805 -0.112835 0.351506
-0.232546 -0.112744 0.324614
-0.235006 -0.112699 0.314519
-0.255865 -0.11262 0.296568
-0.130574 -0.112576 0.350339
-0.211153 -0.112487 0.30298
-0.269832 -0.112443 0.264764
-0.136593 -0.11237 0.323727
-0.428787 -0.112283 0.170512
-0.182389 -0.11224 0.284819
-0.0928659 -0.112155 0.322443
-0.24244 -0.112129 0.238104
-0.110178 -0.112045 0.29706
-0.11083 -0.112004 0.287824
-0.122847 -0.111921 0.274619
-0.149181 -0.11188 0.252536
-0.124732 -0.111817 0.256781
-0.111833 -0.111737 0.255975
-0.317291 -0.111697 0.144309
-0.163375 -0.111619 0.213985
-0.240971 -0.11158 0.166241
-0.245319 -0.111502 0.156757
-0.141735 -0.111484 0.198729
-0.294933 -0.111408 0.114776
-0.188295 -0.11137 0.159124
-0.122493 -0.111296 0.184641
-0.135625 -0.111222 0.170667
-0.111632 -0.111186 0.173673
-0.0898034 -0.111113 0.177147
-0.257354 -0.111077 0.0843705
0.02898 -0.111006 0.220063
-0.271293 -0.110971 0.0609128
-0.177043 -0.110925 0.0995035
-0.218862 -0.110891 0.0695595
-0.118779 -0.110822 0.112042
-0.250395 -0.110789 0.0371851
-0.152251 -0.110722 0.07866
-0.0851624 -0.110689 0.103142
-0.293477 -0.110624 -0.00865187
0.0182395 -0.110591 0.138129
-0.240578 -0.110527 0.00104299
-0.201901 -0.110465 0.0126757
-0.209572 -0.110433 -0.000265903
0.411241 -0.109219 1.08841
0.243124 -0.108662 1.01375
0.314119 -0.108206 1.05493
0.194884 -0.10789 0.995758
0.10668 -0.107574 0.952202
0.126732 -0.107343 0.959547
0.175283 -0.107142 0.980091
0.244401 -0.106912 1.01203
0.0573909 -0.106683 0.915924
0.213932 -0.106456 0.991592
0.266512 -0.106314 1.01201
0.118942 -0.106116 0.934573
0.170587 -0.105976 0.954537
0.120947 -0.105836 0.923862
0.0371574 -0.105615 0.879324
0.178792 -0.105477 0.944272
0.28719 -0.105341 0.992596
0.0988446 -0.105205 0.892543
0.0815555 -0.105061 0.878341
0.0311956 -0.104927 0.847298
0.190608 -0.104793 0.921129
0.0933034 -0.10466 0.866588
0.297913 -0.104528 0.962989
-0.0511304 -0.104432 0.781189
0.0658249 -0.104303 0.833701
-0.125268 -0.104175 0.732167
0.0454208 -0.104049 0.811497
-0.126426 -0.103942 0.718813
0.12775 -0.103817 0.839861
0.0387605 -0.103711 0.788612
0.0213147 -0.103605 0.77314
-0.11719 -0.10352 0.69631
-0.130429 -0.103401 0.683557
0.0261584 -0.103296 0.755102
-0.0632172 -0.103193 0.703668
-0.171067 -0.10309 0.643
0.111283 -0.103012 0.776397
-0.0705141 -0.102898 0.679244
-0.151614 -0.102808 0.631455
-0.00317854 -0.102735 0.697746
-0.0630076 -0.102625 0.661487
0.00164731 -0.102535 0.686652
-0.102909 -0.102435 0.62762
-0.0689356 -0.102368 0.636506
-0.0824941 -0.10227 0.622961
0.0328625 -0.102214 0.672104
0.0922875 -0.10211 0.695307
-0.400177 -0.10202 0.442037
-0.145324 -0.101924 0.562686
-0.0683838 -0.101865 0.592768
-0.0130902 -0.101771 0.613618
-0.0659416 -0.10172 0.578511
-0.147242 -0.101626 0.531053
-0.054832 -0.101577 0.568525
-0.112329 -0.101484 0.533004
-0.153807 -0.101393 0.505389
-0.0661314 -0.101346 0.540432
-0.0871074 -0.101255 0.523101
-0.183863 -0.101165 0.467873
-0.0407419 -0.10112 0.530607
-0.132262 -0.101031 0.47799
-0.233566 -0.100987 0.418463
-0.0826878 -0.100899 0.487026
-0.170487 -0.100855 0.434299
-0.133917 -0.100771 0.445578
-0.357132 -0.100684 0.327064
-0.114837 -0.100641 0.43938
-0.00554341 -0.10056 0.486917
-0.165325 -0.100518 0.398189
-0.190297 -0.100434 0.378761
-0.127109 -0.100356 0.403135
-0.0102359 -0.100315 0.452727
-0.076931 -0.100233 0.412398
-0.336282 -0.100199 0.273544
-0.347823 -0.100118 0.260763
-0.0747358 -0.100078 0.388453
-0.254837 -0.0999982 0.291375
-0.0919616 -0.0999676 0.36354
-0.129963 -0.099889 0.337481
-0.0711723 -0.0998111 0.359802
-0.226506 -0.0997724 0.273264
-0.156593 -0.0997065 0.300621
-0.197848 -0.0996685 0.271112
-0.133601 -0.099593 0.296105
-0.165556 -0.0995556 0.27124
-0.295394 -0.0994812 0.199168
-0.20898 -0.099457 0.232885
-0.307229 -0.099384 0.17657
-0.217324 -0.0993478 0.212615
-0.0383533 -0.0992759 0.294884
-0.254458 -0.0992048 0.179595
-0.10843 -0.0991695 0.243688
-0.199334 -0.0991145 0.190262
-0.207236 -0.0990799 0.177374
-0.19397 -0.0990113 0.1767
-0.168361 -0.0989773 0.180558
-0.312602 -0.0989099 0.1011
-0.355305 -0.0988764 0.0707918
-0.293478 -0.0988102 0.094336
-0.224158 -0.0987774 0.120029
-0.176664 -0.0987296 0.135537
-0.263462 -0.0986975 0.0831514
-0.314115 -0.0986339 0.0503756
-0.304341 -0.0986024 0.0462639
-0.0881857 -0.09854 0.146857
-0.328561 -0.0985091 0.0176572
-0.149424 -0.098448 0.099704
-0.231159 -0.0984177 0.0498109
-0.261082 -0.0983577 0.0272897
-0.319473 -0.0983281 -0.0109465
-0.0381526 -0.0982694 0.122115
-0.271016 -0.0982404 -0.00337281
-0.114634 -0.098183 0.0671784
-0.174317 -0.0981264 0.0296671
-0.216755 -0.0980984 -0.000635783
0.351685 -0.0950484 1.05776
0.267155 -0.0946277 1.02217
0.319881 -0.0943523 1.04898
0.0633891 -0.0941006 0.920216
0.0705078 -0.0938992 0.921115
0.234068 -0.0936225 1.00359
0.0471709 -0.0934218 0.907563
0.145932 -0.0932966 0.951072
0.182519 -0.0930972 0.966814
0.0100438 -0.0929231 0.87695
0.149956 -0.0927994 0.941075
0.078361 -0.0926762 0.899454
0.182424 -0.0924809 0.948924
0.164295 -0.0923593 0.934033
-0.0812674 -0.0922384 0.805425
0.076 -0.0920913 0.879441
-0.0189736 -0.09195 0.827114
-0.0365707 -0.0918315 0.812471
0.0189165 -0.0917139 0.834361
-0.0489439 -0.0915972 0.794564
-0.00233465 -0.0914815 0.811988
0.00284494 -0.0913667 0.808679
-0.0128827 -0.091253 0.794899
0.0921481 -0.0911581 0.840652
-0.149959 -0.0910637 0.712843
0.117694 -0.0909519 0.840738
-0.0682898 -0.0908582 0.741001
0.233345 -0.0907783 0.884458
-0.10469 -0.0906698 0.709433
0.034335 -0.0905625 0.772907
0.0172709 -0.0904707 0.757635
-0.0283054 -0.0904108 0.726626
0.032264 -0.0903064 0.750807
0.14343 -0.0902159 0.799654
-0.114471 -0.0901259 0.663969
-0.194531 -0.0900362 0.617207
-0.192619 -0.0899679 0.610436
-0.121812 -0.0898685 0.639612
-0.277249 -0.089791 0.554646
-0.101237 -0.0897032 0.635915
-0.0270279 -0.0896397 0.665134
-0.239007 -0.0895529 0.552397
-0.078995 -0.0895011 0.623983
-0.118977 -0.0894075 0.597614
-0.117787 -0.0893223 0.591447
-0.124301 -0.0892449 0.58107
-0.17389 -0.0891889 0.548122
-0.131769 -0.0891051 0.562411
-0.0426824 -0.0890579 0.598399
-0.104092 -0.0889705 0.561133
-0.0279694 -0.0888926 0.592186
0.126144 -0.088844 0.660802
-0.039209 -0.088766 0.571157
-0.238804 -0.0887224 0.462698
-0.0310737 -0.0886398 0.559856
-0.108135 -0.0885621 0.514399
-0.084434 -0.0885195 0.517577
-0.223327 -0.0884416 0.441243
-0.165605 -0.0884017 0.461323
-0.213149 -0.0883238 0.430697
-0.179372 -0.0882851 0.438768
-0.00497427 -0.088208 0.519103
-0.248316 -0.0881315 0.390559
-0.190024 -0.0880945 0.41084
-0.20702 -0.088019 0.395448
-0.0831789 -0.0879816 0.448548
-0.164194 -0.0879093 0.401015
-0.0477379 -0.0878355 0.452312
-0.135148 -0.0877989 0.39978
-0.190756 -0.0877297 0.364842
-0.103421 -0.0876936 0.399675
-0.1184 -0.0876218 0.385213
-0.175764 -0.0875862 0.347696
-0.0293199 -0.0875205 0.413661
-0.174594 -0.0874854 0.332179
-0.226419 -0.0874157 0.299248
-0.181874 -0.0873466 0.314486
-0.0428175 -0.0873189 0.374814
-0.18786 -0.0872509 0.295226
-0.152342 -0.0872172 0.304123
-0.284877 -0.0871502 0.230767
-0.247932 -0.087117 0.240373
-0.19283 -0.0870593 0.260369
-0.22138 -0.0870266 0.237215
-0.247012 -0.0869618 0.217251
-0.222801 -0.0869296 0.220471
-0.291644 -0.0868658 0.178876
-0.176971 -0.086844 0.226786
-0.199209 -0.0867813 0.208455
-0.268467 -0.0867503 0.164918
-0.282614 -0.0866886 0.150604
-0.099955 -0.0866581 0.233017
-0.0940655 -0.0865975 0.228692
-0.274914 -0.0865674 0.129342
-0.227558 -0.0865197 0.14507
-0.234042 -0.0864903 0.132885
-0.142829 -0.0864319 0.171147
-0.175725 -0.086403 0.145745
-0.329522 -0.0863457 0.0614686
-0.477209 -0.0862892 -0.019778
-0.147257 -0.0862611 0.136223
-0.250092 -0.0862056 0.0773668
-0.280687 -0.0861781 0.0530814
-0.314527 -0.0861237 0.0286859
-0.267735 -0.0860968 0.0430801
-0.226806 -0.0860434 0.0560312
-0.211158 -0.086017 0.0548391
-0.21929 -0.0859648 0.04322
-0.301231 -0.085939 -0.00678162
-0.177676 -0.0858878 0.0474021
-0.328707 -0.0858626 -0.0371606
-0.0881971 -0.0858126 0.0754588
-0.220866 -0.0857878 5.99824e-05
0.481624 -0.0812126 1.11261
0.286813 -0.0808508 1.02209
0.257353 -0.0806144 1.00793
0.0932528 -0.080442 0.923236
0.139506 -0.0802048 0.9471
0.122145 -0.0800326 0.935873
0.3305 -0.0799253 1.0342
0.222165 -0.0797541 0.97753
0.0456246 -0.0796048 0.885663
0.17353 -0.0794986 0.943815
0.11582 -0.0793297 0.912464
0.137503 -0.0792247 0.917514
0.0126061 -0.0791202 0.849277
0.142315 -0.0789742 0.910557
0.0550265 -0.0788709 0.861124
0.123358 -0.0787682 0.889497
-0.0372283 -0.0786662 0.803405
-0.108036 -0.0785649 0.762195
0.0151306 -0.0784644 0.817961
0.0134892 -0.0783646 0.811311
0.00317237 -0.0782656 0.800307
0.101709 -0.0781675 0.843713
0.0657623 -0.0780863 0.818989
0.0380074 -0.0779895 0.799235
0.140223 -0.0778935 0.844442
-0.117653 -0.0778135 0.708767
0.195445 -0.0777338 0.858584
-0.0277672 -0.0776649 0.739672
-0.0699883 -0.0775722 0.712586
-0.00158763 -0.0774806 0.740779
-0.0105961 -0.0774024 0.729547
-0.0627222 -0.0773375 0.696048
0.0448729 -0.0772737 0.742372
-0.148962 -0.077185 0.639378
-0.0515197 -0.0771084 0.681373
-0.0747375 -0.0770321 0.66304
-0.043253 -0.0769733 0.671108
-0.124465 -0.0768979 0.623771
-0.12334 -0.0768229 0.617603
-0.194166 -0.0767763 0.573878
-0.149092 -0.0766935 0.590162
-0.157746 -0.0766281 0.578619
-0.233582 -0.0765754 0.532785
-0.150411 -0.0765025 0.567623
-0.160759 -0.0764299 0.555698
-0.0687223 -0.0763872 0.593281
-0.180372 -0.0763096 0.531034
-0.118286 -0.0762441 0.554976
0.0203235 -0.076198 0.616083
-0.270528 -0.0761325 0.463596
-0.099793 -0.0760886 0.540667
-0.095798 -0.0760191 0.535869
-0.122845 -0.0759538 0.515325
-0.167279 -0.0759127 0.484693
-0.100486 -0.0758473 0.511106
-0.0516844 -0.0758085 0.526984
-0.126092 -0.0757411 0.482945
-0.199544 -0.0757076 0.437409
-0.0412706 -0.0756401 0.509758
-0.0595466 -0.0755749 0.493712
-0.167908 -0.0755413 0.430764
-0.114993 -0.0754761 0.450348
-0.277284 -0.0754436 0.360391
-0.0761376 -0.0753791 0.454079
-0.13772 -0.0753152 0.416391
-0.259122 -0.0752833 0.346877
-0.0286198 -0.075221 0.455164
-0.336191 -0.0751896 0.29256
-0.10141 -0.0751274 0.403014
-0.228053 -0.0750983 0.330755
-0.0506116 -0.075037 0.412512
-0.128525 -0.0750065 0.364727
-0.0446944 -0.074946 0.399661
-0.226767 -0.0749191 0.2996
-0.0831468 -0.0748596 0.364398
-0.0891947 -0.07483 0.352534
-0.235949 -0.0747712 0.272124
-0.254745 -0.0747421 0.253882
-0.0897363 -0.0746887 0.329047
-0.289739 -0.0746315 0.221962
-0.115944 -0.0746031 0.3
-0.201846 -0.0745468 0.249941
-0.197534 -0.0745188 0.243231
-0.14292 -0.0744693 0.263028
-0.176233 -0.0744419 0.237492
-0.160386 -0.0743874 0.238245
-0.100594 -0.0743604 0.259254
-0.220605 -0.0743068 0.192049
-0.231625 -0.0742802 0.177644
-0.0685896 -0.0742349 0.251457
-0.210368 -0.0742089 0.171656
-0.196373 -0.0741572 0.171384
-0.282381 -0.0741316 0.119459
0.0105911 -0.0740808 0.258643
-0.0930655 -0.0740556 0.197883
-0.114758 -0.0740058 0.179702
-0.275328 -0.0739811 0.0904735
-0.217823 -0.0739321 0.111857
-0.245014 -0.0739078 0.0893051
-0.220565 -0.0738693 0.0935119
-0.201299 -0.0738456 0.0941696
-0.234006 -0.0737986 0.0703633
-0.308127 -0.0737754 0.0243134
-0.357811 -0.0737294 -0.00801961
-0.103416 -0.0737066 0.110174
-0.0846727 -0.0736615 0.112015
-0.200006 -0.0736392 0.0453298
-0.25316 -0.0735951 0.0111808
-0.298018 -0.0735733 -0.0202831
-0.221052 -0.0735302 0.010586
-0.296896 -0.0735089 -0.036388
0.327661 -0.067744 1.01998
0.309527 -0.0673928 1.02088
0.253113 -0.067143 0.996524
0.242515 -0.0669996 0.988598
0.362958 -0.066856 1.04625
0.255951 -0.0666768 0.992441
0.0585296 -0.0665691 0.889033
0.0959441 -0.0664443 0.904151
0.103333 -0.0663019 0.905399
0.250331 -0.0662132 0.973127
0.28805 -0.0660721 0.989546
0.117767 -0.0659844 0.898646
-0.0158499 -0.065862 0.828299
0.110936 -0.0657752 0.885942
0.136989 -0.0656889 0.893219
0.142957 -0.065603 0.890452
-0.00551984 -0.0655176 0.810459
0.083467 -0.0654328 0.849191
0.0662987 -0.0653486 0.834837
0.00963832 -0.065265 0.800725
-0.0134281 -0.0651821 0.783398
-0.10879 -0.0650998 0.729907
-0.0513599 -0.0650183 0.752794
-0.0161393 -0.0649511 0.763669
0.0598418 -0.0648706 0.795815
-0.172253 -0.0647909 0.6739
-0.0826016 -0.064712 0.712833
0.000283028 -0.0646587 0.746723
0.101866 -0.064593 0.790797
0.0600895 -0.0645241 0.763432
-0.182703 -0.0644591 0.635319
-0.010571 -0.0643834 0.715405
0.0109931 -0.06433 0.718739
-0.153199 -0.0642766 0.629224
0.0516429 -0.0642029 0.725596
-0.0925493 -0.0641396 0.646782
-0.0762944 -0.0640863 0.647535
-0.0760133 -0.064036 0.640121
-0.0427605 -0.063965 0.650611
-0.221577 -0.0639116 0.553898
-0.143925 -0.0638642 0.585023
-0.224388 -0.0638029 0.53806
-0.0706591 -0.0637651 0.606608
-0.104156 -0.0637044 0.583122
-0.231654 -0.0636441 0.512633
-0.122545 -0.0636076 0.558827
-0.289069 -0.063542 0.469219
-0.0333114 -0.0634886 0.589941
-0.167819 -0.0634483 0.514634
-0.235781 -0.0633898 0.473881
-0.0997102 -0.0633365 0.534799
-0.369311 -0.0632985 0.391834
0.0357653 -0.0632452 0.587291
-0.0707743 -0.063209 0.525756
-0.219506 -0.0631523 0.444583
-0.124097 -0.0631241 0.483487
-0.18347 -0.0630653 0.447169
-0.140274 -0.0630122 0.461758
-0.00216606 -0.0629803 0.522315
-0.207438 -0.0629271 0.412705
-0.176445 -0.0628982 0.419518
-0.219796 -0.062844 0.390978
-0.0961471 -0.0628162 0.444058
-0.185197 -0.0627627 0.392645
-0.267681 -0.0627361 0.342596
-0.0492587 -0.0626833 0.444905
-0.120375 -0.0626571 0.400539
-0.136318 -0.0626049 0.38565
-0.200519 -0.0625532 0.346619
-0.23531 -0.0625274 0.32041
-0.10901 -0.062477 0.376565
-0.310723 -0.0624517 0.266888
-0.114578 -0.0624014 0.357983
-0.101195 -0.0623765 0.355851
-0.182377 -0.0623286 0.308139
-0.194701 -0.062304 0.293144
-0.223885 -0.0622552 0.271523
-0.114816 -0.062231 0.31722
-0.244584 -0.062183 0.245284
-0.154171 -0.0621619 0.281441
-0.0764892 -0.0621146 0.313196
-0.143657 -0.0620912 0.270757
-0.258361 -0.0620447 0.206293
-0.200793 -0.0620216 0.226215
-0.201744 -0.0619758 0.2186
-0.156797 -0.0619571 0.231903
-0.210188 -0.0619121 0.19803
-0.18854 -0.0618898 0.19997
-0.230387 -0.0618456 0.171839
-0.165499 -0.0618237 0.19539
-0.31364 -0.0617803 0.114082
-0.155026 -0.0617587 0.184485
-0.070479 -0.0617214 0.21908
-0.244905 -0.0617003 0.122946
-0.120184 -0.0616585 0.177994
-0.139614 -0.0616377 0.159347
-0.110229 -0.0615967 0.166691
-0.157712 -0.0615764 0.134006
-0.409466 -0.0615361 0.000744538
-0.268283 -0.0615162 0.0623783
-0.285767 -0.0614767 0.0462151
-0.237729 -0.0614572 0.0612624
-0.0196402 -0.0614185 0.162847
-0.250257 -0.0613993 0.0385526
-0.202692 -0.0613614 0.0548347
-0.216431 -0.0613427 0.0389639
-0.244191 -0.0613056 0.0175425
-0.230644 -0.0612873 0.0152983
-0.0471077 -0.061251 0.0994825
-0.157435 -0.0612331 0.0352838
0.102605 -0.0540255 0.897349
0.197991 -0.0537861 0.951962
0.142332 -0.0536293 0.924767
0.268359 -0.0534717 0.988543
0.250015 -0.053357 0.976868
0.178491 -0.0532423 0.938649
0.163709 -0.0531279 0.928834
0.0073506 -0.0530138 0.84825
0.237591 -0.0529003 0.960973
0.196453 -0.0528297 0.934667
0.0588483 -0.0527594 0.860137
-0.12167 -0.0526614 0.766371
0.114079 -0.0525918 0.878531
0.0930101 -0.0525225 0.862284
0.171152 -0.0524536 0.895643
0.157396 -0.052385 0.883051
0.0666924 -0.0523169 0.83198
0.0109207 -0.0522348 0.799531
0.0305636 -0.0521549 0.804651
-0.189057 -0.0521006 0.688092
-0.110421 -0.0520466 0.720668
0.0321739 -0.0519836 0.785979
-0.00353436 -0.0519299 0.761397
0.0829425 -0.0518651 0.798845
-0.0816932 -0.0518009 0.710715
-0.00162877 -0.0517374 0.744911
-0.0107935 -0.0516848 0.733614
0.176303 -0.0516324 0.82045
-0.139395 -0.0515861 0.655409
-0.147059 -0.0515343 0.64487
-0.233586 -0.0514732 0.595689
0.063289 -0.0514218 0.737419
-0.0491617 -0.0513872 0.673107
-0.0719263 -0.0513278 0.655742
0.0523034 -0.0512772 0.711147
-0.105689 -0.051227 0.625441
0.137076 -0.0511939 0.738681
-0.0805399 -0.0511365 0.623806
-0.0777376 -0.0510945 0.61785
-0.197231 -0.0510553 0.550533
-0.143881 -0.0509997 0.57105
-0.250774 -0.0509577 0.510314
-0.00580538 -0.050927 0.624551
-0.0776255 -0.0508728 0.582424
-0.242034 -0.0508489 0.491419
-0.0648093 -0.0507959 0.57376
-0.0538419 -0.0507486 0.572491
0.00678725 -0.0507202 0.594433
-0.086237 -0.0506735 0.541158
-0.0798646 -0.0506318 0.537165
-0.129094 -0.0505999 0.504534
-0.146798 -0.0505541 0.488897
-0.230038 -0.0505277 0.438803
-0.248277 -0.0504824 0.422884
-0.0342528 -0.0504599 0.521104
-0.198694 -0.0504122 0.432332
-0.202752 -0.0503707 0.423228
-0.0889564 -0.0503458 0.471581
-0.180404 -0.050302 0.419019
-0.0586899 -0.050278 0.471275
-0.169828 -0.0502348 0.408848
-0.180389 -0.0502118 0.394907
-0.0706531 -0.0501691 0.442894
-0.111309 -0.0501479 0.413765
-0.0642316 -0.050105 0.430478
-0.25018 -0.0500652 0.330418
-0.232976 -0.0500427 0.330379
-0.29284 -0.050002 0.293462
-0.257621 -0.0499811 0.302308
-0.13255 -0.0499405 0.357889
-0.178269 -0.0499203 0.326216
-0.254991 -0.0498803 0.28088
-0.319729 -0.0498604 0.239692
-0.198616 -0.0498209 0.293253
0.0336334 -0.0498012 0.400555
-0.208108 -0.0497629 0.272613
-0.283473 -0.0497436 0.226097
-0.206173 -0.0497053 0.257696
-0.0140656 -0.0496863 0.344911
-0.124696 -0.04965 0.28239
-0.110612 -0.0496313 0.280581
-0.208133 -0.0495943 0.224708
-0.342057 -0.0495759 0.148887
-0.0976568 -0.0495395 0.263947
-0.169535 -0.0495214 0.219141
-0.153863 -0.0494856 0.219807
-0.361289 -0.0494702 0.106992
-0.394751 -0.049435 0.0830514
-0.347646 -0.0494176 0.0977127
-0.187284 -0.049383 0.170652
-0.151303 -0.0493659 0.179741
-0.266467 -0.049332 0.114884
-0.294897 -0.0493152 0.0917561
-0.266283 -0.0492819 0.098754
-0.240141 -0.0492654 0.1029
-0.251389 -0.049249 0.0883473
-0.140338 -0.0492201 0.136168
-0.151409 -0.049204 0.121685
-0.114188 -0.0491723 0.132894
-0.129702 -0.0491565 0.116176
-0.281728 -0.0491254 0.0327227
-0.233291 -0.04911 0.0479655
-0.204769 -0.0490795 0.0547455
-0.196928 -0.0490644 0.0496746
-0.372798 -0.0490346 -0.0457825
-0.216984 -0.0490199 0.0231166
-0.188507 -0.0489907 0.0297902
-0.217449 -0.0489763 0.00629425
0.234834 -0.0403819 0.95453
0.24495 -0.0402334 0.963442
0.0987216 -0.0401157 0.891072
0.274203 -0.0399975 0.979673
0.162718 -0.0399116 0.921497
0.351321 -0.0398257 1.0134
0.0885815 -0.0397401 0.879666
0.130252 -0.0396869 0.894778
0.143064 -0.0396128 0.897688
0.181575 -0.039549 0.9124
0.239653 -0.0394755 0.93796
0.130754 -0.0394232 0.877828
0.11187 -0.0393711 0.862708
0.0242172 -0.0393193 0.813206
-0.0575196 -0.0392677 0.766661
-0.0648369 -0.0391859 0.760597
-0.162943 -0.0391451 0.704785
0.08167 -0.0390945 0.821398
-0.0542686 -0.0390444 0.747724
0.0316718 -0.0389946 0.784978
0.149491 -0.0389745 0.834972
-0.019993 -0.0389252 0.744509
0.161072 -0.0388763 0.829303
-0.0519326 -0.0388278 0.717042
0.013929 -0.0387798 0.744191
-0.187184 -0.0387405 0.636926
-0.0283164 -0.0386932 0.710556
-0.0649465 -0.0386658 0.684257
-0.0637371 -0.038627 0.67816
-0.207489 -0.0385808 0.600428
-0.0659743 -0.0385351 0.665297
-0.112185 -0.038516 0.633355
-0.216146 -0.038471 0.575455
-0.130041 -0.0384332 0.611805
-0.0344616 -0.0383956 0.652891
-0.160994 -0.0383703 0.581549
-0.0713823 -0.0383268 0.620355
-0.131873 -0.0382898 0.583398
-0.0983317 -0.0382656 0.592029
-0.0263295 -0.038229 0.621315
-0.0533069 -0.0381926 0.601107
-0.318448 -0.038169 0.460361
-0.222539 -0.038128 0.502171
-0.114497 -0.0380972 0.54888
-0.137869 -0.0380698 0.529515
-0.174172 -0.0380345 0.504617
-0.147569 -0.0380126 0.509622
-0.00480751 -0.0379777 0.574246
-0.14596 -0.0379471 0.496426
-0.239486 -0.037922 0.441795
0.0511869 -0.0378878 0.580353
-0.227884 -0.0378707 0.432033
-0.221322 -0.0378336 0.42891
-0.214332 -0.0378167 0.42362
-0.0359249 -0.0377805 0.506351
-0.162722 -0.0377638 0.434166
-0.125427 -0.0377308 0.445991
-0.413549 -0.037698 0.295097
-0.0559363 -0.0376795 0.465385
-0.378872 -0.0376472 0.297063
-0.149836 -0.0376311 0.402791
-0.219398 -0.0375974 0.361347
-0.123725 -0.0375816 0.400388
-0.0838305 -0.0375501 0.413443
-0.228254 -0.0375333 0.332581
-0.294147 -0.0375023 0.292716
-0.276634 -0.0374869 0.29267
-0.209941 -0.0374563 0.319079
-0.19972 -0.0374405 0.31546
-0.255503 -0.0374104 0.280603
-0.178899 -0.0373954 0.310091
-0.292604 -0.0373657 0.246251
-0.235786 -0.037351 0.265841
-0.21296 -0.0373217 0.270245
-0.0195581 -0.0373072 0.358122
-0.124954 -0.0372783 0.29839
-0.209042 -0.037264 0.247516
-0.204912 -0.0372356 0.242522
-0.0701484 -0.0372215 0.301067
-0.214782 -0.0371935 0.221664
-0.124515 -0.0371796 0.257953
-0.089703 -0.0371525 0.268188
-0.264234 -0.0371389 0.172065
-0.328114 -0.0371119 0.132973
-0.39598 -0.0370985 0.0901729
-0.327888 -0.0370719 0.117036
-0.0834767 -0.0370587 0.230365
-0.267405 -0.0370326 0.131187
-0.304135 -0.0370209 0.103783
-0.168051 -0.0369953 0.164568
-0.240832 -0.0369826 0.119274
-0.265861 -0.0369575 0.0994686
-0.282134 -0.036945 0.082416
-0.230246 -0.0369204 0.101033
-0.275949 -0.0369082 0.0692526
-0.299986 -0.0368961 0.0483017
-0.150495 -0.0368721 0.115672
-0.155337 -0.0368602 0.104304
-0.212577 -0.0368366 0.0682701
-0.195642 -0.036825 0.0677763
-0.247688 -0.0368019 0.0342984
-0.36715 -0.0367905 -0.0344096
-0.331485 -0.036768 -0.0240739
-0.211609 -0.0367568 0.0268708
-0.221952 -0.0367348 0.0141594
-0.257415 -0.0367239 -0.0125828
0.204664 -0.0268581 0.926262
0.107602 -0.0267592 0.88169
0.165081 -0.0266808 0.911257
0.0823108 -0.0266161 0.868612
0.0578995 -0.0265589 0.854029
0.228514 -0.0265093 0.935809
0.0302244 -0.0264523 0.834356
0.112103 -0.0263954 0.873004
-0.0960623 -0.0263601 0.763252
-0.0313122 -0.026325 0.78997
0.152864 -0.0262688 0.879784
0.076349 -0.026234 0.83588
0.0378735 -0.0261994 0.810999
0.0624492 -0.0261649 0.817646
-0.204809 -0.0261306 0.678375
0.122138 -0.026083 0.838401
0.00274366 -0.0260492 0.773051
-0.00743259 -0.0260156 0.762302
-0.0849704 -0.0259822 0.717862
0.0719198 -0.0259689 0.787396
0.0177267 -0.0259358 0.754625
0.0813508 -0.0259031 0.780747
0.0321021 -0.0258706 0.750415
-0.109838 -0.0258384 0.673716
0.0405661 -0.0258122 0.742214
0.0294527 -0.0257805 0.730907
-0.1383 -0.025762 0.639104
-0.128816 -0.0257362 0.637149
-0.0650365 -0.0257051 0.663241
-0.0916125 -0.0256745 0.644124
-0.0725157 -0.0256618 0.644842
0.0635358 -0.0256315 0.707011
0.0193056 -0.0256064 0.678198
-0.145679 -0.0255814 0.589005
-0.0810121 -0.0255642 0.613328
-0.190171 -0.025535 0.552814
-0.137103 -0.0255104 0.572642
-0.136346 -0.0254939 0.564949
-0.0230166 -0.0254696 0.614903
-0.0864979 -0.0254454 0.576447
-0.00350742 -0.0254293 0.609837
-0.0524484 -0.0254017 0.579293
0.00787351 -0.0253898 0.600665
-0.139409 -0.0253626 0.520899
-0.274739 -0.0253391 0.446493
-0.18904 -0.0253275 0.480559
-0.282436 -0.025301 0.427669
0.0382044 -0.0252895 0.579209
-0.0994855 -0.0252636 0.504114
-0.133198 -0.0252437 0.479979
-0.142061 -0.0252295 0.467272
-0.129166 -0.0252044 0.467392
-0.317542 -0.0251933 0.364425
-0.101422 -0.0251687 0.466091
-0.111976 -0.0251577 0.452033
-0.0118701 -0.0251358 0.495266
-0.0930874 -0.0251162 0.447435
-0.167813 -0.0251012 0.402028
0.0347777 -0.0250817 0.496131
-0.0462523 -0.0250691 0.44717
-0.229669 -0.0250479 0.348594
-0.364981 -0.0250358 0.272434
-0.197115 -0.0250149 0.349475
-0.052308 -0.0250045 0.413086
-0.103064 -0.0249839 0.380798
-0.210883 -0.0249725 0.318311
-0.105215 -0.0249522 0.364207
-0.26026 -0.0249421 0.277883
-0.144822 -0.0249212 0.328795
-0.244672 -0.0249113 0.27006
-0.26421 -0.0248916 0.253303
-0.246716 -0.0248818 0.253234
-0.165227 -0.024862 0.287049
-0.160432 -0.0248524 0.280621
-0.158633 -0.0248333 0.274476
-0.16731 -0.0248238 0.261305
-0.156111 -0.024805 0.259834
-0.27666 -0.0247957 0.19072
-0.255637 -0.0247772 0.194133
-0.432656 -0.024768 0.0967754
-0.17162 -0.0247498 0.220166
-0.0428667 -0.0247408 0.275686
-0.397079 -0.0247318 0.0897207
-0.221059 -0.024714 0.170565
-0.329185 -0.0247052 0.107633
-0.0559171 -0.0246877 0.237069
-0.222828 -0.024679 0.144734
-0.0526023 -0.0246619 0.222615
-0.195561 -0.0246533 0.142245
-0.190622 -0.0246365 0.137447
-0.130013 -0.0246281 0.158848
-0.287068 -0.024612 0.0729395
-0.198288 -0.0246038 0.108409
-0.295519 -0.0245876 0.0524452
-0.404503 -0.0245796 -0.0109812
-0.319346 -0.0245716 0.022659
-0.10637 -0.0245559 0.121749
-0.208527 -0.024548 0.0617175
-0.162032 -0.0245326 0.0775258
-0.0965868 -0.024525 0.10128
-0.214936 -0.0245099 0.0346238
-0.142242 -0.0245024 0.0619854
-0.218414 -0.0244876 0.0163753
-0.242541 -0.0244803 -0.00469116
0.0819559 -0.0134188 0.845172
0.0739077 -0.0133446 0.85295
0.147536 -0.0133161 0.887309
0.238769 -0.0132768 0.93394
0.0470644 -0.0132483 0.835769
0.141173 -0.0132198 0.880543
0.278758 -0.0132021 0.943667
0.155514 -0.0131737 0.879809
0.0883 -0.0131561 0.840567
0.22919 -0.013128 0.908788
0.068766 -0.0131105 0.822958
0.193696 -0.0130932 0.879811
0.0411955 -0.0130759 0.797952
0.046299 -0.0130587 0.794896
0.0737451 -0.0130417 0.803011
0.0665608 -0.0130247 0.793808
0.0460477 -0.0130112 0.776812
0.0751702 -0.0129944 0.785764
0.105731 -0.0129777 0.795426
-0.119283 -0.0129611 0.677289
-0.0241232 -0.0129446 0.719225
-0.053042 -0.0129283 0.699106
0.0359557 -0.0129121 0.737926
-0.151367 -0.0128991 0.637562
0.0804074 -0.0128831 0.747752
-0.136146 -0.0128766 0.630624
-0.0589596 -0.0128609 0.663503
-0.103997 -0.0128452 0.635242
-0.297868 -0.0128298 0.532536
-0.264114 -0.0128235 0.540587
0.0265944 -0.0128082 0.680143
-0.0154225 -0.0127957 0.652439
-0.163036 -0.0127832 0.571934
-0.0905861 -0.0127745 0.600213
-0.0768017 -0.0127598 0.601234
-0.141236 -0.0127499 0.561486
-0.139009 -0.0127391 0.555421
-0.0403195 -0.012727 0.598058
-0.0359605 -0.0127172 0.592736
0.126666 -0.0127068 0.666802
-0.0960371 -0.0126928 0.549444
-0.00349851 -0.0126868 0.58693
-0.151449 -0.0126731 0.5069
-0.0038503 -0.0126633 0.57329
-0.0892551 -0.0126556 0.522479
-0.108022 -0.0126422 0.506976
-0.0642279 -0.0126365 0.520097
-0.166232 -0.0126234 0.462918
-0.191487 -0.0126154 0.442323
-0.172234 -0.0126064 0.444368
-0.131937 -0.0125952 0.457734
-0.198482 -0.0125881 0.416217
-0.170899 -0.0125771 0.423208
-0.0836764 -0.0125702 0.458526
-0.238575 -0.0125593 0.374257
-0.299135 -0.0125539 0.335201
-0.200392 -0.0125419 0.378164
-0.0837082 -0.0125365 0.427726
-0.0416939 -0.0125259 0.441878
0.017016 -0.0125206 0.462452
-0.0812737 -0.0125091 0.406799
-0.180204 -0.0125039 0.348548
-0.274836 -0.0124935 0.294336
-0.147623 -0.0124884 0.349153
-0.269737 -0.0124774 0.281481
-0.266755 -0.0124723 0.274176
-0.228558 -0.0124622 0.286331
-0.168202 -0.0124572 0.307709
-0.142855 -0.0124467 0.313651
-0.22052 -0.0124418 0.26601
-0.317926 -0.012432 0.21031
-0.25621 -0.0124272 0.232353
-0.226326 -0.0124176 0.240273
-0.0477458 -0.0124124 0.320906
-0.166667 -0.0124029 0.25439
-0.0720193 -0.0123983 0.292882
-0.234693 -0.012389 0.204461
-0.108327 -0.0123844 0.258804
-0.237461 -0.0123752 0.187124
-0.165734 -0.0123707 0.214138
-0.189675 -0.0123615 0.195099
-0.154952 -0.0123571 0.203598
-0.195972 -0.0123484 0.175842
-0.159222 -0.0123439 0.185408
-0.0366953 -0.0123395 0.237796
-0.278095 -0.0123309 0.109872
-0.131238 -0.0123267 0.174413
-0.290989 -0.0123182 0.0872775
-0.124444 -0.012314 0.16165
-0.256254 -0.0123057 0.0884497
-0.204083 -0.0123016 0.105623
-0.139592 -0.0122935 0.130535
-0.0460865 -0.0122894 0.16836
-0.154116 -0.0122815 0.106965
-0.0840208 -0.0122775 0.133079
-0.185634 -0.0122736 0.0733269
-0.210566 -0.0122658 0.0534419
-0.406472 -0.012262 -0.0534696
-0.18725 -0.0122544 0.0486814
-0.3146 -0.0122506 -0.0239681
-0.216287 -0.0122432 0.0176841
-0.222789 -0.0122396 0.00541271
0.363315 0 0.969368
0.0381924 0 0.815314
0.121022 0 0.857676
0.115727 0 0.853907
0.164823 0 0.879608
0.205998 0 0.894536
0.0526944 0 0.815683
0.0739949 0 0.82415
0.071826 0 0.817466
0.213333 0 0.882632
-0.0135991 0 0.765784
-0.0869661 0 0.723529
0.0887426 0 0.805817
-0.0875374 0 0.712112
0.0826029 0 0.791618
-0.00248184 0 0.743509
-0.112825 0 0.682765
-0.0870091 0 0.690095
-0.0134025 0 0.72131
-0.122307 0 0.661257
-0.0537862 0 0.689904
-0.00010202 0 0.710039
-0.169152 0 0.619886
0.0119287 0 0.702626
-0.16711 0 0.606411
-0.073745 0 0.64743
-0.172862 0 0.592183
0.0170429 0 0.68044
-0.107419 0 0.610366
-0.015013 0 0.649876
-0.163279 0 0.569999
-0.052651 0 0.616505
0.00452655 0 0.63932
-0.261161 0 0.500666
-0.233687 0 0.505607
-0.234695 0 0.499257
-0.0598119 0 0.57999
-0.0498063 0 0.577026
-0.0662578 0 0.562086
-0.173698 0 0.501645
-0.119994 0 0.520499
-0.0668102 0 0.540362
-0.260725 0 0.43537
-0.0847465 0 0.51662
-0.440189 0 0.332152
-0.116382 0 0.48598
-0.0771795 0 0.498821
-0.00516731 0 0.526711
-0.0701929 0 0.487423
-0.0936313 0 0.466934
-0.132153 0 0.441492
-0.272288 0 0.364021
-0.110529 0 0.436729
-0.0696307 0 0.450362
-0.18891 0 0.382502
-0.228797 0 0.355722
-0.186372 0 0.368662
-0.247563 0 0.331208
-0.244021 0 0.3242
-0.291799 0 0.293882
-0.272079 0 0.294958
-0.0565195 0 0.395837
-0.288694 0 0.270962
-0.233875 0 0.291836
-0.177005 0 0.311477
-0.301751 0 0.242155
-0.174925 0 0.296769
-0.0687135 0 0.342902
-0.204503 0 0.266523
-0.201645 0 0.260635
-0.346152 0 0.179881
-0.249005 0 0.22112
-0.309416 0 0.182399
-0.273421 0 0.193042
-0.130862 0 0.256035
-0.289105 0 0.16808
-0.435008 0 0.0880289
-0.163114 0 0.215133
-0.0931877 0 0.242967
-0.108194 0 0.226611
-0.180081 0 0.183506
-0.1016 0 0.214046
-0.191544 0 0.161873
-0.250012 0 0.123761
-0.298065 0 0.0921502
-0.196658 0 0.134312
-0.221364 0 0.113066
-0.266196 0 0.0833682
-0.167623 0 0.123748
-0.0581903 0 0.171145
-0.0433253 0 0.169657
-0.3366 0 0.0156604
-0.319695 0 0.0151779
-0.362166 0 -0.014997
-0.366187 0 -0.024419
-0.335628 0 -0.0180943
-0.189608 0 0.0474618
-0.26858 0 -0.000995892
-0.267338 0 -0.00787271
-0.167744 0 0.0329636
0.124055 0.013315 0.841791
0.241486 0.0132723 0.902725
0.232284 0.0132331 0.899265
0.19541 0.0132047 0.878608
0.117699 0.013187 0.834121
0.0720073 0.0131587 0.809126
0.0182183 0.0131304 0.780104
0.0355787 0.0131129 0.783219
0.144681 0.0130954 0.832217
0.0676668 0.0130674 0.791607
-0.0762323 0.0130501 0.714118
-0.235281 0.0130329 0.629057
0.0966544 0.0130158 0.789492
0.0979357 0.0129988 0.784598
-0.0920352 0.0129819 0.684076
0.111152 0.012965 0.780128
0.0839175 0.0129483 0.760961
0.0565709 0.0129317 0.741728
0.0176856 0.0129187 0.715572
-0.146751 0.0129023 0.627786
-0.048676 0.0128924 0.669086
-0.141292 0.0128796 0.616078
0.0669908 0.0128634 0.714626
-0.0439082 0.0128475 0.653562
-0.145567 0.0128317 0.597095
0.038511 0.0128253 0.680307
-0.0829267 0.0128097 0.61393
-0.123264 0.0127972 0.587067
-0.138321 0.0127848 0.57284
-0.225273 0.0127757 0.521566
-0.126299 0.0127605 0.565337
-0.257012 0.0127455 0.494229
-0.159095 0.0127394 0.534393
-0.0783326 0.0127246 0.568989
-0.14691 0.0127153 0.527071
-0.101989 0.0127066 0.541664
-0.1698 0.0126922 0.501928
-0.297451 0.0126863 0.429322
-0.321991 0.012672 0.411179
-0.0803167 0.0126604 0.525285
-0.0656444 0.0126522 0.524658
-0.0498346 0.0126407 0.525821
-0.0911939 0.0126349 0.496369
-0.243449 0.0126213 0.41426
-0.184534 0.0126121 0.436188
-0.0841106 0.0126023 0.479124
-0.317843 0.0125911 0.35548
-0.244539 0.0125855 0.383363
-0.125473 0.0125726 0.436787
-0.184452 0.0125671 0.398527
-0.155568 0.0125562 0.406161
-0.109518 0.0125507 0.420416
-0.126811 0.0125382 0.405578
-0.197916 0.0125328 0.361253
-0.299625 0.0125222 0.303554
-0.256692 0.0125153 0.316829
-0.1155 0.0125048 0.380559
-0.235821 0.0124996 0.31162
-0.197866 0.0124893 0.323711
-0.081591 0.0124827 0.373594
-0.250115 0.0124725 0.282421
-0.221785 0.0124674 0.287798
-0.281203 0.0124574 0.251156
-0.135263 0.0124511 0.315802
-0.202263 0.0124412 0.275341
-0.204999 0.0124363 0.265172
-0.121926 0.0124266 0.299722
-0.0137924 0.0124218 0.344982
-0.261274 0.0124111 0.214631
-0.13265 0.0124063 0.270127
-0.219084 0.0123969 0.219864
-0.0608932 0.0123922 0.290136
-0.26777 0.0123829 0.179623
-0.252242 0.0123783 0.178554
0.0407054 0.0123729 0.316526
-0.221094 0.0123638 0.178509
-0.0829124 0.0123593 0.238752
-0.195146 0.0123504 0.175486
-0.19079 0.012346 0.168806
-0.122217 0.0123373 0.195909
-0.204065 0.0123329 0.146116
-0.186471 0.0123243 0.147694
-0.46189 0.0123201 0.00110327
-0.249106 0.0123152 0.0988583
-0.13031 0.0123068 0.150986
-0.324433 0.0123027 0.0450242
-0.234118 0.0122945 0.0828739
-0.234887 0.0122904 0.0735747
-0.233392 0.0122824 0.0669746
-0.15753 0.0122784 0.0959762
-0.255713 0.0122745 0.0379515
-0.0877213 0.0122666 0.114547
-0.211991 0.0122628 0.0434628
-0.241628 0.0122551 0.021202
-0.228404 0.0122513 0.0188477
-0.175393 0.0122439 0.0378666
-0.156633 0.0122402 0.0382631
0.218034 0.0266331 0.865555
0.157544 0.0265055 0.844316
0.209943 0.0264489 0.868255
0.0983311 0.0263842 0.811537
0.20767 0.0263275 0.864072
0.105681 0.0262709 0.810978
0.18117 0.0262358 0.843171
-0.0620219 0.0261795 0.719515
0.0318072 0.0261447 0.760908
0.102656 0.02611 0.790821
0.0522003 0.0260755 0.760091
-0.0240519 0.0260201 0.719908
-0.0296431 0.025986 0.711608
-0.000304423 0.0259521 0.720773
-0.042396 0.0259258 0.692987
0.041426 0.0258922 0.729398
-0.091852 0.0258587 0.657252
-0.27832 0.0258385 0.556343
-0.120365 0.0258126 0.628607
0.000816821 0.0257797 0.68368
-0.0870462 0.0257471 0.634216
-0.246087 0.0257147 0.549146
-0.0178264 0.0256826 0.657708
-0.023357 0.02567 0.646109
-0.195166 0.0256382 0.554622
-0.0622154 0.0256132 0.614399
0.052111 0.0255819 0.665953
-0.0550563 0.0255696 0.603557
-0.187946 0.0255387 0.531481
-0.189091 0.0255081 0.525247
-0.119786 0.0254959 0.551101
-0.0311338 0.0254658 0.589736
-0.116574 0.0254417 0.540307
0.0286467 0.025424 0.605112
-0.175591 0.0254002 0.49628
0.00167435 0.0253765 0.578192
-0.211633 0.0253593 0.463708
-0.202391 0.0253306 0.462518
-0.208766 0.0253189 0.450556
-0.112064 0.0252958 0.492171
-0.077497 0.0252727 0.502708
-0.220282 0.0252563 0.423424
-0.24197 0.0252288 0.406665
-0.201341 0.0252175 0.41821
-0.245597 0.0251951 0.389312
-0.216133 0.0251794 0.396078
-0.36198 0.0251572 0.316369
-0.223495 0.0251462 0.376844
-0.122217 0.0251201 0.421442
-0.181171 0.0251069 0.383599
-0.455801 0.0250876 0.239064
-0.230264 0.0250661 0.345001
-0.15051 0.0250515 0.376817
0.0368506 0.0250304 0.463645
-0.14854 0.0250199 0.362175
-0.106266 0.024999 0.376441
-0.234973 0.024985 0.303969
-0.145702 0.0249645 0.34171
-0.261835 0.0249542 0.27486
-0.182524 0.024934 0.307599
-0.265216 0.0249206 0.258072
-0.160955 0.0249106 0.301413
-0.255733 0.0248907 0.247076
0.0313205 0.0248809 0.381807
-0.164502 0.0248583 0.277474
-0.1185 0.0248486 0.291671
-0.236113 0.0248294 0.225862
-0.0146631 0.0248198 0.327776
-0.353988 0.0248009 0.151082
-0.0838883 0.0247889 0.277804
-0.178206 0.0247702 0.22358
-0.360895 0.024761 0.123407
-0.279822 0.0247427 0.156848
-0.260132 0.0247336 0.157854
-0.151628 0.0247246 0.203266
-0.107349 0.0247067 0.21827
-0.113854 0.0246956 0.206586
-0.113794 0.024678 0.199443
-0.0841806 0.0246693 0.205385
-0.12738 0.0246521 0.176577
-0.145374 0.0246435 0.158703
-0.107404 0.0246266 0.170443
-0.167628 0.0246182 0.131441
-0.24403 0.0246099 0.0843461
-0.310264 0.0245934 0.0439361
-0.127456 0.0245853 0.126432
-0.222131 0.0245691 0.0717624
-0.328146 0.0245611 0.00983179
-0.206458 0.0245472 0.0629189
-0.346935 0.0245358 -0.0155479
-0.223116 0.024528 0.0374166
-0.251374 0.0245126 0.0158553
-0.255975 0.024505 0.00459327
-0.330813 0.02449 -0.0403026
-0.125115 0.0244826 0.0535673
0.260042 0.039996 0.858849
0.223167 0.0397328 0.857205
0.138241 0.0396042 0.817237
0.198943 0.0395193 0.845441
-0.00557054 0.0394345 0.741091
0.119935 0.039382 0.798292
0.0586435 0.0392973 0.765619
0.0633855 0.0392329 0.763806
0.168069 0.0391808 0.810657
-0.00830244 0.039109 0.719168
0.0667165 0.0390454 0.752515
0.0795274 0.0389939 0.753452
0.0584352 0.0389428 0.737441
-0.0289629 0.0388919 0.688277
-0.192203 0.0388527 0.599915
-0.0370266 0.0388023 0.672045
0.0701608 0.0387521 0.720175
0.00177902 0.0387023 0.680514
-0.0465362 0.0386527 0.650875
0.160236 0.0386036 0.748768
-0.0353857 0.0385846 0.642107
-0.130229 0.0385359 0.589185
-0.0413667 0.0384876 0.628099
-0.0674687 0.0384501 0.608342
-0.0961343 0.0384025 0.588472
-0.0610258 0.0383738 0.598355
-0.102785 0.0383368 0.570772
-0.23771 0.0382902 0.497728
-0.10051 0.0382719 0.557524
-0.14332 0.0382259 0.530514
-0.0632269 0.0381804 0.564923
-0.074618 0.0381624 0.550436
-0.175487 0.0381265 0.493287
-0.212026 0.0380819 0.469343
-0.122551 0.0380642 0.505297
-0.0974273 0.0380203 0.512149
-0.00622837 0.0380028 0.548971
-0.0740281 0.0379596 0.509321
-0.114879 0.037925 0.482152
-0.109419 0.0379078 0.476108
-0.0916949 0.0378656 0.479167
-0.175437 0.0378486 0.428526
-0.218764 0.0378071 0.401011
-0.107982 0.0377892 0.447758
-0.149977 0.0377569 0.419856
-0.121891 0.0377165 0.427982
-0.221927 0.0377001 0.369194
-0.251271 0.0376674 0.347714
-0.0300264 0.0376442 0.450401
-0.0950654 0.0376119 0.411055
-0.131231 0.0375959 0.384201
-0.136069 0.0375576 0.375729
-0.12937 0.0375418 0.370304
-0.328354 0.0375104 0.263946
-0.125963 0.0374948 0.356364
-0.166337 0.0374578 0.330035
-0.0743418 0.0374424 0.367251
-0.395017 0.0374119 0.200003
-0.019303 0.0373968 0.379074
-0.109755 0.0373611 0.327608
-0.280359 0.0373462 0.233513
-0.0999637 0.0373166 0.31675
-0.119529 0.0373019 0.298169
-0.278871 0.0372782 0.210825
-0.25728 0.0372532 0.21414
-0.194135 0.0372388 0.236904
-0.389574 0.0372103 0.132161
-0.113883 0.0371961 0.261191
-0.238146 0.0371681 0.192007
-0.196682 0.0371541 0.203913
-0.314449 0.037122 0.138525
-0.199354 0.0371083 0.187237
-0.27136 0.0370812 0.144116
-0.18829 0.0370678 0.176804
-0.274972 0.0370544 0.124614
-0.187922 0.037028 0.160979
-0.366017 0.0370149 0.0630708
-0.0549548 0.0369889 0.211406
-0.090658 0.036976 0.184682
-0.229688 0.0369466 0.108442
-0.220878 0.036934 0.10396
-0.137934 0.0369214 0.136541
-0.178249 0.0368966 0.1091
-0.16564 0.0368843 0.106499
-0.299558 0.03686 0.0322164
-0.179551 0.036848 0.0832996
-0.148802 0.0368241 0.0913089
-0.193241 0.0368123 0.0601541
-0.0256202 0.0368006 0.135024
-0.125218 0.0367775 0.0778054
-0.196344 0.036766 0.0332857
-0.317038 0.0367434 -0.0345255
-0.26638 0.0367322 -0.0181711
0.284454 0.0530444 0.859784
0.155592 0.0527737 0.805937
0.194847 0.0526611 0.823429
0.256472 0.0525318 0.853513
0.154955 0.052419 0.800741
0.0656388 0.0523494 0.750582
0.0180778 0.0522369 0.724842
0.0219054 0.0521677 0.721293
-0.0788928 0.0520986 0.665445
-0.0603144 0.0520298 0.669295
-0.141117 0.051919 0.626967
0.172532 0.0518509 0.778359
-0.0697844 0.0517831 0.651771
-0.040066 0.0517157 0.6612
-0.0512936 0.0516487 0.650153
-0.138208 0.0516231 0.597814
-0.111555 0.0515566 0.605711
0.0389388 0.0514905 0.675521
-0.0538836 0.0514249 0.623662
-0.0475848 0.0513598 0.62135
0.0657358 0.0513097 0.671293
-0.0524512 0.0512702 0.604607
-0.177181 0.0512206 0.53553
-0.0163433 0.051157 0.610461
-0.228936 0.0510939 0.498655
-0.107203 0.0510695 0.550709
-0.116036 0.0510072 0.540764
-0.0610685 0.0509454 0.562691
-0.0763858 0.0509214 0.546234
-0.248395 0.0508605 0.454647
-0.157436 0.050813 0.493402
-0.174181 0.0507894 0.476241
-0.0371374 0.0507297 0.539145
-0.177485 0.0507063 0.460189
-0.123215 0.0506475 0.481671
0.0282861 0.0506013 0.550677
0.0343767 0.0505664 0.545999
-0.120083 0.0505208 0.462015
-0.220553 0.0504981 0.403006
-0.156543 0.0504415 0.429268
-0.24325 0.0503967 0.379137
-0.199114 0.0503634 0.393421
-0.232662 0.0503192 0.369857
-0.0446276 0.0502972 0.455102
-0.261676 0.050243 0.340724
-0.233244 0.0502213 0.346168
-0.19558 0.0501782 0.358178
-0.277464 0.0501467 0.309377
-0.208038 0.0501042 0.337249
-0.23481 0.0500831 0.315088
-0.294741 0.0500316 0.279134
-0.136385 0.0500107 0.349534
-0.289013 0.0499694 0.266338
-0.177675 0.0499488 0.313226
-0.336562 0.0498991 0.227706
-0.0420254 0.0498788 0.366188
-0.148283 0.0498386 0.306131
-0.301181 0.0498187 0.22089
-0.200348 0.0497791 0.264354
-0.118778 0.0497511 0.297121
-0.174908 0.0497121 0.262074
-0.150407 0.0496928 0.26552
-0.28792 0.0496627 0.188979
-0.291909 0.0496354 0.178947
-0.274608 0.0496088 0.179512
-0.172445 0.0495713 0.223547
-0.175137 0.0495527 0.213377
-0.14542 0.0495158 0.221158
-0.383055 0.0494975 0.0935072
-0.20705 0.0494612 0.1744
-0.181712 0.0494432 0.178225
-0.291506 0.0494151 0.115467
-0.0167103 0.049383 0.245397
-0.154192 0.0493655 0.167798
-0.263282 0.0493307 0.106063
-0.26577 0.0493135 0.0959483
-0.136628 0.0492794 0.153293
-0.113293 0.0492625 0.156076
-0.348517 0.0492458 0.0295772
-0.223875 0.0492125 0.084623
-0.195663 0.0491961 0.0898273
-0.0706732 0.0491635 0.145008
-0.284929 0.0491474 0.0289631
-0.252341 0.0491094 0.0385011
-0.222455 0.0490936 0.0445108
-0.216374 0.049078 0.0386133
-0.240972 0.049047 0.0189007
-0.234524 0.0490317 0.0131698
-0.208321 0.0490014 0.0188135
-0.223197 0.0489865 0.00240304
0.175091 0.0660554 0.787396
0.0590885 0.0657891 0.73549
-0.0311612 0.0656279 0.689672
0.173029 0.0654873 0.789778
0.113391 0.0654006 0.75447
0.0103241 0.0652603 0.70102
0.182927 0.0651529 0.783272
0.107409 0.0650668 0.74009
-0.102817 0.0649277 0.633104
0.0791413 0.0648423 0.718678
0.146077 0.0647573 0.746747
0.0367713 0.0646726 0.686698
0.0874351 0.0645884 0.706636
-0.0901104 0.0645046 0.612467
-0.0419248 0.0644213 0.63116
-0.0307416 0.0643583 0.630011
0.061585 0.0643071 0.668647
-0.0181143 0.0642251 0.623392
-0.120036 0.0641628 0.565702
-0.0118684 0.0640816 0.614371
-0.141646 0.0640011 0.544052
-0.0010602 0.0639704 0.605515
-0.0872361 0.0638907 0.556986
-0.0304171 0.0638117 0.579934
-0.0807481 0.0637334 0.549284
-0.132568 0.0637033 0.514567
-0.165207 0.063626 0.492742
-0.167847 0.0635666 0.48469
-0.0691854 0.0635371 0.525224
-0.239045 0.0634611 0.43476
-0.0956322 0.0634319 0.497676
-0.172739 0.0633569 0.453559
0.0502241 0.0632829 0.559441
-0.222213 0.0632542 0.41444
-0.0390001 0.0631971 0.499289
-0.187536 0.0631528 0.417366
-0.178411 0.0630964 0.415161
-0.0782746 0.063025 0.459543
-0.235687 0.0629972 0.372061
-0.212926 0.0629419 0.376649
-0.0343593 0.0628996 0.45822
-0.230869 0.0628449 0.353159
-0.118091 0.0628177 0.400774
-0.107662 0.0627496 0.400194
-0.267818 0.0627228 0.311341
-0.135953 0.0626695 0.370434
-0.196675 0.062643 0.331295
-0.0972771 0.0625769 0.375128
-0.0222387 0.0625508 0.403868
-0.105455 0.062499 0.35538
-0.13745 0.0624603 0.331554
-0.188152 0.0624092 0.299301
-0.207183 0.0623838 0.280999
-0.158876 0.0623335 0.298227
-0.233758 0.0622962 0.252906
-0.0938806 0.0622466 0.315894
-0.229235 0.062222 0.239419
-0.132186 0.0621732 0.280966
-0.164494 0.0621489 0.256007
-0.179667 0.0620893 0.242284
-0.214326 0.0620655 0.216141
-0.248943 0.0620417 0.190021
-0.222498 0.0619947 0.1962
-0.0765616 0.0619714 0.260344
-0.189185 0.0619252 0.196961
-0.196125 0.0618915 0.185477
-0.162927 0.0618461 0.19497
-0.301371 0.0618235 0.116905
-0.315879 0.0617789 0.102513
-0.217378 0.0617568 0.142908
-0.216975 0.0617348 0.134252
-0.229319 0.0616912 0.120897
0.0272817 0.0616696 0.240327
-0.263211 0.061617 0.0886252
-0.183426 0.0615959 0.119634
-0.337823 0.0615637 0.0344139
-0.163777 0.0615332 0.113302
-0.406855 0.0615126 -0.0171382
-0.257976 0.0614718 0.0499913
-0.345728 0.0614516 -0.00280122
-0.131896 0.0614116 0.0967634
-0.157606 0.0613919 0.0749765
-0.120908 0.0613722 0.0843889
