ply
format ascii 1.0
comment Created by Open3D
element vertex 1756
property double x
property double y
property double z
end_header
-0.254905 -0.0122396 -0.0106454
-0.267662 0 1.98843
-0.189524 0 2.01721
-0.246994 0 1.97891
-0.244409 0 1.96995
-0.168856 0 1.99748
-0.334982 0 1.90418
-0.317447 0 1.90341
-0.29332 0 1.90526
-0.190006 0 1.94672
-0.265246 0 1.89891
-0.295896 0 1.8734
-0.26356 0 1.88007
-0.271731 0 1.86583
-0.249889 0 1.8666
-0.287729 0 1.83754
-0.250639 0 1.84661
-0.286418 0 1.81861
-0.182994 0 1.86022
-0.178357 0 1.85244
-0.160269 0 1.85141
-0.214724 0 1.81474
-0.140081 0 1.842
-0.254228 0 1.77488
-0.263888 0 1.76001
-0.150944 0 1.80646
-0.26121 0 1.74191
-0.253201 0 1.73591
-0.225281 0 1.73988
-0.225485 0 1.7298
-0.244343 0 1.71039
-0.214253 0 1.71548
-0.286684 0 1.6699
-0.165897 0 1.72035
-0.183889 0 1.70143
-0.24562 0 1.66065
-0.234682 0 1.65621
-0.225804 0 1.65131
-0.295364 0 1.60665
-0.235211 0 1.62685
-0.23648 0 1.61636
-0.19142 0 1.62831
-0.175042 0 1.62666
-0.245558 0 1.5821
-0.170799 0 1.60966
-0.232527 0 1.56899
-0.268789 0 1.54106
-0.23054 0 1.55039
-0.298061 0 1.50685
-0.291602 0 1.50083
-0.210421 0 1.53166
-0.272202 0 1.49103
-0.308947 0 1.46292
-0.255285 0 1.48003
-0.259346 0 1.46828
-0.199181 0 1.48814
-0.234871 0 1.46085
-0.267231 0 1.43499
-0.200513 0 1.45867
-0.177366 0 1.46059
-0.222882 0 1.42818
-0.23557 0 1.4122
-0.216928 0 1.41189
-0.262995 0 1.3797
-0.261556 0 1.37081
-0.27761 0 1.35319
-0.174311 0 1.39479
-0.173986 0 1.38505
-0.230287 0 1.34733
-0.19915 0 1.35334
-0.21805 0 1.33478
-0.249793 0 1.30937
-0.232915 0 1.30829
-0.256672 0 1.2869
-0.234348 0 1.28857
-0.205163 0 1.29367
-0.193883 0 1.28901
-0.279067 0 1.23695
-0.213404 0 1.26072
-0.149369 0 1.28329
-0.244639 0 1.22622
-0.288839 0 1.19469
-0.202029 0 1.22868
-0.223093 0 1.20875
-0.227734 0 1.19664
-0.25354 0 1.1739
-0.226653 0 1.17797
-0.181306 0 1.19165
-0.246838 0 1.14953
-0.178216 0 1.1745
-0.189984 0 1.15929
-0.231194 0 1.12936
-0.208872 0 1.13035
-0.244654 0 1.10316
-0.203885 0 1.11426
-0.268728 0 1.07256
-0.160486 0 1.11774
-0.304494 0 1.03648
-0.221256 0 1.06886
-0.175317 0 1.0817
-0.268181 0 1.02605
-0.237615 0 1.03212
-0.200527 0 1.04146
-0.253027 0 1.00602
-0.253573 0 0.996566
-0.213058 0 1.00733
-0.248755 0 0.980025
-0.22636 0 0.982073
-0.29256 0 0.939834
-0.23827 0 0.957853
-0.211132 0 0.962305
-0.218085 0 0.949436
-0.26084 0 0.918325
-0.207213 0 0.936053
-0.325662 0 0.867753
-0.211658 0 0.915692
-0.212996 0 0.90597
-0.202317 0 0.901978
-0.192773 0 0.897311
-0.155795 0 0.906778
-0.178637 0 0.886346
-0.22537 0 0.85398
-0.202105 0 0.856624
-0.257591 0 0.818944
-0.241326 0 0.818107
-0.232055 0 0.813785
-0.131844 0 0.854943
-0.230176 0 0.796842
-0.195347 0 0.804358
-0.246151 0 0.770039
-0.284294 0 0.742265
-0.268667 0 0.741184
-0.260699 0 0.736285
-0.180154 0 0.766698
-0.19106 0 0.752381
-0.160315 0 0.758902
-0.1995 0 0.730469
-0.309632 0 0.666573
-0.155643 0 0.733746
-0.213585 0 0.695964
-0.199069 0 0.694423
-0.217392 0 0.676474
-0.169974 0 0.691407
-0.21994 0 0.656641
-0.148044 0 0.683832
-0.26543 0 0.616393
-0.2557 0 0.612678
-0.297839 0 0.582529
-0.126032 0 0.659044
-0.263454 0 0.581629
-0.186307 0 0.61151
-0.170649 0 0.610658
-0.215987 0 0.578274
-0.226919 0 0.564147
-0.150031 0 0.593941
-0.202503 0 0.559066
-0.179039 0 0.561114
-0.279245 0 0.502392
-0.251189 0 0.507812
-0.26048 0 0.49457
-0.241491 0 0.49441
-0.268684 0 0.472237
-0.292504 0 0.451762
-0.226433 0 0.476244
-0.167401 0 0.497217
-0.178781 0 0.481911
-0.227566 0 0.448996
-0.138273 0 0.485232
-0.218429 0 0.436553
-0.240726 0 0.41592
-0.154313 0 0.450646
-0.245043 0 0.396812
-0.260984 0 0.380133
-0.280733 0 0.360954
-0.240342 0 0.372712
-0.161354 0 0.403779
-0.23873 0 0.355559
-0.229615 0 0.35171
-0.208094 0 0.354075
-0.23422 0 0.332628
-0.319593 0 0.28044
-0.214395 0 0.324675
-0.297227 0 0.274907
-0.284511 0 0.272923
-0.156532 0 0.327442
-0.231775 0 0.281499
-0.3693 0 0.204427
-0.228733 0 0.265261
-0.215834 0 0.263421
-0.213102 0 0.256509
-0.302025 0 0.203781
-0.209628 0 0.240561
-0.199603 0 0.237327
-0.239677 0 0.209055
-0.228498 0 0.205249
-0.193971 0 0.214297
-0.201842 0 0.202158
-0.215503 0 0.187135
-0.23381 0 0.168617
-0.199561 0 0.177569
-0.34173 0 0.0983245
-0.210485 0 0.154604
-0.269637 0 0.116888
-0.240106 0 0.123525
-0.212813 0 0.127851
-0.177786 0 0.137255
-0.219922 0 0.108091
-0.187479 0 0.116227
-0.17123 0 0.115062
-0.175991 0 0.104616
-0.196509 0 0.0863032
-0.254764 0 0.0479087
-0.202922 0 0.065796
-0.275785 0 0.0213424
-0.154644 0 0.0726687
-0.209397 0 0.0372907
-0.327706 0 -0.0298543
-0.174392 0 0.037581
-0.228983 0 0.00234406
-0.209689 0.0134844 2.01516
-0.257211 0.0134787 1.98111
-0.211953 0.0134693 1.99424
-0.216981 0.0134635 1.98146
-0.242483 0.0134578 1.95846
-0.308028 0.013452 1.91544
-0.168066 0.0134427 1.97596
-0.229053 0.013437 1.93525
-0.244869 0.0134312 1.91713
-0.213549 0.0134255 1.92259
-0.186349 0.0134197 1.926
-0.17602 0.0134105 1.92174
-0.242478 0.0134048 1.87835
-0.225165 0.013399 1.87685
-0.119768 0.0133932 1.91941
-0.222092 0.0133842 1.85885
-0.194869 0.0133784 1.86234
-0.249126 0.0133726 1.8251
-0.243746 0.0133668 1.81769
-0.180155 0.013361 1.8394
-0.19543 0.0133521 1.8224
-0.14853 0.0133463 1.83579
-0.306669 0.0133405 1.74667
-0.237981 0.0133347 1.77097
-0.277906 0.0133289 1.74097
-0.169969 0.0133201 1.78562
-0.292021 0.0133143 1.71458
-0.271582 0.0133085 1.7148
-0.320037 0.0133027 1.68058
-0.161228 0.0132969 1.75001
-0.267095 0.0132882 1.68779
-0.284305 0.0132824 1.66923
-0.208737 0.0132765 1.69707
-0.228432 0.0132707 1.67729
-0.241731 0.0132649 1.66072
-0.28957 0.0132563 1.62754
-0.232187 0.0132505 1.64634
-0.325891 0.0132447 1.58959
-0.289652 0.0132388 1.59784
-0.264669 0.013233 1.60046
-0.32787 0.0132271 1.559
-0.206889 0.0132217 1.60956
-0.277 0.0132158 1.56467
-0.207007 0.01321 1.58984
-0.143113 0.0132041 1.61197
-0.202736 0.0131983 1.57235
-0.228443 0.0131924 1.5497
-0.233963 0.0131841 1.53778
-0.21354 0.0131782 1.53822
-0.279884 0.0131724 1.49528
-0.236629 0.0131665 1.50716
-0.264186 0.0131606 1.48365
-0.24936 0.0131548 1.48133
-0.262414 0.0131466 1.46568
-0.281805 0.0131407 1.44628
-0.286718 0.0131371 1.43353
-0.222535 0.0131319 1.45577
-0.212838 0.013126 1.45094
-0.248547 0.0131201 1.42342
-0.246035 0.0131142 1.41502
-0.195947 0.0131062 1.43099
-0.185584 0.0131003 1.42654
-0.209388 0.0130944 1.40502
-0.185913 0.0130885 1.40715
-0.160513 0.0130826 1.41025
-0.258325 0.0130767 1.35175
-0.223225 0.0130708 1.35973
-0.182402 0.0130659 1.37031
-0.234452 0.01306 1.33473
-0.208533 0.013054 1.33814
-0.325215 0.0130481 1.27027
-0.267852 0.0130422 1.28942
-0.221746 0.0130363 1.30297
-0.297571 0.0130304 1.25555
-0.191398 0.0130226 1.29965
-0.20542 0.0130167 1.28316
-0.23871 0.0130137 1.25622
-0.219662 0.0130078 1.25629
-0.251998 0.0130018 1.23067
-0.229 0.0129959 1.23273
-0.267712 0.0129899 1.20395
-0.208192 0.012984 1.22429
-0.217769 0.0129764 1.21057
-0.314573 0.0129704 1.15278
-0.172063 0.0129674 1.2138
-0.164575 0.0129615 1.20817
-0.141531 0.0129555 1.21033
-0.247473 0.0129496 1.14801
-0.183099 0.0129436 1.17085
-0.22182 0.0129377 1.14216
-0.310526 0.0129317 1.08849
-0.155437 0.0129257 1.15672
-0.252969 0.0129212 1.09823
-0.234343 0.0129152 1.09826
-0.23436 0.0129093 1.08897
-0.284482 0.0129033 1.05464
-0.166851 0.0128973 1.1042
-0.273484 0.0128913 1.04164
-0.150135 0.0128869 1.09363
-0.279959 0.0128823 1.01905
-0.16808 0.0128764 1.06578
-0.173286 0.012869 1.05438
-0.291355 0.012863 0.986157
-0.157655 0.012857 1.04383
-0.268166 0.012851 0.9794
-0.373921 0.012848 0.916453
-0.219545 0.012842 0.984491
-0.274837 0.012836 0.947705
-0.273582 0.01283 0.939204
-0.2061 0.012824 0.963828
-0.227882 0.012818 0.94383
-0.244213 0.012815 0.925642
-0.163881 0.0128077 0.957097
-0.216684 0.0128017 0.92162
-0.159975 0.0127957 0.94091
-0.231244 0.0127897 0.896222
-0.242939 0.0127836 0.881333
-0.174906 0.0127806 0.905373
-0.303903 0.0127746 0.831851
-0.210908 0.0127685 0.869337
-0.212486 0.0127625 0.859548
-0.25082 0.0127565 0.831391
-0.146873 0.0127535 0.873427
-0.179665 0.0127474 0.84806
-0.194596 0.0127403 0.831974
-0.264937 0.0127343 0.787857
-0.257725 0.0127282 0.782527
-0.247819 0.0127232 0.778215
-0.201108 0.0127191 0.792019
-0.260486 0.0127131 0.753424
-0.218971 0.012707 0.765288
-0.215827 0.012701 0.757977
-0.208389 0.0126949 0.752824
-0.184438 0.0126919 0.754946
-0.209022 0.0126858 0.733801
-0.145993 0.0126797 0.756475
-0.220911 0.0126737 0.710186
-0.236946 0.0126686 0.693006
-0.219894 0.0126636 0.692358
-0.269357 0.0126576 0.658827
-0.218882 0.0126515 0.675277
-0.221889 0.0126454 0.664997
-0.22413 0.0126424 0.654092
-0.23275 0.0126363 0.641025
-0.212503 0.0126302 0.642403
-0.240013 0.0126241 0.619914
-0.241229 0.012618 0.610583
-0.170012 0.0126149 0.636445
-0.198254 0.0126088 0.613621
-0.242236 0.0126027 0.582938
-0.146416 0.0125966 0.622167
-0.210639 0.0125936 0.58034
-0.200636 0.0125875 0.57668
-0.259999 0.0125814 0.538349
-0.314142 0.0125753 0.502639
-0.240275 0.01257 0.530644
-0.20579 0.0125654 0.538763
-0.316109 0.0125592 0.474996
-0.381079 0.0125531 0.433915
-0.189749 0.012547 0.520995
-0.230011 0.0125439 0.491218
-0.237887 0.0125378 0.478715
-0.15194 0.0125317 0.513135
-0.271943 0.0125255 0.444591
-0.182399 0.0125225 0.479747
-0.326682 0.0125163 0.399083
-0.246761 0.0125102 0.430532
-0.257456 0.0125041 0.416685
-0.327306 0.012501 0.372175
-0.143674 0.0124948 0.455511
-0.272406 0.0124887 0.382676
-0.234043 0.0124825 0.393401
-0.276099 0.0124795 0.362818
-0.244692 0.0124733 0.370084
-0.231927 0.0124672 0.368041
-0.248335 0.0124641 0.350304
-0.251698 0.0124579 0.340216
-0.240859 0.0124517 0.337241
-0.248974 0.0124456 0.324801
-0.258491 0.0124425 0.310541
-0.241848 0.0124358 0.310701
-0.148929 0.0124296 0.348809
-0.191416 0.0124234 0.319225
-0.22902 0.0124203 0.290952
-0.207901 0.0124142 0.293191
-0.278361 0.012408 0.249652
-0.198029 0.0124049 0.280369
-0.206077 0.0123987 0.268056
-0.159995 0.0123925 0.282819
-0.196041 0.0123863 0.256531
-0.220747 0.0123832 0.234759
-0.213812 0.012377 0.229981
-0.201614 0.0123708 0.227845
-0.184229 0.0123677 0.227142
-0.219274 0.0123615 0.201405
-0.210002 0.0123553 0.197838
-0.253587 0.0123491 0.167854
-0.271989 0.012346 0.149288
-0.212513 0.0123398 0.170855
-0.256498 0.0123336 0.140703
-0.2077 0.0123305 0.155759
-0.217612 0.0123243 0.142664
-0.293945 0.0123181 0.0963688
-0.202143 0.0123124 0.133953
-0.207471 0.0123088 0.122178
-0.159268 0.0123025 0.138183
-0.223324 0.0122963 0.0980704
-0.263512 0.0122932 0.0686873
-0.178918 0.012287 0.102919
-0.246559 0.0122807 0.0610457
-0.191304 0.0122776 0.0794068
-0.190247 0.0122714 0.0719022
-0.22672 0.0122651 0.0456446
-0.15984 0.012262 0.0698409
-0.254779 0.0122558 0.01437
-0.221164 0.0122495 0.0231882
-0.329288 0.0122464 -0.0400953
-0.199465 0.0122402 0.0168472
-0.238196 0.0269921 1.99842
-0.206381 0.0269806 2.00403
-0.199339 0.0269691 1.99726
-0.286272 0.0269496 1.94438
-0.241919 0.0269381 1.9563
-0.219892 0.0269265 1.95706
-0.192969 0.026915 1.96028
-0.198719 0.0268957 1.94802
-0.252379 0.0268842 1.91098
-0.166914 0.0268727 1.9435
-0.222296 0.0268611 1.90561
-0.183975 0.0268421 1.91542
-0.173426 0.0268305 1.91053
-0.186452 0.026819 1.89385
-0.18116 0.0268074 1.88635
-0.137422 0.0267958 1.89807
-0.203103 0.026777 1.85592
-0.218922 0.0267654 1.8379
-0.183679 0.0267538 1.84541
-0.226659 0.0267422 1.81383
-0.228159 0.0267237 1.8038
-0.217557 0.0267121 1.79903
-0.188437 0.0267004 1.80352
-0.176109 0.0266888 1.79964
-0.18831 0.0266772 1.7835
-0.241734 0.0266589 1.74754
-0.17711 0.0266472 1.76984
-0.24337 0.0266356 1.7267
-0.20719 0.026624 1.7348
-0.284619 0.0266123 1.6861
-0.235044 0.0265942 1.70168
-0.246538 0.0265826 1.68597
-0.289774 0.0265709 1.65441
-0.172068 0.0265592 1.70332
-0.275451 0.0265476 1.6417
-0.181914 0.0265297 1.6793
-0.20579 0.026518 1.65746
-0.126564 0.0265064 1.68718
-0.23782 0.0264947 1.62166
-0.193876 0.026483 1.63376
-0.174975 0.0264654 1.63408
-0.289273 0.0264536 1.56708
-0.218769 0.0264478 1.59176
-0.212998 0.0264361 1.58482
-0.173131 0.0264244 1.59493
-0.232787 0.0264126 1.55529
-0.17197 0.0263953 1.57661
-0.289749 0.0263835 1.50794
-0.269176 0.0263718 1.50845
-0.213122 0.0263601 1.52671
-0.208683 0.0263483 1.51918
-0.124803 0.0263366 1.55137
-0.176576 0.0263194 1.51644
-0.206058 0.0263077 1.49198
-0.252921 0.0262959 1.45884
-0.227498 0.0262841 1.46185
-0.179313 0.0262777 1.47556
-0.23326 0.0262665 1.43883
-0.252749 0.0262547 1.41942
-0.194757 0.0262378 1.43943
-0.226404 0.026226 1.41396
-0.158586 0.0262142 1.43823
-0.210983 0.0262024 1.40241
-0.242716 0.0261906 1.37693
-0.223643 0.0261788 1.37686
-0.28101 0.0261622 1.33923
-0.238129 0.0261504 1.35109
-0.246292 0.0261444 1.33664
-0.294442 0.0261326 1.30301
-0.313813 0.0261208 1.28377
-0.29824 0.0261089 1.28202
-0.173107 0.0260971 1.33506
-0.291917 0.0260807 1.26676
-0.22581 0.0260689 1.2903
-0.253968 0.026057 1.26673
-0.210029 0.0260451 1.27922
-0.274663 0.0260333 1.23743
-0.244701 0.0260273 1.24212
-0.231844 0.0260154 1.23909
-0.205331 0.0260036 1.24291
-0.226024 0.0259875 1.22372
-0.22409 0.0259756 1.21527
-0.284047 0.0259637 1.17588
-0.167238 0.0259518 1.22489
-0.280286 0.0259398 1.15898
-0.209914 0.0259339 1.18394
-0.232917 0.025922 1.16307
-0.25175 0.02591 1.1443
-0.2698 0.0258942 1.12649
-0.21394 0.0258823 1.14509
-0.216893 0.0258703 1.13429
-0.204886 0.0258584 1.13098
-0.171209 0.0258524 1.13765
-0.264049 0.0258405 1.08194
-0.197968 0.0258285 1.1057
-0.112055 0.0258165 1.13938
-0.289238 0.0258046 1.04153
-0.270804 0.025789 1.04204
-0.230437 0.025777 1.05298
-0.151283 0.025771 1.08244
-0.26419 0.0257591 1.01677
-0.14841 0.0257471 1.06546
-0.235493 0.0257351 1.01272
-0.246648 0.0257231 0.997961
-0.234624 0.0257111 0.994801
-0.172593 0.0257026 1.01611
-0.219865 0.025693 0.982955
-0.204325 0.0256777 0.982085
-0.18174 0.0256657 0.984248
-0.285331 0.0256537 0.923333
-0.282592 0.0256416 0.915595
-0.251173 0.0256329 0.921702
-0.150994 0.0256236 0.96228
-0.275866 0.0256115 0.890767
-0.213353 0.0255995 0.912957
-0.234518 0.0255874 0.893319
-0.157953 0.0255754 0.922558
-0.0929025 0.0255693 0.945104
-0.189582 0.0255573 0.887739
-0.105726 0.0255422 0.921123
-0.175917 0.0255301 0.877025
-0.148341 0.025518 0.881823
-0.202291 0.025506 0.845869
-0.187805 0.0254999 0.84318
-0.27139 0.0254878 0.792427
-0.172932 0.0254757 0.832708
-0.283614 0.0254636 0.768429
-0.231283 0.0254515 0.785668
-0.240445 0.0254454 0.771194
-0.224614 0.0254333 0.770202
-0.27346 0.0254212 0.736883
-0.256639 0.0254064 0.736842
-0.188735 0.0253943 0.761921
-0.171617 0.0253882 0.760626
-0.308752 0.0253761 0.683205
-0.196302 0.0253639 0.730588
-0.234991 0.0253518 0.702413
-0.261534 0.0253396 0.680322
-0.210413 0.0253335 0.696066
-0.22379 0.0253213 0.680578
-0.241875 0.0253092 0.662746
-0.338697 0.025297 0.605558
-0.245054 0.0252874 0.643174
-0.212618 0.0252787 0.650054
-0.23946 0.0252665 0.627886
-0.187972 0.0252543 0.644895
-0.21248 0.0252398 0.624311
-0.216265 0.0252337 0.612672
-0.224963 0.0252215 0.599619
-0.20409 0.0252093 0.601363
-0.221563 0.0251971 0.583945
-0.206715 0.0251898 0.581857
-0.113639 0.0251788 0.619529
-0.233515 0.0251665 0.550941
-0.194549 0.0251543 0.561784
-0.177435 0.0251421 0.561714
-0.274274 0.0251359 0.503616
-0.183114 0.0251237 0.540588
-0.200798 0.0251114 0.52315
-0.207518 0.0250992 0.511205
-0.30291 0.025093 0.453861
-0.218178 0.0250808 0.487661
-0.234697 0.0250685 0.470847
-0.201874 0.0250562 0.478717
-0.217264 0.0250501 0.461404
-0.247488 0.0250378 0.437769
-0.192839 0.0250235 0.456936
-0.28434 0.0250112 0.402686
-0.25178 0.0250051 0.40938
-0.249535 0.0249928 0.402022
-0.230539 0.0249805 0.403052
-0.270738 0.0249682 0.374495
-0.272005 0.024962 0.364306
-0.174551 0.0249497 0.404595
-0.259348 0.0249374 0.353771
-0.264921 0.0249251 0.34257
-0.223041 0.0249189 0.353985
-0.148142 0.0249066 0.38304
-0.339168 0.0248942 0.279144
-0.237565 0.0248881 0.320442
-0.163393 0.0248757 0.349165
-0.218683 0.0248634 0.313168
-0.220653 0.024851 0.303843
-0.191365 0.0248448 0.309015
-0.166565 0.0248324 0.313095
-0.275436 0.0248201 0.25035
-0.245592 0.0248077 0.256975
-0.233644 0.0248015 0.253507
-0.18948 0.0247891 0.267312
-0.244807 0.0247767 0.231383
-0.187803 0.0247705 0.250466
-0.242544 0.0247582 0.214849
-0.222757 0.0247457 0.216508
-0.300564 0.0247333 0.169382
-0.174783 0.0247271 0.222884
-0.15226 0.0247147 0.225943
-0.226117 0.0247023 0.180824
-0.17477 0.0246961 0.197131
-0.206571 0.0246837 0.17306
-0.227299 0.0246712 0.154536
-0.309122 0.024665 0.104281
-0.332419 0.0246526 0.0844932
-0.283547 0.0246401 0.100802
-0.129397 0.0246261 0.17007
-0.299095 0.0246199 0.0759096
-0.254557 0.0246074 0.0900823
-0.218024 0.0245949 0.100264
-0.315594 0.0245887 0.0421902
-0.235892 0.0245762 0.0739768
-0.234682 0.0245638 0.0665288
-0.202888 0.0245575 0.0731589
-0.19393 0.0245451 0.0696053
-0.201919 0.0245326 0.0575902
-0.163329 0.0245263 0.0676407
-0.12649 0.0245138 0.0780593
-0.261547 0.0245013 0.00254174
-0.243585 0.0244951 0.00230086
-0.227966 0.0244826 0.00214189
-0.300519 0.0405393 1.96361
-0.246615 0.0405088 1.9812
-0.202324 0.0404915 1.99305
-0.108187 0.0404742 2.02983
-0.282567 0.0404569 1.93237
-0.186547 0.0404267 1.97105
-0.202709 0.0404094 1.95272
-0.240756 0.0403921 1.92346
-0.26442 0.0403747 1.9014
-0.257709 0.0403448 1.89546
-0.192793 0.0403275 1.91772
-0.199049 0.0403101 1.90439
-0.245471 0.0402928 1.871
-0.251299 0.0402631 1.85883
-0.207348 0.0402458 1.87064
-0.217346 0.0402284 1.85549
-0.287634 0.040211 1.81021
-0.238614 0.0401817 1.8255
-0.201834 0.0401643 1.83377
-0.176883 0.0401469 1.83614
-0.319772 0.0401295 1.7546
-0.183406 0.0401006 1.81359
-0.270866 0.0400831 1.75979
-0.209638 0.0400657 1.78035
-0.221008 0.0400483 1.76462
-0.201629 0.0400196 1.76514
-0.202991 0.0400022 1.75444
-0.170618 0.0399847 1.76061
-0.2628 0.0399672 1.70451
-0.226651 0.0399498 1.7126
-0.200576 0.0399215 1.71651
-0.179893 0.039904 1.71688
-0.199625 0.0398865 1.69706
-0.253007 0.039869 1.66042
-0.238043 0.0398515 1.65797
-0.289405 0.0398235 1.6232
-0.208472 0.039806 1.65376
-0.21015 0.0397885 1.64302
-0.164424 0.0397709 1.65599
-0.260462 0.0397534 1.59809
-0.238251 0.0397258 1.60015
-0.211819 0.0397082 1.60351
-0.165082 0.0396906 1.61703
-0.192368 0.0396818 1.59282
-0.203083 0.0396643 1.57763
-0.14782 0.0396467 1.59545
-0.254967 0.0396194 1.53288
-0.24404 0.0396018 1.52855
-0.1803 0.0395842 1.55064
-0.200944 0.0395666 1.53054
-0.242399 0.039549 1.50006
-0.208411 0.0395221 1.50809
-0.248241 0.0395045 1.47844
-0.226052 0.0394868 1.4798
-0.190912 0.0394691 1.48766
-0.160768 0.0394515 1.49303
-0.229746 0.0394338 1.44884
-0.225512 0.0394249 1.4405
-0.238609 0.0393984 1.42505
-0.176146 0.0393807 1.44662
-0.191456 0.039363 1.42931
-0.233126 0.0393453 1.39884
-0.24494 0.0393276 1.3833
-0.202111 0.0393099 1.3951
-0.251632 0.0392838 1.36148
-0.190573 0.039266 1.38241
-0.153378 0.0392483 1.39142
-0.188374 0.0392305 1.36435
-0.307586 0.0392216 1.29438
-0.302195 0.0392038 1.28752
-0.235929 0.0391861 1.31111
-0.215627 0.0391603 1.31245
-0.239927 0.0391425 1.29078
-0.251649 0.0391247 1.27541
-0.299496 0.0391069 1.24199
-0.251291 0.0390891 1.25661
-0.250088 0.0390713 1.24773
-0.161483 0.0390624 1.28174
-0.260215 0.039037 1.22362
-0.215121 0.0390192 1.23672
-0.233056 0.0390013 1.21832
-0.202825 0.0389835 1.22401
-0.173952 0.0389656 1.22903
-0.228228 0.0389477 1.19249
-0.179308 0.0389298 1.20756
-0.239714 0.0389209 1.16713
-0.257376 0.0388959 1.1496
-0.183697 0.038878 1.17708
-0.283897 0.0388601 1.11764
-0.214085 0.0388422 1.14321
-0.228939 0.0388243 1.12645
-0.155093 0.0388063 1.15406
-0.165278 0.0387884 1.13966
-0.229419 0.0387794 1.09742
-0.221905 0.0387615 1.0919
-0.227523 0.0387369 1.08047
-0.209426 0.0387189 1.08025
-0.244435 0.0387009 1.0535
-0.189251 0.038683 1.07185
-0.224513 0.0386716 1.04433
-0.185124 0.038656 1.05457
-0.259105 0.038638 1.00837
-0.234912 0.03862 1.01127
-0.301711 0.0386019 0.968685
-0.270228 0.0385777 0.975875
-0.202059 0.0385597 1.0008
-0.17634 0.0385507 1.00359
-0.210112 0.0385326 0.977559
-0.183183 0.0385146 0.98189
-0.261287 0.0384965 0.933716
-0.22131 0.0384785 0.944594
-0.21368 0.0384604 0.939309
-0.165476 0.0384514 0.953391
-0.175584 0.0384333 0.939256
-0.185559 0.0384095 0.925794
-0.256221 0.0383914 0.881405
-0.243134 0.0383733 0.878903
-0.222505 0.0383551 0.880183
-0.20278 0.0383461 0.880072
-0.19017 0.038328 0.877362
-0.204442 0.0383098 0.861222
-0.236387 0.0382917 0.836256
-0.256694 0.0382735 0.817121
-0.277595 0.0382645 0.796735
-0.148117 0.0382463 0.852511
-0.196285 0.0382281 0.819476
-0.28461 0.0382047 0.766937
-0.256879 0.0381865 0.771875
-0.111526 0.0381774 0.834655
-0.277237 0.0381592 0.742891
-0.157049 0.038141 0.794088
-0.167752 0.0381228 0.77985
-0.282602 0.0381046 0.713551
-0.222967 0.0380955 0.733511
-0.150597 0.0380773 0.76084
-0.181673 0.038059 0.736458
-0.195557 0.0380408 0.720683
-0.226395 0.0380225 0.696443
-0.256941 0.0380134 0.671351
-0.163108 0.0379951 0.709465
-0.257167 0.0379721 0.654177
-0.273069 0.0379538 0.637447
-0.255992 0.0379355 0.637218
-0.274545 0.0379264 0.618162
-0.241221 0.0379081 0.626076
-0.286879 0.0378898 0.59451
-0.218369 0.0378715 0.62004
-0.146176 0.0378623 0.646387
-0.297927 0.037844 0.561806
-0.209947 0.0378257 0.597102
-0.191059 0.0378073 0.597863
-0.244879 0.037789 0.562281
-0.220696 0.0377798 0.564662
-0.262466 0.0377615 0.535125
-0.240698 0.0377431 0.537368
-0.228789 0.0377247 0.534694
-0.161537 0.0377155 0.558639
-0.252394 0.0376929 0.505099
-0.223242 0.0376745 0.511077
-0.18256 0.0376561 0.522832
-0.133133 0.0376469 0.537896
-0.24107 0.0376285 0.475361
-0.252122 0.03761 0.46128
-0.258311 0.0375916 0.449642
-0.17158 0.0375824 0.483389
-0.250607 0.037564 0.435352
-0.202635 0.0375455 0.450825
-0.228884 0.0375271 0.4292
-0.197741 0.0375179 0.435183
-0.253044 0.0374994 0.399051
-0.0965401 0.0374809 0.468833
-0.196317 0.0374624 0.410486
-0.295039 0.0374532 0.351567
-0.211453 0.0374347 0.384922
-0.210419 0.0374162 0.377012
-0.213493 0.0373977 0.367059
-0.209024 0.0373885 0.359766
-0.234299 0.0373699 0.338733
-0.178445 0.0373514 0.358276
-0.276283 0.0373422 0.299852
-0.200839 0.0373236 0.32921
-0.246106 0.0373013 0.298687
-0.17762 0.0372828 0.324589
-0.211442 0.0372735 0.298205
-0.147766 0.0372549 0.321722
-0.246496 0.0372364 0.264047
-0.257534 0.0372178 0.25023
-0.17934 0.0372085 0.279885
-0.182446 0.0371899 0.270054
-0.181027 0.0371713 0.262497
-0.203991 0.037162 0.241595
-0.223858 0.0371434 0.223415
-0.214889 0.0371248 0.219664
-0.271257 0.0371062 0.183258
-0.215945 0.0370969 0.201524
-0.190343 0.0370782 0.206122
-0.237266 0.0370596 0.174469
-0.201063 0.0370503 0.183203
-0.17487 0.0370316 0.188129
-0.208637 0.037013 0.163085
-0.239181 0.0370036 0.138468
-0.208183 0.036985 0.145827
-0.196036 0.0369663 0.143773
-0.30028 0.0369476 0.0835338
-0.201819 0.0369383 0.123451
-0.200981 0.0369196 0.115773
-0.236408 0.0369009 0.0899752
-0.165075 0.0368915 0.116351
-0.218926 0.0368728 0.0813602
-0.176167 0.0368541 0.094687
-0.298783 0.0368447 0.0241101
-0.231953 0.036826 0.0494922
-0.241395 0.0368072 0.03675
-0.233285 0.0367979 0.0315592
-0.233063 0.0367791 0.023669
-0.199604 0.0367603 0.0324093
-0.323322 0.036751 -0.038673
-0.190876 0.0367322 0.0195807
-0.19491 0.0541081 2.01344
-0.270412 0.054085 1.96537
-0.246261 0.054062 1.96714
-0.203832 0.05402 1.97907
-0.115665 0.0539969 2.01287
-0.184067 0.0539738 1.9684
-0.171701 0.0539507 1.96431
-0.217992 0.0539091 1.93193
-0.177198 0.053886 1.94209
-0.256322 0.0538629 1.8923
-0.204761 0.0538397 1.90786
-0.181028 0.0537985 1.91052
-0.178275 0.0537754 1.9017
-0.201119 0.0537522 1.8801
-0.174589 0.0537114 1.88418
-0.222121 0.0536882 1.85026
-0.193208 0.053665 1.85457
-0.18593 0.0536418 1.84807
-0.19694 0.0536014 1.83342
-0.209357 0.0535781 1.8171
-0.201416 0.0535549 1.81096
-0.217057 0.0535317 1.79305
-0.248438 0.0534917 1.76825
-0.231953 0.0534684 1.76642
-0.176975 0.0534451 1.78386
-0.211945 0.0534218 1.75632
-0.199576 0.0533985 1.75247
-0.169411 0.053359 1.75849
-0.208264 0.0533357 1.72905
-0.241942 0.0533123 1.70221
-0.246777 0.053289 1.6898
-0.2171 0.0532499 1.69561
-0.28019 0.0532265 1.6541
-0.218322 0.0532031 1.67507
-0.20324 0.0531798 1.67267
-0.167473 0.0531564 1.68062
-0.165121 0.0531177 1.67281
-0.229216 0.0530943 1.63085
-0.126824 0.0530709 1.67214
-0.18328 0.0530474 1.63403
-0.148667 0.053024 1.64146
-0.230362 0.0529858 1.59166
-0.209944 0.0529623 1.59202
-0.19866 0.0529506 1.58708
-0.0982854 0.0529271 1.62743
-0.185799 0.0529036 1.57385
-0.2578 0.0528658 1.52894
-0.208438 0.0528423 1.54382
-0.283229 0.0528188 1.49663
-0.277029 0.0527953 1.48996
-0.205393 0.0527718 1.51601
-0.230828 0.0527345 1.49442
-0.226794 0.0527109 1.48669
-0.224697 0.0526873 1.478
-0.258308 0.0526638 1.45148
-0.168957 0.0526402 1.48644
-0.209824 0.0526166 1.45631
-0.25485 0.0525916 1.4242
-0.172771 0.0525679 1.45556
-0.180703 0.0525443 1.44192
-0.232693 0.0525207 1.40627
-0.317801 0.0524971 1.35407
-0.21299 0.0524734 1.39684
-0.187574 0.052437 1.40077
-0.314444 0.0524134 1.32772
-0.17346 0.0523897 1.38861
-0.166542 0.052366 1.38248
-0.254311 0.0523423 1.32902
-0.235185 0.0523305 1.32821
-0.235477 0.0523067 1.3185
-0.221507 0.0522709 1.31676
-0.147556 0.0522471 1.3442
-0.200507 0.0522234 1.3082
-0.191483 0.0521996 1.3032
-0.277302 0.0521759 1.25078
-0.239341 0.0521521 1.26027
-0.25708 0.0521283 1.24192
-0.164295 0.0521045 1.27884
-0.270681 0.052081 1.21617
-0.202205 0.0520572 1.24095
-0.187175 0.0520334 1.23903
-0.249012 0.0520095 1.19868
-0.216191 0.0519857 1.20567
-0.191767 0.0519619 1.20848
-0.23054 0.051927 1.18048
-0.191497 0.0519031 1.19062
-0.273334 0.0518911 1.13948
-0.222997 0.0518673 1.15528
-0.174475 0.0518434 1.17019
-0.217092 0.0518195 1.13954
-0.247277 0.0517955 1.11512
-0.249192 0.0517716 1.10484
-0.239348 0.0517372 1.10122
-0.231837 0.0517252 1.0948
-0.23627 0.0517013 1.08329
-0.169713 0.0516773 1.1073
-0.163698 0.0516534 1.10104
-0.297598 0.0516294 1.02483
-0.224966 0.0516054 1.0519
-0.296844 0.0515814 1.00673
-0.321699 0.0515694 0.984186
-0.237641 0.0515355 1.01774
-0.272513 0.0515114 0.991106
-0.184407 0.0514874 1.02597
-0.259604 0.0514634 0.979193
-0.17617 0.0514393 1.01174
-0.141648 0.0514273 1.01893
-0.146826 0.0514032 1.00719
-0.206183 0.0513791 0.968378
-0.180174 0.051355 0.972256
-0.246852 0.0513309 0.929803
-0.123756 0.0512975 0.982963
-0.239953 0.0512854 0.914841
-0.21366 0.0512613 0.918904
-0.300045 0.0512372 0.86664
-0.276699 0.051213 0.869252
-0.306781 0.0511889 0.845161
-0.301806 0.0511647 0.838611
-0.197143 0.0511526 0.880964
-0.27767 0.0511284 0.831682
-0.202139 0.0511042 0.860439
-0.182442 0.05108 0.861291
-0.197362 0.0510471 0.845536
-0.228808 0.051035 0.819875
-0.188695 0.0510108 0.830967
-0.260676 0.0509866 0.786022
-0.182747 0.0509623 0.816044
-0.222747 0.050938 0.787113
-0.243173 0.0509224 0.767282
-0.2581 0.0509016 0.750625
-0.196184 0.0508774 0.772683
-0.220489 0.0508531 0.751641
-0.249577 0.0508288 0.728219
-0.182375 0.0508131 0.752248
-0.261403 0.0507842 0.704248
-0.256949 0.0507599 0.697629
-0.187632 0.0507355 0.723452
-0.162253 0.0507112 0.727318
-0.272623 0.050699 0.662312
-0.188962 0.0506746 0.695338
-0.125808 0.0506503 0.718122
-0.189291 0.0506259 0.677599
-0.2142 0.0506015 0.656374
-0.200811 0.0505893 0.653286
-0.192448 0.0505649 0.648717
-0.249094 0.0505405 0.611655
-0.203127 0.050516 0.62591
-0.253375 0.0505038 0.591033
-0.149546 0.0504793 0.634239
-0.15946 0.0504475 0.621219
-0.198724 0.050423 0.592902
-0.154521 0.0503985 0.60633
-0.223802 0.0503863 0.561977
-0.134768 0.0503618 0.59784
-0.258954 0.0503373 0.527105
-0.271283 0.0503128 0.51231
-0.172694 0.0503005 0.551921
-0.244264 0.050276 0.507525
-0.296567 0.0502515 0.472774
-0.197615 0.0502269 0.513662
-0.23697 0.0502146 0.484332
-0.245481 0.0501901 0.471508
-0.208012 0.0501655 0.481685
-0.180229 0.0501409 0.48703
-0.220722 0.0501286 0.457162
-0.160789 0.050104 0.478602
-0.231306 0.0500794 0.434829
-0.261661 0.0500548 0.411149
-0.153558 0.0500425 0.455609
-0.156802 0.0500111 0.446109
-0.19421 0.0499864 0.418934
-0.224826 0.0499618 0.395166
-0.154088 0.0499494 0.420976
-0.229191 0.0499248 0.374984
-0.163435 0.0499001 0.399434
-0.169745 0.0498754 0.387862
-0.294757 0.0498631 0.315827
-0.256416 0.0498384 0.326601
-0.253593 0.0498137 0.319627
-0.214439 0.0497956 0.330216
-0.267121 0.0497766 0.294991
-0.258314 0.0497518 0.29104
-0.209256 0.0497271 0.307226
-0.170464 0.0497147 0.317147
-0.191776 0.0496899 0.298168
-0.196686 0.0496652 0.287402
-0.222873 0.0496404 0.266009
-0.200412 0.049628 0.267794
-0.243222 0.0496032 0.23811
-0.227251 0.0495784 0.237827
-0.179761 0.049566 0.252149
-0.264851 0.0495411 0.201356
-0.185283 0.0495163 0.232904
-0.191827 0.0494915 0.221407
-0.165732 0.049479 0.225063
-0.185525 0.0494542 0.206961
-0.258572 0.0494293 0.162245
-0.229464 0.0494169 0.167429
-0.207099 0.049392 0.170439
-0.256425 0.0493671 0.137614
-0.221465 0.0493546 0.145747
-0.199913 0.0493297 0.148382
-0.184229 0.0493048 0.148094
-0.246477 0.0492738 0.109434
-0.206572 0.0492614 0.120071
-0.200471 0.0492364 0.115024
-0.206905 0.0492115 0.103721
-0.222543 0.049199 0.0866098
-0.217131 0.049174 0.08125
-0.174173 0.0491491 0.0946749
-0.262043 0.0491366 0.0414702
-0.134201 0.0491116 0.0973573
-0.203309 0.0490866 0.0547811
-0.204703 0.0490741 0.0448368
-0.213272 0.049049 0.0325505
-0.212941 0.049024 0.0247256
-0.231324 0.0490115 0.00630937
-0.233029 0.0489865 -0.00251327
-0.257542 0.0677345 1.97788
-0.153921 0.0677057 2.01936
-0.14721 0.0676768 2.01239
-0.114196 0.0676224 2.01968
-0.136076 0.0675936 1.99844
-0.19639 0.0675647 1.95799
-0.221642 0.0675358 1.93509
-0.107379 0.0674818 1.98305
-0.163879 0.0674529 1.94454
-0.152603 0.067424 1.93993
-0.195879 0.0673705 1.90915
-0.233777 0.0673415 1.87998
-0.190767 0.0673125 1.89128
-0.136862 0.0672595 1.90912
-0.264237 0.0672305 1.83524
-0.188419 0.0672015 1.86298
-0.277786 0.0671724 1.80813
-0.220865 0.0671198 1.82752
-0.230973 0.0670908 1.81232
-0.27466 0.0670617 1.78035
-0.201298 0.0670327 1.80692
-0.194663 0.0669805 1.80119
-0.17121 0.0669515 1.80283
-0.165249 0.0669223 1.79573
-0.168341 0.0668707 1.78516
-0.195578 0.0668416 1.76149
-0.159212 0.0668124 1.76962
-0.209901 0.0667833 1.73424
-0.26404 0.0667322 1.69819
-0.228259 0.066703 1.70607
-0.224327 0.0666738 1.69804
-0.214419 0.0666446 1.693
-0.22551 0.0666154 1.67747
-0.240346 0.0665647 1.66112
-0.226433 0.0665355 1.65812
-0.253592 0.0665062 1.6346
-0.22406 0.066477 1.63943
-0.19308 0.0664269 1.64602
-0.200063 0.0663976 1.63262
-0.195711 0.0663683 1.6249
-0.220023 0.066339 1.60286
-0.231858 0.0663096 1.58706
-0.184601 0.0662601 1.60183
-0.182121 0.0662454 1.59249
-0.209787 0.066216 1.56881
-0.166369 0.0661866 1.58069
-0.208861 0.0661572 1.54962
-0.182609 0.0661082 1.55393
-0.228932 0.0660788 1.52097
-0.196279 0.0660494 1.52751
-0.176981 0.06602 1.52738
-0.292691 0.0659905 1.45976
-0.277337 0.065942 1.45866
-0.183025 0.0659126 1.49608
-0.167559 0.0658831 1.49408
-0.249133 0.0658536 1.44357
-0.171953 0.0658241 1.47245
-0.252841 0.0657762 1.42328
-0.207948 0.0657614 1.43526
-0.2135 0.0657319 1.42281
-0.244085 0.0657023 1.39785
-0.230387 0.0656727 1.39504
-0.246736 0.0656431 1.37723
-0.200887 0.0656135 1.39052
-0.151828 0.0655662 1.40638
-0.18806 0.0655366 1.37865
-0.121507 0.0655069 1.40233
-0.273792 0.0654773 1.3166
-0.205593 0.0654476 1.34112
-0.334004 0.0654328 1.26654
-0.215434 0.0653861 1.3172
-0.247388 0.0653564 1.29168
-0.204131 0.0653267 1.30378
-0.17237 0.0652969 1.31014
-0.183105 0.0652672 1.29526
-0.214444 0.0652375 1.27009
-0.228258 0.0651913 1.25461
-0.194253 0.0651615 1.26213
-0.246102 0.0651467 1.22591
-0.190015 0.0651169 1.2445
-0.216579 0.0650871 1.22177
-0.197345 0.0650573 1.22195
-0.239529 0.0650274 1.19143
-0.148052 0.0649819 1.22866
-0.226698 0.064952 1.17993
-0.083514 0.0649222 1.24214
-0.235953 0.0649072 1.15568
-0.23849 0.0648773 1.14504
-0.266181 0.0648475 1.12184
-0.225243 0.0648175 1.13296
-0.105802 0.0647876 1.18334
-0.243737 0.0647427 1.10593
-0.26119 0.0647127 1.08789
-0.223916 0.0646977 1.09634
-0.191771 0.0646678 1.10312
-0.279872 0.0646378 1.04979
-0.165687 0.0646078 1.09761
-0.251009 0.0645778 1.04569
-0.205397 0.0645478 1.05925
-0.151552 0.0645034 1.07779
-0.121721 0.0644884 1.08258
-0.197489 0.0644584 1.03548
-0.167891 0.0644283 1.04107
-0.223609 0.0643983 1.00402
-0.169963 0.0643682 1.02166
-0.208691 0.0643381 0.993119
-0.152382 0.0643222 1.01124
-0.214656 0.0642929 0.970905
-0.110504 0.0642628 1.01384
-0.174119 0.064219 0.973735
-0.232102 0.0641889 0.935625
-0.204705 0.0641587 0.940217
-0.130814 0.0641436 0.967133
-0.159163 0.0641134 0.94387
-0.243287 0.0640833 0.892732
-0.18352 0.064053 0.91355
-0.203336 0.0640228 0.894588
-0.260942 0.0639926 0.856741
-0.137402 0.0639775 0.908528
-0.152751 0.0639343 0.892642
-0.123143 0.0639041 0.898435
-0.167788 0.0638738 0.867113
-0.154541 0.0638435 0.864748
-0.140464 0.063826 0.86199
-0.25145 0.063798 0.797381
-0.231183 0.0637677 0.798557
-0.131215 0.0637374 0.839594
-0.26295 0.063707 0.764791
-0.191884 0.0636767 0.7914
-0.179594 0.0636615 0.787648
-0.168117 0.063619 0.78527
-0.226494 0.0635886 0.747189
-0.248561 0.0635582 0.727275
-0.243988 0.0635278 0.720693
-0.246418 0.0635126 0.709621
-0.193098 0.0634821 0.727431
-0.1573 0.0634517 0.736491
-0.178089 0.0634212 0.717269
-0.212611 0.063406 0.690182
-0.213653 0.0633755 0.680853
-0.212853 0.063345 0.672456
-0.195109 0.0633145 0.672543
-0.18065 0.063284 0.670999
-0.226137 0.0632687 0.638467
-0.169549 0.0632268 0.658772
-0.189838 0.0631963 0.639886
-0.244295 0.0631657 0.603927
-0.245548 0.0631351 0.594582
-0.210664 0.0631198 0.602275
-0.241254 0.0630892 0.578281
-0.316533 0.0630586 0.531954
-0.172403 0.063028 0.595342
-0.232442 0.0630127 0.555606
-0.265187 0.0629821 0.530576
-0.163496 0.0629514 0.572776
-0.221869 0.0629208 0.534955
-0.167877 0.0629054 0.552264
-0.182577 0.0628747 0.536299
-0.175032 0.062844 0.531469
-0.208364 0.0628133 0.506211
-0.141288 0.062798 0.530093
-0.19857 0.0627567 0.493622
-0.217269 0.0627259 0.475713
-0.248486 0.0626952 0.451557
-0.169049 0.0626798 0.481651
-0.184095 0.0626491 0.4656
-0.203172 0.0626183 0.447544
-0.252543 0.0625875 0.414354
-0.208637 0.0625721 0.426713
-0.222298 0.0625413 0.411397
-0.192967 0.0625104 0.417588
-0.203537 0.0624796 0.403841
-0.287431 0.0624642 0.35233
-0.208798 0.0624333 0.383204
-0.271943 0.0624025 0.3432
-0.115427 0.0623716 0.413039
-0.209586 0.0623561 0.356427
-0.220754 0.0623252 0.342443
-0.254295 0.0622943 0.317284
-0.299972 0.0622634 0.286069
-0.261291 0.0622479 0.295908
-0.183334 0.062217 0.326529
-0.224812 0.062186 0.297445
-0.23563 0.0621705 0.282556
-0.211517 0.0621298 0.287008
-0.202404 0.0620988 0.283252
-0.153827 0.0620678 0.299239
-0.223011 0.0620523 0.2552
-0.139181 0.0620213 0.288833
-0.24415 0.0619903 0.228079
-0.224379 0.0619748 0.228539
-0.212595 0.0619437 0.226182
-0.209932 0.0619126 0.219275
-0.241179 0.0618816 0.195425
-0.19436 0.061866 0.209441
-0.223974 0.0618349 0.186427
-0.185059 0.0618038 0.19769
-0.215177 0.0617883 0.173259
-0.235531 0.0617571 0.154907
-0.230393 0.061726 0.149313
-0.236138 0.0617104 0.137091
-0.275805 0.0616793 0.109115
-0.231217 0.0616481 0.123277
-0.209037 0.0616169 0.126248
-0.231566 0.0616013 0.105665
-0.225256 0.0615701 0.10072
-0.224932 0.0615389 0.092794
-0.202469 0.0615233 0.0947298
-0.214049 0.0614921 0.0808722
-0.175034 0.0614608 0.0923233
-0.254046 0.0614452 0.0435445
-0.190401 0.0614139 0.0673306
-0.305869 0.0613826 0.00157231
-0.270659 0.061367 0.00992711
-0.178147 0.0613357 0.0481791
-0.278681 0.0613044 -0.0100802
-0.227489 0.0612887 0.00628771
-0.212134 0.0612574 0.0059931
-0.211069 0.081442 1.9954
-0.163191 0.0814074 2.00898
-0.090765 0.0813397 2.03603
-0.187472 0.081305 1.97735
-0.19963 0.0812703 1.96095
-0.237578 0.081203 1.93284
-0.143908 0.0811683 1.96938
-0.142744 0.0811336 1.95968
-0.12965 0.0810668 1.95713
-0.198872 0.081032 1.91225
-0.121568 0.0809972 1.94066
-0.0900553 0.0809309 1.94735
-0.138801 0.0808961 1.91275
-0.205175 0.0808612 1.86935
-0.160711 0.0807954 1.88254
-0.0979022 0.0807605 1.90376
-0.186317 0.0807257 1.84937
-0.207392 0.0806603 1.82982
-0.254122 0.0806254 1.79631
-0.194677 0.0805905 1.81588
-0.170057 0.0805256 1.81921
-0.206391 0.0804907 1.79093
-0.121878 0.0804557 1.82308
-0.194875 0.0804208 1.77648
-0.210436 0.0803564 1.75976
-0.168685 0.0803214 1.77057
-0.219015 0.0802864 1.73534
-0.309221 0.0802226 1.68132
-0.250728 0.0801876 1.70053
-0.130884 0.0801526 1.75043
-0.176069 0.0801175 1.71782
-0.180247 0.0800543 1.70685
-0.1875 0.0800192 1.69324
-0.138589 0.0799841 1.70771
-0.192869 0.0799489 1.67061
-0.206155 0.0798863 1.65512
-0.20022 0.0798511 1.64815
-0.161883 0.0798159 1.65738
-0.115771 0.0797808 1.67052
-0.214701 0.0797187 1.61225
-0.261095 0.0796835 1.57915
-0.194213 0.0796659 1.60198
-0.143292 0.0796306 1.61756
-0.137591 0.0795954 1.61054
-0.191698 0.0795339 1.57473
-0.180669 0.0794986 1.5704
-0.225068 0.0794633 1.53837
-0.189274 0.079428 1.54645
-0.146259 0.0793927 1.55814
-0.165019 0.0793318 1.54005
-0.177512 0.0792965 1.52402
-0.14848 0.0792611 1.52876
-0.178262 0.0792257 1.5041
-0.186514 0.0791655 1.4913
-0.187007 0.0791301 1.48131
-0.124603 0.0790946 1.50278
-0.204155 0.0790592 1.45329
-0.233644 0.0790414 1.42806
-0.190584 0.079006 1.4399
-0.234245 0.0789464 1.40944
-0.161403 0.0789109 1.43618
-0.206504 0.0788754 1.40397
-0.201123 0.0788398 1.39701
-0.185386 0.0788043 1.39524
-0.186517 0.0787453 1.38608
-0.155541 0.0787098 1.39196
-0.220611 0.0786742 1.34981
-0.246722 0.0786386 1.32716
-0.203208 0.0786208 1.33853
-0.194706 0.0785851 1.33321
-0.199853 0.0785495 1.32107
-0.180371 0.0784912 1.32229
-0.158998 0.0784555 1.32343
-0.167486 0.0784198 1.30966
-0.221979 0.0783841 1.27289
-0.221237 0.0783484 1.26376
-0.163633 0.0783127 1.28306
-0.19052 0.0782551 1.26115
-0.140722 0.0782372 1.27574
-0.280816 0.0782014 1.19623
-0.146705 0.0781656 1.25383
-0.257359 0.0781298 1.18906
-0.200544 0.078094 1.20804
-0.20285 0.0780371 1.19847
-0.139506 0.0780012 1.22073
-0.190924 0.0779654 1.18563
-0.204652 0.0779474 1.16852
-0.217606 0.0779116 1.15267
-0.180144 0.0778757 1.16203
-0.241214 0.0778397 1.12214
-0.175237 0.0778038 1.14579
-0.198736 0.0777476 1.12569
-0.134676 0.0777116 1.1484
-0.244204 0.0776936 1.08345
-0.21526 0.0776576 1.08862
-0.212208 0.0776216 1.08086
-0.164797 0.0775856 1.09529
-0.229208 0.0775496 1.05381
-0.182981 0.0774941 1.06864
-0.298379 0.077458 1.00169
-0.253419 0.07744 1.01404
-0.219934 0.0774039 1.02156
-0.126095 0.0773678 1.05927
-0.110308 0.0773317 1.05796
-0.246539 0.0772956 0.980658
-0.243429 0.0772594 0.973034
-0.186956 0.0772233 0.992103
-0.121992 0.0771865 1.01546
-0.225515 0.0771503 0.954549
-0.237211 0.0771142 0.939566
-0.283083 0.0770779 0.907506
-0.212736 0.0770417 0.933566
-0.190382 0.0770055 0.935642
-0.191072 0.0769874 0.925269
-0.254476 0.0769511 0.884484
-0.17718 0.0769148 0.914061
-0.253151 0.0768785 0.867016
-0.296155 0.0768244 0.837395
-0.253681 0.0768062 0.848645
-0.17019 0.0767699 0.881363
-0.179645 0.0767336 0.867619
-0.209221 0.0766972 0.843826
-0.22669 0.0766608 0.826098
-0.244614 0.0766244 0.808153
-0.124252 0.0766062 0.858393
-0.352695 0.0765698 0.735208
-0.146279 0.0765334 0.829464
-0.279591 0.07648 0.754777
-0.24277 0.0764435 0.76426
-0.240448 0.0764253 0.75552
-0.299985 0.0763888 0.716844
-0.255672 0.0763523 0.730103
-0.204887 0.0763158 0.74661
-0.233098 0.0762793 0.72363
-0.262054 0.076261 0.69929
-0.215558 0.0762245 0.713683
-0.305106 0.0761879 0.660065
-0.160155 0.0761513 0.723708
-0.271357 0.0761147 0.659286
-0.219533 0.0760964 0.675375
-0.165424 0.0760437 0.694519
-0.246276 0.0760071 0.645305
-0.244903 0.0759705 0.637214
-0.241499 0.0759521 0.629125
-0.195813 0.0759155 0.64321
-0.324251 0.0758788 0.570245
-0.138212 0.0758421 0.65453
-0.214072 0.0758054 0.607876
-0.191527 0.075787 0.609395
-0.193666 0.0757503 0.599622
-0.12494 0.0757135 0.625293
-0.190525 0.0756767 0.583819
-0.161265 0.0756584 0.588726
-0.342132 0.0756216 0.489632
-0.22851 0.0755848 0.537793
-0.225433 0.0755328 0.531565
-0.166509 0.0755144 0.551337
-0.269968 0.0754775 0.49099
-0.14466 0.0754407 0.545038
-0.218307 0.0754038 0.49962
-0.164245 0.0753854 0.516991
-0.163051 0.0753485 0.509013
-0.21491 0.0753116 0.474521
-0.236377 0.0752746 0.455235
-0.277687 0.0752562 0.424951
-0.222741 0.0752192 0.443892
-0.244116 0.0751823 0.424684
-0.130543 0.0751453 0.472961
-0.254852 0.0751268 0.401208
-0.212921 0.0750898 0.413684
-0.224828 0.0750527 0.399253
-0.164994 0.0750157 0.420703
-0.244825 0.0749972 0.37122
-0.196534 0.0749601 0.386919
-0.283604 0.0749089 0.335804
-0.261441 0.0748718 0.338463
-0.197342 0.0748533 0.360977
-0.270872 0.0748161 0.31581
-0.204043 0.074779 0.340834
-0.169033 0.0747419 0.34996
-0.209936 0.0747233 0.320003
-0.17785 0.0746862 0.327687
-0.265785 0.074649 0.275372
-0.176072 0.0746304 0.310745
-0.218984 0.0745932 0.280961
-0.227396 0.074556 0.26844
-0.209231 0.0745188 0.269217
-0.161237 0.0745001 0.283763
-0.274079 0.0744629 0.219057
-0.213402 0.0744256 0.241122
-0.212295 0.074407 0.232246
-0.241537 0.0743697 0.209372
-0.238975 0.0743324 0.202412
-0.284251 0.0742951 0.171544
-0.204226 0.0742764 0.202158
-0.231334 0.0742391 0.180394
-0.193368 0.0742017 0.191179
-0.222787 0.074183 0.167094
-0.25932 0.0741456 0.140649
-0.270894 0.0741082 0.126695
-0.231955 0.0740895 0.136811
-0.28093 0.0740521 0.104178
-0.134142 0.0740147 0.169437
-0.218661 0.0739772 0.119054
-0.198368 0.0739585 0.119878
-0.185528 0.073921 0.118195
-0.289846 0.0738835 0.0579451
-0.244274 0.0738648 0.0714312
-0.220369 0.0738273 0.0753124
-0.18998 0.0737897 0.0824477
-0.260867 0.073771 0.0377269
-0.243656 0.0737334 0.0382932
-0.218264 0.0736958 0.0429616
-0.290178 0.0736771 -0.00224971
-0.219095 0.0736264 0.0261445
-0.266307 0.0735889 -0.00545582
-0.344524 0.0735701 -0.0537947
-0.298309 0.0735324 -0.0386613
-0.13172 0.0952368 2.01671
-0.179893 0.0951551 1.98351
-0.144471 0.0951146 1.99086
-0.173676 0.0950332 1.96717
-0.147715 0.0949927 1.96981
-0.126339 0.0949117 1.97144
-0.103029 0.0948711 1.97278
-0.164819 0.0947703 1.93348
-0.13431 0.0947297 1.93845
-0.165848 0.0946496 1.91367
-0.16978 0.094609 1.90144
-0.0717701 0.0945683 1.9402
-0.116805 0.0944887 1.9087
-0.204252 0.094448 1.85475
-0.192174 0.0943689 1.85183
-0.157644 0.0943282 1.85889
-0.132436 0.0942874 1.86131
-0.146817 0.0942088 1.84519
-0.178361 0.094168 1.81926
-0.101945 0.0941272 1.84732
-0.180373 0.0940491 1.7992
-0.10395 0.0940083 1.82728
-0.183709 0.0939675 1.77729
-0.178629 0.0938899 1.77096
-0.169675 0.0938491 1.76535
-0.217335 0.0938082 1.73144
-0.188197 0.0937673 1.73594
-0.11356 0.0936903 1.76443
-0.150919 0.0936493 1.73571
-0.184902 0.0936084 1.70869
-0.162901 0.093532 1.71089
-0.248857 0.093491 1.6579
-0.231288 0.09345 1.65669
-0.155304 0.0934089 1.6847
-0.11627 0.0933331 1.69546
-0.185933 0.0932921 1.65067
-0.140149 0.093251 1.66361
-0.204947 0.0931758 1.62248
-0.194118 0.0931552 1.61724
-0.142 0.0931141 1.63339
-0.209355 0.093073 1.58981
-0.184628 0.0930318 1.59228
-0.237268 0.0929573 1.55727
-0.0913339 0.0929161 1.62037
-0.241278 0.0928749 1.53554
-0.14647 0.0928336 1.5731
-0.333227 0.0927597 1.47107
-0.178552 0.0927185 1.53859
-0.24039 0.0926772 1.49786
-0.274258 0.0926359 1.47113
-0.173881 0.0925627 1.5127
-0.219192 0.0925214 1.48027
-0.140128 0.09248 1.51004
-0.171478 0.0924387 1.48461
-0.136442 0.0923973 1.49239
-0.148237 0.0923454 1.47715
-0.191569 0.092304 1.44577
-0.180587 0.0922626 1.44155
-0.154424 0.0922212 1.44493
-0.175615 0.0921797 1.42465
-0.152595 0.0921078 1.42764
-0.192923 0.0920663 1.39781
-0.231157 0.0920248 1.36904
-0.188027 0.0919833 1.38097
-0.11733 0.0919418 1.40669
-0.116289 0.0918706 1.39873
-0.170283 0.0918291 1.36213
-0.204188 0.0918083 1.33478
-0.241504 0.0917667 1.30654
-0.127127 0.091725 1.35415
-0.275623 0.0916834 1.27034
-0.206716 0.091613 1.29637
-0.221914 0.0915713 1.27923
-0.249417 0.0915296 1.25595
-0.16042 0.0914879 1.29094
-0.259131 0.0914462 1.23208
-0.186003 0.0914044 1.25914
-0.168078 0.0913556 1.25891
-0.170157 0.0913139 1.24839
-0.0946749 0.0912721 1.27667
-0.169637 0.0912303 1.22974
-0.123628 0.0911885 1.24331
-0.25833 0.0911466 1.16653
-0.205352 0.0910777 1.1847
-0.209683 0.0910358 1.17313
-0.233834 0.0910149 1.1508
-0.246621 0.090973 1.13503
-0.148589 0.0909311 1.17467
-0.242253 0.0908891 1.11847
-0.189544 0.0908472 1.13548
-0.237128 0.090779 1.10343
-0.184352 0.090737 1.12049
-0.14457 0.090716 1.13019
-0.216943 0.090674 1.0847
-0.23755 0.090632 1.0651
-0.176015 0.0905899 1.08658
-0.242673 0.0905479 1.04397
-0.236411 0.0905058 1.03784
-0.238871 0.0904384 1.02844
-0.197572 0.0904173 1.03895
-0.261067 0.0903752 0.997969
-0.176196 0.0903331 1.03119
-0.215686 0.0902909 1.00223
-0.189376 0.0902487 1.00619
-0.246081 0.0902065 0.968652
-0.165187 0.0901643 0.999924
-0.206221 0.0901188 0.970384
-0.18367 0.0900766 0.972506
-0.217768 0.0900343 0.946316
-0.166367 0.0899921 0.962885
-0.20997 0.0899498 0.931964
-0.183024 0.0899075 0.936328
-0.0765776 0.0898863 0.979517
-0.152267 0.0898439 0.932583
-0.185851 0.0898016 0.906713
-0.197216 0.0897358 0.893008
-0.164154 0.0896934 0.900486
-0.151165 0.0896722 0.896986
-0.297851 0.0896298 0.81461
-0.159868 0.0895874 0.874578
-0.250487 0.0895449 0.820258
-0.163512 0.0895024 0.854745
-0.189016 0.0894599 0.833004
-0.215929 0.0894387 0.809599
-0.23591 0.0893962 0.790639
-0.165883 0.0893312 0.817724
-0.191083 0.0892886 0.796179
-0.177842 0.0892461 0.793866
-0.207906 0.0892248 0.768926
-0.232676 0.0891822 0.747627
-0.263078 0.0891396 0.723524
-0.227838 0.089097 0.732252
-0.24101 0.0890543 0.716785
-0.312377 0.089033 0.671233
-0.237767 0.0889903 0.699677
-0.210993 0.0889476 0.704215
-0.173958 0.0888834 0.714907
-0.257143 0.0888407 0.66449
-0.243024 0.0888193 0.661721
-0.225716 0.0887766 0.66157
-0.190964 0.0887338 0.670152
-0.176986 0.088691 0.668358
-0.19697 0.0886696 0.648568
-0.19286 0.0886268 0.64186
-0.178499 0.088584 0.640289
-0.189217 0.0885411 0.62619
-0.187485 0.0884983 0.618327
-0.147508 0.0884768 0.628557
-0.189147 0.0884339 0.599028
-0.201146 0.088391 0.58433
-0.191422 0.0883277 0.581505
-0.143177 0.0883062 0.5959
-0.18871 0.0882632 0.564469
-0.169254 0.0882203 0.565544
-0.178554 0.0881773 0.552251
-0.235483 0.0881558 0.514091
-0.172672 0.0881128 0.536874
-0.204022 0.0880697 0.512588
-0.280658 0.0880267 0.465671
-0.216755 0.0880052 0.487956
-0.150467 0.0879621 0.512521
-0.169762 0.087919 0.494305
-0.232378 0.0878759 0.45444
-0.219124 0.087853 0.451497
-0.157519 0.0878112 0.473697
-0.179991 0.087768 0.453936
-0.158685 0.0877248 0.456075
-0.260239 0.0877032 0.395693
-0.146703 0.0876407 0.444955
-0.126081 0.0875975 0.446785
-0.196941 0.0875542 0.402886
-0.181959 0.0875326 0.400805
-0.239723 0.0874893 0.363473
-0.218781 0.0874461 0.365506
-0.244575 0.0874028 0.344182
-0.143738 0.0873811 0.385059
-0.275412 0.0873378 0.310816
-0.258951 0.0872944 0.310651
-0.183409 0.0872511 0.340038
-0.172441 0.0872294 0.336012
-0.16786 0.087186 0.329939
-0.167949 0.0871426 0.321542
-0.227027 0.0871209 0.282515
-0.121303 0.0870775 0.327045
-0.258911 0.087034 0.24992
-0.213072 0.0869905 0.264531
-0.20445 0.0869688 0.259384
-0.209731 0.0869253 0.248454
-0.180568 0.0868818 0.254759
-0.195494 0.08686 0.237861
-0.255477 0.0868165 0.199612
-0.179693 0.0867729 0.229258
-0.202364 0.0867294 0.209688
-0.0976581 0.0867076 0.252637
-0.179204 0.0866458 0.204636
-0.225034 0.0866022 0.17352
-0.147372 0.0865804 0.202972
-0.200652 0.0865367 0.168151
-0.208593 0.0864931 0.156011
-0.157261 0.0864712 0.17232
-0.244372 0.0864276 0.120616
-0.144346 0.0863839 0.162491
-0.16413 0.0863401 0.144474
-0.109656 0.0863183 0.162385
-0.209294 0.0862745 0.10446
-0.227558 0.0862308 0.0872338
-0.297506 0.0862089 0.0429565
-0.247431 0.0861651 0.0599205
-0.206436 0.0861213 0.0723559
-0.244761 0.0860994 0.0439126
-0.178393 0.0860556 0.0690548
-0.168808 0.0860117 0.0658168
-0.173535 0.0859898 0.0541953
-0.262811 0.0859459 0.00154733
-0.191876 0.085902 0.0290167
-0.312442 0.08588 -0.0405013
-0.230397 0.0858361 -0.00745717
-0.0741363 0.109257 2.03439
-0.178667 0.10916 1.97305
-0.0593784 0.109064 2.02363
-0.135996 0.108945 1.9769
-0.170709 0.108899 1.94917
-0.103136 0.108803 1.97394
-0.155957 0.108708 1.93852
-0.191248 0.108662 1.91055
-0.0815266 0.108567 1.95643
-0.086749 0.10852 1.94351
-0.10503 0.108426 1.92542
-0.232347 0.108379 1.85148
