ply
format ascii 1.0
comment Created by Open3D
element vertex 1681
property double x
property double y
property double z
end_header
-0.129793 -0.18888 0.406164
-0.0380193 -0.188788 0.443492
-0.110893 -0.188697 0.398508
-0.0449624 -0.188605 0.422938
-0.0587975 -0.188559 0.406387
-0.013987 -0.188468 0.420277
-0.204996 -0.188376 0.316268
-0.163411 -0.188284 0.328566
-0.0631719 -0.188238 0.369083
-0.122768 -0.188147 0.330812
-0.0521874 -0.188055 0.35764
-0.108822 -0.187963 0.320872
-0.00441952 -0.187917 0.363501
-0.400903 -0.187825 0.156828
-0.0657785 -0.187733 0.315971
-0.0240285 -0.187641 0.328437
-0.194891 -0.187595 0.233464
-0.174353 -0.187503 0.235345
-0.304055 -0.187411 0.162117
-0.190291 -0.187319 0.210633
-0.178674 -0.187273 0.20693
-0.192156 -0.187181 0.191844
-0.210492 -0.187088 0.174342
-0.012095 -0.186996 0.265217
-0.12984 -0.18695 0.196864
-0.101138 -0.186858 0.202912
-0.212916 -0.186765 0.138731
-0.134745 -0.186719 0.168358
-0.139258 -0.186627 0.15783
-0.0186756 -0.186534 0.209861
-0.105137 -0.186442 0.158382
-0.189745 -0.186396 0.10665
-0.280447 -0.186303 0.0530702
-0.0994595 -0.186211 0.135347
-0.174379 -0.186118 0.0896812
-0.127074 -0.186072 0.103936
-0.191455 -0.185979 0.0635601
-0.218788 -0.185886 0.0417195
-0.0529822 -0.18584 0.115247
-0.0603389 -0.185747 0.103415
-0.175626 -0.185654 0.0376287
-0.125458 -0.185562 0.0545816
-0.25542 -0.185515 -0.0197435
-0.12775 -0.185422 0.0359802
-0.22838 -0.185329 -0.0224343
-0.0915916 -0.185283 0.0366381
-0.14691 -0.18519 0.000899402
-0.218757 -0.188211 1.99636
-0.115657 -0.188132 2.03765
-0.465332 -0.188052 1.85257
-0.241776 -0.187972 1.95411
-0.175941 -0.187892 1.9768
-0.294665 -0.187842 1.90677
-0.383237 -0.187762 1.85228
-0.28257 -0.187682 1.89242
-0.273618 -0.187602 1.88671
-0.179887 -0.187522 1.9234
-0.249789 -0.187442 1.87828
-0.191046 -0.187393 1.89701
-0.284033 -0.187313 1.84037
-0.19082 -0.187233 1.87684
-0.158511 -0.187153 1.88287
-0.287388 -0.187073 1.80831
-0.315388 -0.187025 1.78367
-0.273449 -0.186945 1.79455
-0.217967 -0.186865 1.8122
-0.185113 -0.186784 1.81855
-0.0980321 -0.186704 1.85203
-0.322398 -0.186659 1.72921
-0.168806 -0.186578 1.79596
-0.184932 -0.186498 1.77786
-0.261558 -0.186417 1.72952
-0.0913491 -0.186337 1.80461
-0.195281 -0.186256 1.74264
-0.17178 -0.186212 1.74377
-0.266373 -0.186132 1.68649
-0.204353 -0.186051 1.70753
-0.443713 -0.186011 1.57719
-0.457665 -0.18593 1.56026
-0.116004 -0.185849 1.72114
-0.148343 -0.185807 1.69436
-0.233278 -0.185726 1.64197
-0.0973313 -0.185645 1.70002
-0.190772 -0.185565 1.64339
-0.172689 -0.185484 1.64254
-0.109704 -0.185443 1.66343
-0.210403 -0.185362 1.6032
-0.241242 -0.185281 1.57791
-0.245381 -0.1852 1.56599
-0.257314 -0.185119 1.55018
-0.217733 -0.185038 1.56013
-0.304884 -0.184997 1.506
-0.405319 -0.184918 1.44593
-0.262369 -0.184837 1.5076
-0.166911 -0.184755 1.54553
-0.380657 -0.184715 1.42813
-0.156555 -0.184633 1.5304
-0.106611 -0.184552 1.54561
-0.181272 -0.184515 1.4977
-0.292243 -0.184433 1.43247
-0.142725 -0.184352 1.49749
-0.348108 -0.18427 1.38507
-0.240508 -0.184189 1.42915
-0.148326 -0.184107 1.46554
0.0083443 -0.184066 1.53341
-0.185258 -0.18399 1.42682
-0.324996 -0.183908 1.34727
-0.256076 -0.183826 1.37207
-0.410501 -0.183785 1.28442
-0.187777 -0.183704 1.38613
-0.237357 -0.183622 1.35171
-0.335053 -0.183581 1.29244
-0.337368 -0.183506 1.28153
-0.155673 -0.183424 1.36277
-0.201964 -0.183342 1.33003
-0.139777 -0.18326 1.35154
-0.223067 -0.183178 1.30032
-0.149351 -0.183096 1.32761
-0.350429 -0.183063 1.21654
-0.394946 -0.183022 1.18392
-0.240276 -0.18294 1.25172
-0.169927 -0.182858 1.27737
-0.32874 -0.182775 1.18844
-0.0986871 -0.182693 1.29396
-0.0870077 -0.182611 1.29031
-0.0726607 -0.18257 1.28717
-0.199486 -0.182497 1.21407
-0.248791 -0.182415 1.17995
-0.116621 -0.182374 1.23574
-0.222124 -0.182291 1.17355
-0.182671 -0.182209 1.18384
-0.111853 -0.182126 1.20982
-0.214281 -0.182043 1.14919
-0.163852 -0.182002 1.16415
-0.285396 -0.181931 1.09374
-0.192762 -0.181849 1.13067
-0.201976 -0.181766 1.11669
-0.115353 -0.181724 1.14977
-0.129281 -0.181642 1.13345
-0.0598534 -0.181559 1.15882
-0.105819 -0.181476 1.1265
-0.185342 -0.181393 1.07742
-0.291354 -0.181365 1.01394
-0.315012 -0.181282 0.992803
-0.00383656 -0.181199 1.1391
-0.154889 -0.181157 1.0534
-0.0785438 -0.181074 1.0823
-0.0423692 -0.180991 1.09112
-0.157941 -0.180908 1.02408
-0.204014 -0.180825 0.991805
-0.17915 -0.180741 0.995006
-0.189417 -0.180715 0.979423
-0.127648 -0.180673 1.00019
-0.286158 -0.18059 0.911727
-0.186206 -0.180506 0.95251
-0.19791 -0.180423 0.937475
-0.156262 -0.180339 0.949128
-0.0799834 -0.180256 0.978107
-0.0966789 -0.180172 0.960609
-0.175486 -0.180131 0.911139
-0.136764 -0.180047 0.92137
-0.288238 -0.180022 0.835213
-0.0974781 -0.179938 0.921481
-0.211935 -0.179854 0.855151
-0.0719819 -0.179771 0.916038
-0.00465057 -0.179729 0.939679
-0.151376 -0.179645 0.857245
-0.310456 -0.179561 0.768645
-0.335264 -0.179477 0.747192
-0.0998176 -0.179393 0.855878
-0.126852 -0.179309 0.833334
-0.26676 -0.179267 0.753401
-0.307595 -0.179226 0.72301
-0.274518 -0.179159 0.730138
-0.209228 -0.179075 0.753794
-0.140744 -0.178991 0.779058
-0.116963 -0.178907 0.781982
-0.202807 -0.178865 0.729123
-0.299896 -0.178781 0.671631
-0.13111 -0.178697 0.747088
-0.308302 -0.178612 0.649566
-0.204148 -0.178528 0.692729
-0.238535 -0.178486 0.665637
-0.184477 -0.178402 0.683771
0.00416195 -0.178317 0.769207
0.0294002 -0.178275 0.771949
-0.235453 -0.17821 0.6302
-0.164594 -0.178125 0.656776
-0.208772 -0.178083 0.62483
-0.0998053 -0.177999 0.670479
-0.234424 -0.177914 0.594346
-0.201227 -0.177829 0.602132
-0.084031 -0.177745 0.651929
-0.165891 -0.177702 0.601181
0.0170155 -0.177618 0.683852
-0.117401 -0.177533 0.607874
-0.169172 -0.177448 0.573229
-0.21767 -0.177363 0.540232
-0.0383457 -0.177321 0.620114
-0.287409 -0.177236 0.486854
-0.0870684 -0.177151 0.578307
-0.0701746 -0.177066 0.578048
0.0558144 -0.177087 0.629729
-0.184918 -0.177002 0.500672
-0.0886342 -0.176917 0.540134
-0.0953331 -0.176832 0.528117
-0.295038 -0.176747 0.419608
-0.287673 -0.176704 0.413575
-0.199984 -0.176619 0.448782
-0.228758 -0.176534 0.425769
0.0103815 -0.176449 0.536724
-0.1919 -0.176406 0.425898
-0.0182914 -0.176321 0.504107
-0.0840077 -0.176235 0.462666
-0.118719 -0.17615 0.436738
-0.154546 -0.176065 0.410263
-0.0592702 -0.176022 0.448254
-0.196347 -0.175936 0.371174
-0.211745 -0.175851 0.354945
-0.101814 -0.175765 0.401393
-0.326005 -0.175723 0.27968
-0.194948 -0.175637 0.33671
-0.095155 -0.175552 0.378119
-0.126945 -0.175466 0.353748
-0.213008 -0.175423 0.30113
0.0492392 -0.175337 0.423797
-0.0464991 -0.175252 0.367483
0.0596237 -0.175166 0.41211
-0.315419 -0.175123 0.215033
-0.194544 -0.175037 0.267057
-0.137969 -0.174951 0.286942
-0.278554 -0.174866 0.208258
-0.229202 -0.174823 0.223409
-0.054943 -0.174737 0.302167
-0.148733 -0.174651 0.246912
-0.117891 -0.174565 0.253985
-0.370276 -0.174522 0.118297
-0.159137 -0.1745 0.213795
-0.13644 -0.174414 0.216823
-0.0411842 -0.174328 0.256141
-0.144573 -0.174285 0.194978
-0.0854851 -0.174199 0.216232
-0.306867 -0.174113 0.0972624
-0.0471317 -0.174026 0.218863
-0.141463 -0.173983 0.16226
-0.197417 -0.173897 0.126035
-0.21707 -0.173811 0.107974
-0.186461 -0.173767 0.113862
-0.0445739 -0.173681 0.17659
-0.171904 -0.173595 0.104721
-0.0470086 -0.173508 0.158976
-0.19085 -0.173465 0.0776706
-0.0710244 -0.173314 0.131216
-0.105533 -0.173227 0.105805
-0.204316 -0.173184 0.0470549
-0.101866 -0.173097 0.0901425
-0.201116 -0.17301 0.0323922
-0.0612425 -0.172924 0.0942151
-0.256983 -0.17288 -0.0129825
-0.00921051 -0.172794 0.10281
-0.175999 -0.172707 0.011333
-0.173394 -0.172664 0.00333074
-0.162828 -0.172577 0.000551458
-0.243284 -0.174661 1.98585
-0.148443 -0.174587 2.02303
-0.174172 -0.174513 1.99993
-0.274546 -0.174439 1.93951
-0.419664 -0.174402 1.85611
-0.121038 -0.174349 1.99485
-0.205174 -0.174275 1.94259
-0.151738 -0.174164 1.95975
-0.331858 -0.174089 1.85951
-0.354871 -0.174052 1.8372
-0.297074 -0.174001 1.85554
-0.37873 -0.173927 1.80456
-0.188011 -0.173853 1.88978
-0.263431 -0.173778 1.84194
-0.156096 -0.173704 1.88549
-0.297209 -0.173655 1.80438
-0.331255 -0.17358 1.77726
-0.138682 -0.173505 1.86346
-0.543919 -0.173431 1.65076
-0.0569758 -0.173356 1.88416
-0.279219 -0.173282 1.76298
-0.306356 -0.173234 1.73888
-0.155949 -0.173159 1.80404
-0.269366 -0.173085 1.73731
-0.288714 -0.17301 1.71761
-0.283706 -0.172935 1.71011
-0.0721356 -0.172889 1.80537
-0.151507 -0.172814 1.7557
-0.261901 -0.172739 1.69052
-0.233942 -0.172664 1.69453
-0.347522 -0.172589 1.62778
-0.134245 -0.172514 1.72448
-0.198392 -0.17247 1.68189
-0.211863 -0.172395 1.66523
-0.207842 -0.17232 1.65732
-0.366483 -0.172245 1.56809
-0.277449 -0.17217 1.60271
-0.34496 -0.172094 1.55907
-0.0731899 -0.172089 1.68374
-0.229457 -0.172014 1.59574
-0.1051 -0.171939 1.64806
-0.0632112 -0.171863 1.65916
-0.18248 -0.171788 1.58968
-0.181208 -0.171713 1.58049
-0.296409 -0.171672 1.51241
-0.286199 -0.171596 1.5077
-0.132826 -0.171521 1.57459
-0.206113 -0.171445 1.52816
-0.183364 -0.171369 1.52976
-0.310896 -0.171294 1.45623
-0.217356 -0.171218 1.49324
-0.227781 -0.171179 1.47756
-0.172347 -0.171103 1.49554
-0.399898 -0.171065 1.37128
-0.140263 -0.170989 1.49138
-0.281035 -0.170914 1.41129
-0.285062 -0.170838 1.39958
-0.14566 -0.170762 1.45959
-0.165803 -0.170724 1.43907
-0.186578 -0.170648 1.41902
-0.233046 -0.170572 1.38612
-0.269679 -0.170496 1.35816
-0.174149 -0.17042 1.39629
-0.170413 -0.170344 1.38853
-0.236302 -0.170306 1.34519
-0.269111 -0.170269 1.31835
-0.311219 -0.170193 1.2877
-0.202193 -0.170117 1.33262
-0.162609 -0.170041 1.34284
-0.29698 -0.169965 1.26608
-0.265862 -0.169888 1.27209
-0.223236 -0.169812 1.28386
-0.289165 -0.169777 1.24048
-0.162997 -0.169701 1.29403
-0.225043 -0.169624 1.2535
-0.129137 -0.169586 1.29112
-0.164989 -0.16951 1.2637
-0.147301 -0.169433 1.26306
-0.0895574 -0.169357 1.28246
-0.235839 -0.16928 1.19985
-0.0405367 -0.169246 1.28711
-0.218255 -0.16917 1.18881
-0.15618 -0.169093 1.21041
-0.149879 -0.169016 1.20414
-0.21149 -0.16894 1.16392
-0.129183 -0.168901 1.19482
-0.228575 -0.168824 1.13573
-0.355105 -0.168748 1.06308
-0.137911 -0.168709 1.16145
-0.122465 -0.168639 1.15966
-0.252731 -0.168562 1.08518
-0.191551 -0.168485 1.10642
-0.0725588 -0.168408 1.15659
-0.142637 -0.168369 1.11136
-0.111021 -0.168292 1.11785
-0.302405 -0.168215 1.01286
-0.204413 -0.168138 1.05256
-0.248194 -0.168099 1.02051
-0.285438 -0.16803 0.992432
-0.258372 -0.167953 0.996704
-0.121458 -0.167914 1.05502
-0.262904 -0.167837 0.975051
-0.280286 -0.16776 0.957129
-0.087467 -0.167682 1.04432
-0.28142 -0.167605 0.938133
-0.259767 -0.167528 0.939761
-0.128769 -0.16745 0.996072
-0.213093 -0.16746 0.942684
-0.221149 -0.167382 0.929484
-0.166278 -0.167305 0.947759
-0.194108 -0.167227 0.924694
-0.263258 -0.167149 0.880981
-0.183161 -0.167072 0.911901
-0.279061 -0.166994 0.854835
-0.130258 -0.166955 0.919196
-0.272412 -0.166878 0.839022
-0.00944342 -0.1668 0.961419
-0.0301838 -0.166722 0.941974
-0.0201592 -0.166694 0.936712
-0.0718505 -0.166655 0.90086
-0.273373 -0.166577 0.791051
-0.181252 -0.166499 0.828073
-0.145138 -0.166421 0.837104
-0.269018 -0.166344 0.766148
-0.232895 -0.166266 0.775205
-0.183135 -0.166187 0.791092
-0.193988 -0.166148 0.775714
-0.0759394 -0.16607 0.825764
-0.0493734 -0.165992 0.830084
-0.164367 -0.165914 0.763635
-0.270464 -0.165875 0.700665
-0.329857 -0.165848 0.660743
-0.199059 -0.16577 0.717217
-0.242926 -0.165692 0.68637
-0.321963 -0.165613 0.637948
-0.037011 -0.165535 0.771533
-0.128813 -0.165457 0.716752
-0.173767 -0.165418 0.684403
-0.227919 -0.165339 0.648466
-0.29266 -0.165261 0.607246
-0.171589 -0.165182 0.658943
-0.089033 -0.165104 0.691393
-0.162503 -0.165064 0.644825
-0.0676051 -0.164986 0.683466
-0.154174 -0.164907 0.631384
-0.214264 -0.164829 0.592554
-0.185354 -0.164803 0.59685
-0.250565 -0.164764 0.554445
-0.264328 -0.164685 0.538805
-0.0947144 -0.164606 0.614865
-0.0476826 -0.164527 0.629644
-0.115412 -0.164488 0.586011
-0.042675 -0.164409 0.613663
-0.203295 -0.16433 0.524647
-0.136536 -0.164251 0.549332
0.00565936 -0.164172 0.611747
-0.102308 -0.164133 0.548033
-0.0607655 -0.164054 0.560141
-0.152915 -0.163975 0.505414
-0.210593 -0.163896 0.467934
-0.121883 -0.163817 0.503659
-0.217213 -0.163777 0.446302
-0.331403 -0.163698 0.380597
-0.163366 -0.163619 0.456017
-0.156668 -0.16354 0.450779
-0.0842764 -0.1635 0.477313
-0.123385 -0.163421 0.44919
-0.118282 -0.163342 0.443186
-0.324367 -0.163302 0.330503
-0.160019 -0.163277 0.402632
-0.234971 -0.163198 0.356626
-0.0890724 -0.163118 0.421058
-0.193668 -0.163039 0.360253
-0.102911 -0.16296 0.397136
-0.15628 -0.16292 0.360856
-0.200255 -0.16284 0.330392
-0.112001 -0.162761 0.366055
-0.0438469 -0.162681 0.391679
-0.064981 -0.162641 0.371546
-0.182339 -0.162562 0.304434
-0.204372 -0.162482 0.284996
-0.158986 -0.162402 0.299279
-0.116949 -0.162363 0.310762
-0.183501 -0.162283 0.269095
-0.239967 -0.162203 0.232483
-0.166928 -0.162123 0.260635
-0.181044 -0.162083 0.244072
-0.206782 -0.162003 0.222855
-0.248627 -0.161924 0.193596
-0.232671 -0.161884 0.192091
-0.295988 -0.161804 0.152116
-0.212239 -0.161724 0.185685
-0.0705251 -0.161644 0.248249
-0.0417256 -0.161604 0.253196
-0.113082 -0.161524 0.209244
-0.233853 -0.161444 0.140596
-0.122462 -0.161363 0.188041
-0.211028 -0.161323 0.134336
-0.244709 -0.161243 0.109265
-0.141487 -0.161163 0.152656
0.0464829 -0.161123 0.237242
-0.13507 -0.161043 0.138266
-0.171612 -0.160962 0.111807
-0.266354 -0.160882 0.0562595
-0.219208 -0.160842 0.0704637
-0.299531 -0.160761 0.0221458
-0.175101 -0.160681 0.0762158
-0.187222 -0.160641 0.0608087
-0.158382 -0.16056 0.0671038
-0.37225 -0.16048 -0.0479431
-0.178531 -0.160399 0.0408143
-0.264393 -0.160359 -0.0114323
-0.112515 -0.160279 0.0564249
-0.195888 -0.160198 0.00666839
-0.365388 -0.160158 -0.0873748
-0.200059 -0.160077 -0.0127607
-0.150132 -0.161245 2.04356
-0.371835 -0.161177 1.92246
-0.215806 -0.161108 1.99023
-0.425973 -0.16104 1.87491
-0.388958 -0.160986 1.88293
-0.333288 -0.160918 1.90055
-0.225351 -0.160849 1.94432
-0.107725 -0.160781 1.99294
-0.272249 -0.160712 1.90049
-0.338973 -0.16066 1.85665
-0.0854484 -0.160591 1.97325
-0.335751 -0.160523 1.83795
-0.283004 -0.160454 1.85418
-0.205731 -0.160385 1.88268
-0.314218 -0.160317 1.81832
-0.255608 -0.160266 1.83717
-0.225062 -0.160197 1.84234
-0.197811 -0.160129 1.84587
-0.320542 -0.16006 1.77443
-0.340978 -0.159991 1.75414
-0.217291 -0.159942 1.80554
-0.278005 -0.159873 1.76513
-0.463961 -0.159804 1.66211
-0.340584 -0.159735 1.71377
-0.159863 -0.159666 1.79411
-0.34499 -0.159597 1.69153
-0.354535 -0.159584 1.67565
-0.325953 -0.159515 1.67995
-0.220816 -0.159446 1.72253
-0.291173 -0.159376 1.67738
-0.198343 -0.159307 1.71384
-0.408345 -0.159238 1.59889
-0.219315 -0.159192 1.68299
-0.440303 -0.159123 1.56256
-0.369782 -0.159053 1.5879
-0.19138 -0.158984 1.66719
-0.183315 -0.158915 1.66132
-0.346769 -0.158845 1.56971
-0.292064 -0.158801 1.58666
-0.256586 -0.158731 1.59453
-0.274523 -0.158662 1.5757
-0.225938 -0.158592 1.59014
-0.224046 -0.158523 1.58125
-0.261789 -0.158453 1.55255
-0.224322 -0.158418 1.56073
-0.363021 -0.158376 1.48101
-0.219818 -0.158306 1.54281
-0.27745 -0.158236 1.5042
-0.330834 -0.158166 1.46773
-0.219494 -0.158097 1.51363
-0.333248 -0.158027 1.44699
-0.312346 -0.157985 1.44708
-0.214307 -0.157916 1.48636
-0.197345 -0.157846 1.48511
-0.25147 -0.157776 1.44833
-0.116866 -0.157706 1.50592
-0.294459 -0.157636 1.40743
-0.116476 -0.157566 1.48674
-0.311179 -0.157561 1.37827
-0.148375 -0.157491 1.45
-0.333198 -0.157421 1.34793
-0.317782 -0.157351 1.34599
-0.406366 -0.15728 1.29206
-0.10983 -0.15721 1.4307
-0.166051 -0.15714 1.39297
-0.303005 -0.157102 1.31417
-0.287982 -0.157031 1.31208
-0.125887 -0.156961 1.38354
-0.345908 -0.156891 1.26396
-0.268673 -0.15682 1.29301
-0.125304 -0.156785 1.35433
-0.311108 -0.156714 1.25189
-0.220562 -0.156644 1.28762
-0.225445 -0.156607 1.27488
-0.229286 -0.156537 1.26344
-0.166516 -0.156466 1.28532
-0.288036 -0.156395 1.21507
-0.273808 -0.156325 1.21269
-0.257824 -0.156254 1.21121
-0.271535 -0.156183 1.19489
-0.243578 -0.156148 1.19859
-0.192777 -0.156112 1.21371
-0.093046 -0.156042 1.25414
-0.10826 -0.155971 1.23711
-0.186199 -0.1559 1.18872
-0.114039 -0.155829 1.2154
-0.257354 -0.155758 1.13435
-0.142144 -0.155687 1.18257
-0.258689 -0.155652 1.11407
-0.162702 -0.155581 1.1527
-0.0817398 -0.155547 1.18293
-0.306774 -0.155476 1.06107
-0.260399 -0.155405 1.07493
-0.254792 -0.155334 1.06841
-0.123012 -0.155262 1.12499
-0.0457951 -0.155191 1.1543
-0.143894 -0.155156 1.09508
-0.231934 -0.155084 1.04178
-0.157842 -0.155013 1.06955
-0.0941679 -0.154977 1.09124
-0.0680279 -0.154909 1.09499
-0.220296 -0.154838 1.00961
-0.237066 -0.154766 0.991997
-0.200269 -0.154731 1.00028
-0.12951 -0.154659 1.02645
-0.229002 -0.154588 0.9675
-0.257608 -0.154516 0.944009
-0.225792 -0.154445 0.950739
-0.238754 -0.154373 0.935091
-0.216397 -0.154337 0.936197
-0.195563 -0.154306 0.936434
-0.248054 -0.154234 0.901049
-0.090617 -0.154163 0.970639
-0.28254 -0.154091 0.86556
-0.139959 -0.154019 0.927743
-0.0353373 -0.153948 0.970959
-0.529733 -0.153912 0.713738
-0.191043 -0.15384 0.874007
-0.160501 -0.153768 0.880213
-0.144485 -0.153696 0.879166
-0.177565 -0.153624 0.853583
-0.158441 -0.153594 0.853008
-0.215767 -0.153558 0.814366
-0.239559 -0.153486 0.793453
-0.225349 -0.153414 0.791553
-0.0990646 -0.153342 0.845701
-0.286539 -0.15327 0.742981
0.0441271 -0.153198 0.899342
-0.0940075 -0.153162 0.820341
-0.218907 -0.15309 0.748939
-0.24533 -0.153018 0.726786
-0.265661 -0.152945 0.70769
-0.154734 -0.152873 0.754235
-0.293706 -0.152837 0.674853
-0.154919 -0.152765 0.735347
-0.183039 -0.152736 0.711208
-0.28752 -0.152663 0.650087
-0.21596 -0.152591 0.676997
-0.229486 -0.152519 0.661376
-0.23081 -0.152482 0.650861
-0.216888 -0.15241 0.648983
-0.127766 -0.152338 0.684716
-0.187954 -0.152265 0.645805
-0.205461 -0.152192 0.628246
-0.191787 -0.152156 0.625268
-0.217902 -0.152084 0.603424
-0.235486 -0.152011 0.585857
-0.187143 -0.151938 0.601265
-0.189832 -0.151866 0.591168
-0.0253752 -0.151829 0.66362
-0.363172 -0.151757 0.485988
-0.113698 -0.151684 0.602003
-0.210913 -0.151656 0.543399
-0.111811 -0.151619 0.5832
-0.288923 -0.151547 0.485949
-0.0625623 -0.151474 0.590446
-0.231891 -0.151401 0.49711
-0.119432 -0.151328 0.544679
-0.385242 -0.151292 0.402062
-0.111062 -0.151219 0.530511
-0.2344 -0.151146 0.460212
-0.327746 -0.151073 0.404921
-0.320518 -0.151036 0.398853
-0.221238 -0.150963 0.439894
-0.200149 -0.15089 0.441851
-0.118358 -0.150817 0.47417
-0.138226 -0.150744 0.455671
-0.149903 -0.150707 0.44019
-0.131602 -0.150634 0.440795
-0.122268 -0.15056 0.436928
-0.219466 -0.150487 0.379806
-0.173572 -0.150451 0.393141
-0.193229 -0.150377 0.374809
-0.220788 -0.150304 0.352538
-0.0726435 -0.150231 0.41813
-0.00943941 -0.150194 0.44015
-0.0977776 -0.15012 0.38752
-0.134438 -0.150047 0.360741
-0.0507629 -0.149973 0.394141
-0.41532 -0.149937 0.20231
-0.257988 -0.1499 0.271429
-0.137326 -0.149836 0.323053
-0.35189 -0.149762 0.207372
-0.19046 -0.149726 0.278562
-0.211608 -0.149652 0.259609
-0.0992717 -0.149578 0.307409
-0.207683 -0.149505 0.244848
-0.319819 -0.149468 0.179285
-0.302641 -0.149394 0.179538
-0.224247 -0.14932 0.21041
-0.12706 -0.149246 0.25069
-0.272534 -0.14921 0.168489
-0.223731 -0.149136 0.184597
-0.246998 -0.149062 0.164681
-0.194845 -0.149025 0.181316
-0.174851 -0.148951 0.183051
-0.0950534 -0.148877 0.214699
-0.251593 -0.148803 0.12819
-0.0712049 -0.148766 0.208973
-0.234076 -0.148692 0.119318
-0.302254 -0.148618 0.077021
-0.229 -0.148544 0.105452
-0.137867 -0.148507 0.141638
-0.14112 -0.148433 0.131835
0.0525373 -0.148358 0.220499
-0.209063 -0.148321 0.0803405
-0.168312 -0.148247 0.0925715
-0.264397 -0.148173 0.0363951
-0.255915 -0.148136 0.0313009
-0.275389 -0.148062 0.0134502
-0.126228 -0.147987 0.0799291
-0.103548 -0.147913 0.0831786
-0.119388 -0.147876 0.0659543
-0.0458061 -0.147801 0.0946748
-0.147077 -0.147727 0.0359805
-0.122225 -0.14769 0.0391246
-0.204975 -0.147615 -0.0102891
-0.188259 -0.147777 2.02509
-0.270621 -0.147715 1.97366
-0.22736 -0.147652 1.98505
-0.107142 -0.147598 2.03476
-0.280819 -0.147535 1.9377
-0.299431 -0.147472 1.91819
-0.243319 -0.14741 1.93604
-0.0944349 -0.147347 2.00029
-0.347575 -0.147294 1.86334
-0.201039 -0.147231 1.92644
-0.289432 -0.147168 1.87208
-0.440152 -0.147105 1.78657
-0.389975 -0.147042 1.80152
-0.282686 -0.146991 1.84479
-0.357508 -0.146928 1.79726
-0.157909 -0.146865 1.88696
-0.408791 -0.146802 1.75142
-0.157753 -0.146739 1.86685
-0.228629 -0.146676 1.82133
-0.27308 -0.146626 1.78876
-0.256266 -0.146563 1.78711
-0.159566 -0.1465 1.82541
-0.2875 -0.146437 1.75141
-0.122571 -0.146373 1.82384
-0.307984 -0.14631 1.72112
-0.202036 -0.146262 1.76376
-0.274098 -0.146198 1.71774
-0.273904 -0.146135 1.70785
-0.112318 -0.146071 1.77867
-0.250381 -0.146008 1.69967
-0.152503 -0.145961 1.73829
-0.200964 -0.145898 1.70411
-0.0591771 -0.145834 1.76507
-0.0782354 -0.145803 1.74492
-0.260513 -0.145739 1.64386
-0.423811 -0.145675 1.55231
-0.193297 -0.145612 1.65767
-0.248162 -0.145566 1.61994
-0.251565 -0.145503 1.60836
-0.170459 -0.145439 1.63905
-0.400981 -0.145375 1.51394
-0.166719 -0.145311 1.62122
-0.108421 -0.145248 1.64054
-0.304169 -0.145204 1.53238
-0.28613 -0.14514 1.53159
-0.280451 -0.145076 1.52463
-0.44636 -0.145012 1.43188
-0.271682 -0.144948 1.50944
-0.27289 -0.144884 1.49906
-0.44001 -0.14482 1.40574
-0.206159 -0.14481 1.51166
-0.312677 -0.144746 1.44866
-0.102592 -0.144682 1.54397
-0.184258 -0.144617 1.49341
-0.241588 -0.144553 1.45503
-0.160195 -0.144489 1.48603
-0.117369 -0.144425 1.49775
-0.0888121 -0.144384 1.50179
-0.313051 -0.14432 1.38
-0.170776 -0.144255 1.44148
-0.167226 -0.144191 1.4336
-0.33841 -0.144127 1.33837
-0.336208 -0.144062 1.32985
-0.345016 -0.14403 1.31504
-0.0930585 -0.143966 1.43141
-0.136295 -0.143926 1.39958
-0.169584 -0.143862 1.37334
-0.290299 -0.143797 1.30341
-0.309607 -0.143733 1.28418
-0.281891 -0.143668 1.28848
-0.368892 -0.143603 1.23544
-0.476878 -0.143539 1.17191
-0.0927642 -0.143501 1.35377
-0.355465 -0.143468 1.21209
-0.102181 -0.143403 1.32922
-0.324267 -0.143339 1.20868
0.0060964 -0.143274 1.36438
-0.313332 -0.143209 1.19519
-0.000471751 -0.143144 1.34215
-0.298949 -0.14308 1.18346
-0.315251 -0.143043 1.16514
-0.116977 -0.142978 1.25484
-0.412195 -0.142945 1.09697
-0.340077 -0.14288 1.12361
-0.0918362 -0.142815 1.23832
-0.260697 -0.14275 1.1445
-0.191008 -0.142685 1.16996
-0.20579 -0.14262 1.15319
-0.144596 -0.142555 1.17443
-0.176684 -0.14252 1.14825
-0.0900074 -0.142487 1.18138
-0.184815 -0.142422 1.12464
-0.207753 -0.142357 1.10385
-0.234125 -0.142292 1.08135
-0.310177 -0.142226 1.03402
-0.245307 -0.142161 1.05716
-0.198316 -0.142096 1.07138
-0.349341 -0.14203 0.986594
-0.37348 -0.141998 0.964379
-0.275234 -0.141963 1.0034
-0.0417319 -0.141898 1.11091
-0.181894 -0.141833 1.0316
-0.334063 -0.141767 0.946294
-0.258006 -0.141702 0.975113
-0.314506 -0.141636 0.937664
-0.153281 -0.141603 1.00818
-0.280291 -0.141538 0.935498
-0.305492 -0.141472 0.913728
-0.100995 -0.141407 1.00682
-0.297571 -0.141374 0.898471
-0.336743 -0.141308 0.869746
-0.182382 -0.141275 0.936875
-0.217978 -0.141209 0.909957
-0.181268 -0.141144 0.919204
-0.156567 -0.141078 0.922457
-0.213352 -0.141012 0.884978
-0.137959 -0.140946 0.913599
-0.115386 -0.14088 0.915822
-0.154424 -0.140847 0.886305
-0.107931 -0.140782 0.900507
-0.154916 -0.140716 0.86798
-0.229682 -0.140683 0.820621
-0.199128 -0.140618 0.826849
-0.291515 -0.140585 0.770693
-0.283875 -0.140519 0.765517
-0.236114 -0.140453 0.780413
-0.129236 -0.140387 0.824879
-0.324436 -0.140321 0.718316
-0.306044 -0.140254 0.718561
-0.162789 -0.140221 0.780272
-0.380292 -0.140155 0.662589
-0.19985 -0.140089 0.743889
-0.143544 -0.140023 0.763133
-0.24014 -0.139956 0.705936
-0.205856 -0.139923 0.713199
-0.249622 -0.139857 0.682437
-0.130999 -0.139826 0.731808
-0.181762 -0.13976 0.697566
-0.167032 -0.139694 0.696083
-0.216356 -0.13966 0.661577
-0.219205 -0.139594 0.651323
-0.291156 -0.139527 0.60653
-0.131118 -0.139461 0.677742
-0.226338 -0.139394 0.621336
-0.211204 -0.139328 0.620119
-0.241013 -0.139295 0.595417
-0.125843 -0.139228 0.644237
-0.113304 -0.139161 0.641753
-0.214257 -0.139095 0.582534
-0.310317 -0.139061 0.524737
-0.0268677 -0.138995 0.657738
-0.164003 -0.138928 0.580458
-0.184955 -0.138861 0.561282
-0.219597 -0.138828 0.534224
-0.247092 -0.138798 0.510624
-0.151752 -0.138731 0.549621
-0.11399 -0.138665 0.55984
-0.040119 -0.138598 0.588126
-0.316341 -0.138564 0.440313
-0.171488 -0.138497 0.504108
-0.182181 -0.13843 0.490142
-0.105906 -0.138363 0.519671
-0.195731 -0.138296 0.466162
-0.272791 -0.138263 0.417969
-0.177117 -0.138196 0.457228
-0.183385 -0.138129 0.445528
-0.0159961 -0.138062 0.520668
-0.288422 -0.138028 0.374822
-0.236751 -0.137961 0.392123
0.0809116 -0.137894 0.54243
-0.161784 -0.137827 0.41257
-0.26633 -0.137793 0.350694
-0.367711 -0.137726 0.291511
-0.176275 -0.137659 0.378748
-0.121677 -0.137591 0.397577
-0.164115 -0.137558 0.366785
-0.26548 -0.13749 0.307652
-0.0880697 -0.137423 0.387919
-0.292728 -0.137355 0.277162
-0.271677 -0.137322 0.278146
-0.298876 -0.137254 0.256138
-0.355775 -0.137187 0.219292
-0.125642 -0.137119 0.325974
-0.203796 -0.137086 0.277386
-0.192435 -0.137018 0.274701
-0.138238 -0.13695 0.293446
-0.0787938 -0.136922 0.313508
-0.190309 -0.136888 0.248266
-0.11008 -0.13682 0.280054
-0.131088 -0.136753 0.261236
-0.140214 -0.136685 0.24837
-0.243085 -0.136651 0.187481
-0.139885 -0.136583 0.230798
-0.187178 -0.136516 0.19888
-0.299268 -0.136448 0.134575
-0.225729 -0.136414 0.161922
-0.168951 -0.136346 0.182071
-0.217969 -0.136278 0.149333
-0.18559 -0.136244 0.156122
-0.363215 -0.136176 0.0591005
-0.185315 -0.136109 0.139853
-0.13687 -0.136041 0.15589
-0.280475 -0.136007 0.0747177
-0.320293 -0.135939 0.0466427
-0.238021 -0.135871 0.0796249
-0.24417 -0.135837 0.0672027
-0.0883547 -0.135769 0.136976
-0.203051 -0.1357 0.0715052
-0.0137383 -0.135632 0.15805
-0.177856 -0.135598 0.0666746
-0.120603 -0.13553 0.0872104
-0.31923 -0.135462 -0.0201828
-0.246488 -0.135428 0.00689358
-0.20733 -0.13536 0.0184133
-0.177445 -0.135291 0.0253077
-0.115205 -0.135257 0.0471558
-0.211886 -0.135189 -0.00921245
-0.339673 -0.1343 1.95031
-0.148291 -0.134246 2.03568
-0.349569 -0.134189 1.92481
-0.334663 -0.134132 1.92204
-0.22573 -0.134075 1.96629
-0.231285 -0.134018 1.95331
-0.156056 -0.133966 1.98062
-0.257515 -0.133909 1.9197
-0.218547 -0.133851 1.92901
-0.183891 -0.133794 1.93618
-0.39899 -0.133737 1.81847
-0.15227 -0.133708 1.93105
-0.189614 -0.133657 1.90209
-0.435292 -0.1336 1.76913
-0.274472 -0.133543 1.83942
-0.130959 -0.133485 1.90108
-0.259377 -0.133428 1.82677
-0.231562 -0.133379 1.83041
-0.331997 -0.133321 1.77012
-0.359911 -0.133264 1.7461
-0.289852 -0.133206 1.77107
-0.168562 -0.133149 1.82168
-0.197412 -0.133091 1.79722
-0.254049 -0.133043 1.75865
-0.384196 -0.132985 1.68357
-0.135243 -0.132928 1.79804
-0.318138 -0.13287 1.6966
-0.257586 -0.132812 1.7169
-0.191602 -0.132755 1.73992
-0.373792 -0.132708 1.6386
-0.188478 -0.13265 1.72131
-0.196817 -0.132593 1.7072
-0.292003 -0.132535 1.64967
-0.409094 -0.132477 1.58121
-0.29869 -0.132419 1.6265
-0.0972573 -0.132374 1.71701
-0.435592 -0.132316 1.53796
-0.389183 -0.132258 1.55128
-0.344868 -0.1322 1.56357
-0.0931759 -0.132142 1.67956
-0.282404 -0.132113 1.57438
-0.20096 -0.132055 1.60526
-0.304331 -0.132011 1.5434
-0.134768 -0.131953 1.61836
-0.274427 -0.131895 1.53872
-0.271516 -0.131836 1.53038
-0.256666 -0.131778 1.52802
-0.236441 -0.13172 1.52835
-0.187478 -0.131677 1.54267
-0.425157 -0.131619 1.41408
-0.140327 -0.131561 1.54674
-0.205569 -0.131503 1.50439
-0.226239 -0.131444 1.48433
-0.255805 -0.131386 1.45983
-0.243077 -0.131328 1.45649
-0.253987 -0.131298 1.44058
-0.144573 -0.131257 1.48516
-0.113539 -0.131199 1.491
-0.298724 -0.13114 1.38874
-0.293166 -0.131082 1.38186
-0.266394 -0.131023 1.38561
-0.32104 -0.130965 1.34865
-0.147938 -0.130906 1.42558
-0.344547 -0.130866 1.31717
-0.0135546 -0.130807 1.47306
-0.132401 -0.130749 1.40404
-0.32334 -0.130719 1.2982
-0.217524 -0.130661 1.34153
-0.175543 -0.130602 1.35296
-0.15734 -0.130543 1.35251
-0.322613 -0.130484 1.26033
-0.22314 -0.130446 1.29999
-0.338629 -0.130387 1.23272
-0.275283 -0.130328 1.25489
-0.209962 -0.130269 1.27805
-0.187398 -0.13021 1.27984
-0.20107 -0.130181 1.2627
-0.163596 -0.130122 1.27197
-0.201366 -0.130063 1.24363
-0.123364 -0.130025 1.27257
-0.180248 -0.129966 1.23469
-0.400004 -0.129907 1.11539
-0.133447 -0.129848 1.23925
-0.206394 -0.129789 1.19337
-0.200745 -0.12976 1.18595
-0.288486 -0.1297 1.13269
-0.055252 -0.129641 1.23993
-0.162365 -0.129582 1.17701
-0.184799 -0.129546 1.15577
-0.0931532 -0.129487 1.19225
-0.190269 -0.129427 1.13435
-0.233381 -0.129368 1.10347
-0.320832 -0.129338 1.04956
-0.355173 -0.129279 1.02308
-0.213146 -0.12922 1.0848
-0.0428421 -0.12916 1.16067
-0.162729 -0.129101 1.09145
-0.209476 -0.129066 1.05809
-0.221462 -0.129006 1.04285
-0.356883 -0.128977 0.965004
-0.255763 -0.128917 1.00633
-0.215546 -0.128858 1.01721
-0.225005 -0.128798 1.00327
-0.204674 -0.128739 1.00423
-0.0914786 -0.128679 1.05164
-0.00739971 -0.128619 1.0845
-0.0781842 -0.12856 1.03994
-0.318608 -0.12853 0.909657
-0.156756 -0.128496 0.980642
0.0374518 -0.128436 1.0686
-0.175605 -0.128376 0.952946
-0.302346 -0.128317 0.880456
-0.0614746 -0.128257 0.991783
-0.211136 -0.128227 0.906925
-0.159785 -0.128167 0.923512
-0.186857 -0.128107 0.900897
-0.20837 -0.128047 0.881074
-0.149515 -0.127988 0.901445
-0.059423 -0.127928 0.937447
-0.0420414 -0.127898 0.936156
-0.276973 -0.127865 0.808801
-0.339192 -0.127805 0.768674
-0.20375 -0.127745 0.827389
-0.221421 -0.127685 0.809559
-0.187884 -0.127655 0.816381
-0.257128 -0.127595 0.772783
-0.191417 -0.127535 0.796674
-0.191642 -0.127475 0.787607
-0.331498 -0.127414 0.708737
-0.218471 -0.127354 0.756319
-0.235206 -0.127324 0.738052
-0.14218 -0.127264 0.775653
-0.255376 -0.127204 0.710154
-0.304118 -0.127143 0.676893
-0.227983 -0.127112 0.705139
0.0122261 -0.127082 0.815378
-0.367278 -0.127021 0.616764
-0.159563 -0.126961 0.711771
-0.175459 -0.1269 0.694984
-0.348538 -0.12684 0.599616
-0.279449 -0.12681 0.624333
-0.387137 -0.126749 0.56168
-0.0203243 -0.126689 0.736289
-0.236841 -0.126628 0.619244
-0.27678 -0.126568 0.590499
0.0225518 -0.126538 0.730376
-0.282025 -0.126477 0.569332
-0.0317309 -0.126416 0.685734
-0.077526 -0.126356 0.654103
-0.264196 -0.126295 0.552046
-0.231447 -0.126265 0.55867
-0.218831 -0.126204 0.556275
-0.0837545 -0.126173 0.614085
-0.22842 -0.126113 0.533069
-0.352108 -0.126052 0.462553
-0.22217 -0.126022 0.517808
-0.0969241 -0.125961 0.571778
-0.342161 -0.1259 0.440518
-0.170642 -0.125839 0.517648
-0.20452 -0.125809 0.491025
-0.288857 -0.125748 0.440246
-0.21382 -0.125687 0.469166
-0.118726 -0.125626 0.508125
-0.123134 -0.125595 0.496267
-0.308932 -0.125534 0.3948
-0.113809 -0.125473 0.483805
-0.316389 -0.125412 0.373969
-0.265455 -0.125351 0.390902
-0.169085 -0.125321 0.429472
-0.122814 -0.12526 0.444093
-0.0155931 -0.125199 0.489201
-0.169117 -0.125138 0.403947
-0.309368 -0.125107 0.324236
-0.0751318 -0.125046 0.432882
-0.341652 -0.124985 0.291162
-0.234612 -0.124923 0.336233
-0.258294 -0.124893 0.314837
-0.247667 -0.124831 0.311721
-0.39318 -0.12477 0.230546
-0.286011 -0.124709 0.275724
-0.0973779 -0.124678 0.360516
-0.183927 -0.124617 0.308855
-0.0948601 -0.124555 0.345013
-0.111787 -0.124526 0.327012
-0.231637 -0.124495 0.25759
-0.278166 -0.124433 0.225978
-0.144571 -0.124372 0.28444
-0.139722 -0.124341 0.277389
-0.231823 -0.12428 0.223023
-0.127213 -0.124218 0.267024
-0.155356 -0.124157 0.244659
-0.0891267 -0.124126 0.26833
-0.137611 -0.124064 0.235814
-0.293601 -0.124003 0.149558
-0.340428 -0.123941 0.117894
-0.223654 -0.12391 0.166867
-0.203896 -0.123848 0.168516
-0.0680957 -0.123787 0.228198
-0.177173 -0.123756 0.164267
-0.0385542 -0.123694 0.225378
-0.269046 -0.123632 0.101945
-0.221344 -0.123571 0.11762
-0.0437801 -0.12354 0.197042
-0.217752 -0.123478 0.1019
-0.19037 -0.123416 0.107447
-0.206393 -0.123385 0.090097
-0.157433 -0.123323 0.106452
-0.183201 -0.123261 0.0854556
-0.245744 -0.123199 0.046083
-0.235004 -0.123168 0.0421455
-0.142194 -0.123106 0.0804694
-0.166996 -0.123044 0.0599989
-0.141824 -0.123013 0.0633002
-0.0654656 -0.122951 0.0934297
-0.257259 -0.122889 -0.010505
-0.258463 -0.122858 -0.0203694
-0.171891 -0.122796 0.0148984
-0.319246 -0.120868 1.96058
-0.21223 -0.120816 2.00385
-0.335158 -0.120765 1.93215
-0.228885 -0.120713 1.97506
-0.216426 -0.120662 1.97108
-0.340823 -0.120611 1.89866
-0.112138 -0.12056 2.00281
-0.409302 -0.120508 1.84405
-0.234208 -0.120457 1.92142
-0.192647 -0.120405 1.93204
-0.31936 -0.120355 1.85848
-0.323057 -0.120304 1.84649
-0.333028 -0.120252 1.83138
-0.295966 -0.120201 1.83979
-0.25496 -0.120149 1.85018
-0.250716 -0.120101 1.84212
-0.243783 -0.120049 1.83549
-0.387692 -0.119997 1.75346
-0.312624 -0.119945 1.78092
-0.391799 -0.119894 1.73128
-0.441602 -0.119842 1.69633
-0.280357 -0.119795 1.76679
-0.15134 -0.119743 1.82127
-0.333108 -0.119691 1.72037
-0.305605 -0.119639 1.72412
-0.370817 -0.119613 1.68083
-0.331767 -0.119561 1.69037
-0.241492 -0.119515 1.72537
-0.114449 -0.119463 1.77892
-0.243256 -0.119411 1.70456
-0.240633 -0.119359 1.69592
-0.228303 -0.119307 1.69215
-0.280617 -0.119255 1.65607
-0.240634 -0.11921 1.66594
-0.153915 -0.119158 1.6994
-0.131362 -0.119106 1.70078
-0.240141 -0.119054 1.6365
-0.18394 -0.119002 1.65473
-0.342432 -0.11895 1.56562
-0.311666 -0.118906 1.57091
-0.220493 -0.118854 1.60665
-0.297738 -0.118802 1.5582
-0.209395 -0.118749 1.59254
-0.200214 -0.118697 1.58732
-0.421209 -0.118645 1.46702
-0.204451 -0.118618 1.56488
-0.101252 -0.118576 1.60641
-0.188683 -0.118524 1.55292
-0.308815 -0.118471 1.48309
-0.26382 -0.118419 1.49583
-0.127612 -0.118366 1.5542
-0.230755 -0.118314 1.4929
-0.401808 -0.118261 1.39765
-0.184314 -0.11822 1.49635
-0.32526 -0.118168 1.41618
-0.339607 -0.118115 1.39932
-0.146335 -0.118063 1.48627
-0.247504 -0.11801 1.42602
-0.25201 -0.117984 1.41334
-0.214174 -0.117931 1.42261
-0.23261 -0.117878 1.40375
-0.269367 -0.117838 1.37536
-0.370096 -0.117786 1.31538
-0.170897 -0.117733 1.40537
-0.25131 -0.11768 1.35557
-0.330036 -0.117627 1.30662
-0.401797 -0.117574 1.26116
-0.277441 -0.117522 1.31378
-0.29643 -0.117495 1.29393
-0.13188 -0.117457 1.36622
-0.218021 -0.117404 1.31361
-0.134038 -0.117351 1.34608
-0.230445 -0.117298 1.28836
-0.0689003 -0.117245 1.35963
-0.206689 -0.117192 1.28124
-0.297033 -0.117139 1.22659
-0.384117 -0.117101 1.17309
-0.125472 -0.117048 1.29295
-0.0850477 -0.117022 1.30288
-0.283515 -0.116968 1.1942
-0.322438 -0.116915 1.1653
-0.359442 -0.116862 1.13738
-0.0199264 -0.116809 1.29773
-0.21583 -0.116756 1.19037
-0.263778 -0.116702 1.15701
-0.139774 -0.116666 1.20909
-0.238462 -0.11664 1.14953
-0.262115 -0.116586 1.12834
-0.211009 -0.116533 1.14454
-0.183769 -0.11648 1.14882
-0.166375 -0.116426 1.14819
-0.163161 -0.116373 1.14047
-0.389568 -0.116319 1.01796
-0.315808 -0.116266 1.04555
-0.0116769 -0.116239 1.18745
-0.175746 -0.116204 1.09554
-0.210975 -0.116151 1.06866
-0.256776 -0.116097 1.0365
-0.20813 -0.116043 1.05157
-0.142543 -0.11599 1.07513
-0.37662 -0.115936 0.948868
-0.190708 -0.11591 1.03171
-0.287816 -0.115856 0.973954
-0.230083 -0.115802 0.993626
-0.141635 -0.115749 1.02867
-0.138759 -0.115695 1.02093
-0.275768 -0.115661 0.9426
-0.236912 -0.115607 0.952875
-0.24498 -0.11558 0.938783
-0.316415 -0.115526 0.893931
-0.0199711 -0.115473 1.03303
-0.11458 -0.115419 0.976614
-0.0350667 -0.115365 1.00727
-0.0944627 -0.115311 0.968482
-0.29196 -0.115284 0.859721
-0.197695 -0.11523 0.897783
-0.409212 -0.115176 0.782964
-0.30758 -0.115122 0.824732
-0.211336 -0.115089 0.863083
-0.139176 -0.115035 0.890134
-0.130508 -0.115008 0.884499
-0.401748 -0.114954 0.73987
-0.0921865 -0.1149 0.885652
-0.255107 -0.114846 0.795205
-0.264702 -0.114792 0.781431
-0.202985 -0.114738 0.803324
-0.333306 -0.114711 0.728241
-0.213295 -0.114657 0.779301
-0.333331 -0.114603 0.710348
-0.114057 -0.114548 0.811062
-0.193405 -0.114494 0.762475
-0.253476 -0.114467 0.722555
-0.272305 -0.114435 0.703437
-0.255322 -0.114381 0.703044
-0.271695 -0.114327 0.685985
0.0552305 -0.114272 0.840586
-0.135836 -0.114245 0.735203
-0.205915 -0.114191 0.691321
-0.225093 -0.114136 0.672901
-0.320721 -0.114082 0.616266
-0.201632 -0.114028 0.667002
-0.180004 -0.114 0.668005
-0.0450599 -0.113946 0.726687
-0.223622 -0.113891 0.628628
-0.0974383 -0.113837 0.682952
-0.13589 -0.113782 0.65497
-0.111309 -0.113755 0.657488
-0.342044 -0.1137 0.533384
-0.259068 -0.113646 0.566147
-0.200796 -0.113615 0.585672
-0.391668 -0.11356 0.481531
-0.169659 -0.113533 0.582798
-0.0413144 -0.113478 0.638285
-0.148154 -0.113424 0.57619
-0.198206 -0.113369 0.542501
-0.243178 -0.113341 0.510308
-0.199216 -0.113287 0.523645
-0.138727 -0.113232 0.545257
-0.210248 -0.113177 0.500875
-0.378418 -0.113122 0.408181
-0.098708 -0.113095 0.538367
-0.29368 -0.11304 0.432291
-0.23712 -0.112985 0.451992
-0.157181 -0.11293 0.483394
-0.218902 -0.112903 0.442895
-0.132685 -0.112848 0.477456
-0.318043 -0.112793 0.37624
-0.284455 -0.112738 0.384509
-0.223611 -0.11271 0.405323
-0.25808 -0.112655 0.379583
-0.178486 -0.1126 0.410886
-0.148553 -0.112545 0.417369
-0.190723 -0.112518 0.386707
-0.173078 -0.112463 0.387066
-0.143204 -0.112408 0.393551
-0.243087 -0.112377 0.334158
-0.244677 -0.11235 0.323813
-0.017193 -0.112295 0.429132
-0.232051 -0.11224 0.31329
-0.0426737 -0.112184 0.399579
-0.346252 -0.112157 0.23827
-0.19932 -0.112101 0.303356
-0.328072 -0.112046 0.23061
-0.277977 -0.111991 0.2473
-0.141746 -0.111963 0.305926
-0.33716 -0.111908 0.199881
-0.251694 -0.111853 0.234287
-0.196037 -0.111797 0.253801
-0.318542 -0.11177 0.18309
-0.168544 -0.111714 0.249794
-0.320609 -0.111659 0.165477
-0.138549 -0.111631 0.247071
-0.23212 -0.111575 0.192022
-0.308054 -0.11152 0.145802
-0.195612 -0.111464 0.193782
-0.195936 -0.111437 0.184215
-0.0986568 -0.111381 0.224633
-0.180831 -0.111326 0.175337
-0.182322 -0.111298 0.165208
-0.159346 -0.111242 0.168506
-0.251499 -0.111187 0.114252
-0.186195 -0.111131 0.138737
-0.322601 -0.111103 0.0611817
-0.140281 -0.111047 0.144195
-0.156686 -0.110992 0.127858
-0.249034 -0.110964 0.0723536
-0.163311 -0.110908 0.1071
-0.0131452 -0.110852 0.174079
-0.164903 -0.110797 0.0901084
-0.229055 -0.110769 0.0487336
-0.220083 -0.110713 0.0451473
-0.193379 -0.110657 0.050439
-0.249826 -0.110629 0.0129391
-0.218108 -0.110573 0.0207577
-0.255849 -0.110517 -0.00614162
-0.181375 -0.110489 0.0218415
-0.124735 -0.110433 0.0421526
-0.131298 -0.107439 2.05454
-0.231444 -0.107393 1.99422
-0.296979 -0.107347 1.95122
-0.109281 -0.107301 2.03484
-0.242811 -0.107256 1.95787
-0.285823 -0.107209 1.92618
-0.126501 -0.107164 1.99564
-0.358414 -0.107118 1.8695
-0.302998 -0.107072 1.88704
-0.266507 -0.107026 1.89512
-0.231077 -0.10698 1.90269
-0.211519 -0.106934 1.90233
-0.376032 -0.106888 1.80994
-0.400809 -0.106843 1.78743
-0.218955 -0.106797 1.86825
-0.477457 -0.106751 1.7289
-0.232617 -0.106705 1.84123
-0.202969 -0.106659 1.84598
-0.319632 -0.106613 1.77758
-0.0882666 -0.106567 1.88318
-0.120942 -0.106521 1.8568
-0.273592 -0.106475 1.77044
-0.16639 -0.106429 1.81401
-0.160055 -0.106383 1.80716
-0.324954 -0.106337 1.71471
-0.291811 -0.106292 1.72123
-0.331933 -0.106246 1.69119
-0.130924 -0.1062 1.78172
-0.195669 -0.106154 1.73938
-0.298823 -0.106107 1.67785
-0.329067 -0.106061 1.65279
-0.226459 -0.106041 1.69337
-0.328452 -0.105995 1.63245
-0.243165 -0.105948 1.66518
-0.275729 -0.105902 1.63899
-0.0983488 -0.105856 1.71779
-0.382374 -0.105809 1.56589
-0.105171 -0.105767 1.69449
-0.207109 -0.105721 1.63366
-0.256123 -0.105674 1.5993
-0.213606 -0.105628 1.61072
-0.149145 -0.105581 1.63312
-0.421297 -0.105535 1.48722
-0.291244 -0.105488 1.54244
-0.081142 -0.105447 1.63752
-0.266464 -0.105401 1.53507
-0.228601 -0.105354 1.54422
-0.348759 -0.105307 1.47438
-0.271018 -0.105261 1.50349
-0.174973 -0.105237 1.54102
-0.280889 -0.105191 1.47832
-0.145839 -0.105151 1.5359
-0.10501 -0.105104 1.5466
-0.00310429 -0.105057 1.58785
-0.298561 -0.105011 1.43042
-0.354291 -0.104964 1.39287
-0.323947 -0.104917 1.39837
-0.199623 -0.10487 1.45087
-0.35311 -0.104831 1.36421
-0.263418 -0.104785 1.39941
-0.315532 -0.104738 1.36372
-0.272183 -0.104714 1.37499
-0.235425 -0.104667 1.38375
-0.181211 -0.10462 1.40126
-0.295903 -0.104573 1.33432
-0.110634 -0.104526 1.41737
-0.121538 -0.104489 1.40203
-0.258416 -0.104442 1.32403
-0.266966 -0.104395 1.31021
-0.13404 -0.104348 1.36713
-0.387451 -0.104301 1.2309
-0.292546 -0.104277 1.26802
-0.15826 -0.10423 1.32565
-0.362701 -0.104183 1.21393
-0.246381 -0.104146 1.26224
-0.263376 -0.104099 1.24426
-0.215509 -0.104052 1.25873
-0.273416 -0.104004 1.22032
-0.165724 -0.103957 1.26471
-0.176591 -0.10391 1.24984
-0.00504089 -0.103886 1.32536
-0.191219 -0.103839 1.22285
-0.276585 -0.103792 1.17076
-0.277621 -0.103756 1.16043
-0.368982 -0.103709 1.10536
-0.320248 -0.103661 1.12036
-0.324616 -0.103614 1.10881
-0.129691 -0.103567 1.19692
-0.135167 -0.103543 1.18398
-0.372344 -0.103495 1.05605
-0.158223 -0.103448 1.15379
-0.200574 -0.1034 1.1233
-0.226626 -0.103366 1.1005
-0.0299024 -0.103318 1.18957
-0.0763871 -0.103271 1.15705
-0.231612 -0.103223 1.07016
-0.210726 -0.103199 1.07046
-0.184372 -0.103152 1.07439
-0.0610874 -0.103104 1.12679
-0.035374 -0.103057 1.13042
-0.19234 -0.103009 1.04272
-0.128741 -0.102961 1.06531
-0.206304 -0.102937 1.01643
-0.215641 -0.102904 1.00204
-0.0145533 -0.102856 1.0934
-0.198954 -0.102808 0.992034
-0.237667 -0.102761 0.96352
-0.281205 -0.102713 0.932604
-0.146198 -0.102665 0.990972
-0.258063 -0.102641 0.924995
-0.280282 -0.102593 0.904769
-0.185298 -0.102545 0.943156
-0.110428 -0.102497 0.971496
-0.216883 -0.10245 0.909185
-0.329582 -0.102417 0.843166
-0.266273 -0.102393 0.86482
-0.243469 -0.102345 0.867167
-0.200272 -0.102297 0.879721
-0.288749 -0.102249 0.82645
-0.272824 -0.102201 0.82539
-0.191391 -0.102153 0.857096
-0.332633 -0.102129 0.77652
-0.0307793 -0.102081 0.918455
-0.197603 -0.102033 0.826063
-0.20784 -0.101985 0.811975
-0.090983 -0.101937 0.861445
-0.314864 -0.101888 0.740558
-0.199704 -0.101864 0.788229
-0.327901 -0.101833 0.714533
-0.217134 -0.101785 0.760998
-0.0982719 -0.101736 0.811521
-0.12954 -0.101688 0.786991
-0.288268 -0.101664 0.697754
-0.184879 -0.101616 0.740572
-0.291718 -0.101567 0.678286
-0.287794 -0.101519 0.671393
-0.402968 -0.101471 0.604963
-0.273076 -0.101447 0.660074
-0.253281 -0.101398 0.661147
-0.362226 -0.10135 0.597862
-0.445206 -0.101301 0.54757
-0.0927886 -0.101253 0.714988
-0.298221 -0.101229 0.602476
-0.204991 -0.10118 0.640319
-0.263183 -0.10115 0.601714
-0.13134 -0.101101 0.658885
-0.165451 -0.101053 0.633089
-0.209097 -0.101028 0.601506
-0.147042 -0.10098 0.623813
-0.11802 -0.100931 0.629615
0.0216142 -0.100883 0.690735
-0.16399 -0.100858 0.588202
-0.366168 -0.10081 0.478435
-0.186678 -0.100761 0.559514
-0.209807 -0.100712 0.539293
-0.325819 -0.100664 0.472643
-0.266423 -0.100639 0.492649
-0.106389 -0.100591 0.564041
-0.17752 -0.100542 0.519863
-0.339633 -0.100493 0.430204
-0.260868 -0.100469 0.459925
-0.164352 -0.10042 0.4996
-0.0293447 -0.100371 0.558532
-0.0760585 -0.100322 0.526616
-0.155159 -0.100298 0.477434
-0.191255 -0.100249 0.450846
-0.0780889 -0.1002 0.4989
-0.234314 -0.10017 0.41142
-0.0417407 -0.100146 0.498104
-0.224771 -0.100097 0.398088
-0.271564 -0.100048 0.366203
-0.303319 -0.099999 0.341847
-0.119523 -0.0999745 0.424173
-0.124713 -0.0999255 0.41312
-0.34344 -0.0998765 0.29531
-0.178736 -0.0998275 0.369227
-0.165022 -0.099803 0.366542
-0.213628 -0.0997539 0.333823
-0.300714 -0.0997048 0.281876
-0.146414 -0.0996557 0.350634
-0.294336 -0.0996312 0.267161
-0.269452 -0.099582 0.27123
-0.189565 -0.0995329 0.302812
-0.190136 -0.0994837 0.294177
-0.231894 -0.0994591 0.263817
-0.172532 -0.0994099 0.285168
-0.299794 -0.0993606 0.213218
-0.194618 -0.0993114 0.257499
-0.214283 -0.0992868 0.238216
-0.0779785 -0.0992375 0.298081
-0.283824 -0.0991882 0.186882
-0.29952 -0.0991635 0.169606
-0.15709 -0.0991142 0.232565
-0.285942 -0.0990648 0.159895
-0.379504 -0.0990155 0.104881
-0.24094 -0.0989908 0.164765
-0.265723 -0.0989414 0.14416
-0.291419 -0.0988919 0.123111
-0.214197 -0.0988425 0.153532
-0.232438 -0.0988178 0.135045
-0.181167 -0.0987683 0.15251
-0.233156 -0.0987188 0.118357
-0.00922488 -0.098694 0.220978
-0.148067 -0.0986445 0.143419
-0.249329 -0.098595 0.0846607
-0.149244 -0.0985702 0.125381
-0.201498 -0.0985206 0.0911474
-0.241216 -0.098471 0.0631927
-0.090651 -0.0984214 0.130392
-0.24039 -0.0983966 0.0462308
-0.152742 -0.098347 0.081991
-0.215866 -0.0982973 0.0423766
-0.230874 -0.0982724 0.025604
-0.32661 -0.0982228 -0.0302962
-0.284352 -0.098173 -0.0171877
-0.296317 -0.0981482 -0.0324165
-0.335251 -0.0980984 -0.059884
-0.329153 -0.0940167 1.95537
-0.141747 -0.0939767 2.03883
-0.143701 -0.0939367 2.02761
-0.268749 -0.093893 1.95498
-0.222813 -0.093853 1.96773
-0.460286 -0.0938129 1.8388
-0.267544 -0.0937728 1.92497
-0.214091 -0.0937327 1.94152
-0.258442 -0.09369 1.90925
-0.210657 -0.0936499 1.92298
-0.449417 -0.0936098 1.79345
-0.311508 -0.0935696 1.85227
-0.236896 -0.0935294 1.87944
-0.117126 -0.0934892 1.92921
-0.0522209 -0.0934475 1.9516
-0.378269 -0.0934073 1.77848
-0.222283 -0.093367 1.84638
-0.157602 -0.0933267 1.86865
-0.309332 -0.0932864 1.78271
-0.241549 -0.0932457 1.80656
-0.143276 -0.0932054 1.84565
-0.301294 -0.093165 1.75661
-0.307059 -0.0931247 1.7437
-0.306776 -0.0930843 1.73383
-0.36528 -0.0930439 1.69457
-0.26091 -0.0930034 1.73676
-0.147922 -0.092963 1.78327
-0.324218 -0.0929225 1.68515
-0.286419 -0.0928821 1.69409
-0.249708 -0.0928416 1.70249
-0.270323 -0.092801 1.68224
-0.23493 -0.0927605 1.69001
-0.293827 -0.0927199 1.65064
-0.145945 -0.0926793 1.71467
-0.338772 -0.0926387 1.60836
-0.40007 -0.0925989 1.5678
-0.228582 -0.0925786 1.64295
-0.190608 -0.0925379 1.65207
-0.163531 -0.0924973 1.65575
-0.253694 -0.0924566 1.60081
-0.290334 -0.0924159 1.57266
-0.298217 -0.0923752 1.55889
-0.238174 -0.0923362 1.57903
-0.272993 -0.0922955 1.55181
-0.285366 -0.0922547 1.53583
-0.229787 -0.0922139 1.55383
-0.309771 -0.0921731 1.50406
-0.133585 -0.0921323 1.58239
-0.315203 -0.0920944 1.48172
-0.355349 -0.0920535 1.45191
-0.201146 -0.0920126 1.51927
-0.221363 -0.0919717 1.49944
-0.26573 -0.0919513 1.46679
-0.296295 -0.0919104 1.4418
-0.21576 -0.0918694 1.47238
-0.147775 -0.0918284 1.49669
-0.245551 -0.0917915 1.43798
-0.145859 -0.0917505 1.47816
-0.149698 -0.0917095 1.46659
-0.175632 -0.0916684 1.44399
-0.264685 -0.0916274 1.38983
-0.260239 -0.0915863 1.38243
-0.271543 -0.0915452 1.36717
-0.379559 -0.0915297 1.30259
-0.180526 -0.0914886 1.39251
-0.281323 -0.0914475 1.33253
-0.345369 -0.0914063 1.29094
-0.205452 -0.0913652 1.35134
-0.268091 -0.091324 1.31048
-0.364604 -0.0912828 1.25268
-0.237874 -0.0912416 1.30652
-0.344687 -0.0912065 1.24336
-0.167405 -0.0911652 1.3225
-0.325131 -0.0911446 1.23332
-0.222052 -0.0911033 1.27538
-0.196969 -0.091062 1.27844
-0.222406 -0.0910207 1.25626
-0.186805 -0.0909793 1.26461
-0.107585 -0.090938 1.29477
-0.164572 -0.0909038 1.25656
-0.32552 -0.0908624 1.16666
-0.214335 -0.090821 1.21284
-0.212737 -0.0908003 1.2034
-0.378208 -0.0907589 1.11127
-0.284156 -0.0907174 1.14891
-0.205563 -0.0906759 1.17884
-0.34583 -0.0906344 1.09934
-0.202309 -0.0905929 1.16176
-0.361498 -0.0905514 1.07282
-0.369644 -0.0905182 1.05908
-0.178319 -0.0904974 1.14456
-0.191077 -0.0904558 1.12887
-0.36021 -0.0904142 1.035
-0.0373713 -0.0903726 1.18714
-0.1074 -0.090331 1.14284
-0.236114 -0.0902893 1.06922
-0.378232 -0.0902477 0.988908
-0.185386 -0.0902268 1.0752
-0.403518 -0.0901851 0.9569
-0.297862 -0.0901528 1.0001
-0.276548 -0.0901111 1.00154
-0.293023 -0.0900694 0.984101
-0.180785 -0.0900276 1.03103
-0.298732 -0.0899858 0.962871
-0.269656 -0.0899649 0.967332
-0.430364 -0.0899231 0.877815
-0.0537587 -0.0898813 1.05696
-0.190634 -0.0898395 0.979386
-0.496742 -0.0897976 0.817201
-0.301219 -0.0897557 0.905844
-0.146983 -0.0897452 0.972469
-0.285848 -0.0897033 0.893935
-0.152276 -0.0896614 0.95163
-0.155764 -0.0896195 0.940807
-0.210034 -0.0895775 0.904603
-0.155319 -0.0895355 0.922903
-0.271473 -0.0895145 0.854839
