ply
format ascii 1.0
comment Created by Open3D
element vertex 1737
property double x
property double y
property double z
end_header
-0.0196612 -0.0254436 0.892747
-0.153412 -0.0254315 0.816955
-0.150168 -0.0254194 0.80967
-0.14886 -0.0254074 0.801429
-0.191309 -0.0253953 0.771306
-0.187049 -0.0253892 0.76359
-0.216783 -0.0253771 0.739859
-0.279747 -0.025365 0.699524
-0.177133 -0.0253529 0.741989
0.0396821 -0.0253468 0.840566
-0.451912 -0.0253347 0.585947
-0.289568 -0.0253225 0.658307
-0.299036 -0.0253104 0.644773
-0.259166 -0.0252983 0.655919
-0.25569 -0.0252922 0.647865
-0.0342651 -0.02528 0.749808
0.0624436 -0.0252679 0.789404
-0.196859 -0.0252557 0.651006
-0.107944 -0.0252436 0.686728
-0.202099 -0.0252375 0.629897
-0.206312 -0.0252253 0.619075
-0.319489 -0.0252131 0.553781
-0.264302 -0.0252009 0.572681
-0.125136 -0.0251948 0.63254
-0.405868 -0.0251827 0.483501
-0.186251 -0.0251705 0.584647
-0.301745 -0.0251583 0.518249
-0.213408 -0.0251463 0.553733
-0.139615 -0.0251402 0.580943
-0.391143 -0.025128 0.446558
-0.0915491 -0.0251158 0.587746
-0.261529 -0.0251036 0.494158
-0.194813 -0.0250974 0.517861
-0.327176 -0.0250852 0.4431
-0.244298 -0.025073 0.475972
-0.194596 -0.0250607 0.492267
-0.207693 -0.0250546 0.476094
-0.101058 -0.0250424 0.520875
-0.177312 -0.0250301 0.474223
-0.406912 -0.0250178 0.35091
-0.205501 -0.0250117 0.442021
-0.19572 -0.0249994 0.438418
-0.145534 -0.0249872 0.455029
-0.212612 -0.0249749 0.413019
-0.328304 -0.0249688 0.345609
-0.101009 -0.0249565 0.450805
0.0869232 -0.0249442 0.536332
-0.181339 -0.0249319 0.393772
-0.209492 -0.0249257 0.370162
-0.282806 -0.0249134 0.325097
-0.428898 -0.0249011 0.243654
-0.489742 -0.0248888 0.204846
-0.0137202 -0.0248827 0.433354
-0.181554 -0.0248703 0.341072
-0.115972 -0.0248586 0.365395
-0.101275 -0.0248525 0.363262
-0.480314 -0.0248401 0.165407
-0.356341 -0.0248278 0.219071
-0.115553 -0.0248154 0.331152
-0.0567894 -0.0248093 0.351083
-0.0972041 -0.0247969 0.322584
-0.139143 -0.0247846 0.293333
-0.261555 -0.0247722 0.223858
-0.125523 -0.024766 0.282454
-0.177239 -0.0247537 0.248347
-0.330444 -0.0247413 0.163506
-0.253582 -0.0247351 0.19254
-0.156906 -0.0247227 0.23266
0.0451252 -0.0247103 0.325469
-0.232273 -0.0246979 0.178575
-0.266081 -0.0246918 0.152305
-0.309166 -0.0246794 0.122588
-0.152923 -0.024667 0.192546
-0.254177 -0.0246607 0.132574
-0.0951745 -0.0246483 0.203932
-0.183958 -0.0246359 0.151409
-0.243948 -0.0246297 0.112092
-0.120999 -0.0246173 0.165455
-0.20568 -0.0246049 0.115014
0.000698674 -0.0245924 0.210115
-0.34962 -0.0245862 0.0256649
-0.206195 -0.0245738 0.0893094
-0.285578 -0.0245613 0.0415609
-0.525764 -0.0245551 -0.0878006
-0.194371 -0.0245426 0.0698593
-0.0933753 -0.0245302 0.112332
-0.0394626 -0.024524 0.130043
-0.458483 -0.0245115 -0.0874722
-0.235958 -0.024499 0.015797
-0.0745182 -0.0244928 0.0872934
-0.299059 -0.0244803 -0.0329501
-0.224441 -0.0134644 2.01205
-0.170979 -0.0134587 2.02851
-0.244648 -0.01345 1.98204
-0.13809 -0.0134443 2.02507
-0.46055 -0.0134386 1.8536
-0.393764 -0.0134328 1.87676
-0.317331 -0.0134243 1.90536
-0.229689 -0.0134186 1.93898
-0.224838 -0.0134128 1.93121
-0.183418 -0.013407 1.94173
-0.3047 -0.0134013 1.87092
0.0724455 -0.0133929 2.04991
-0.318271 -0.0133871 1.8444
-0.133093 -0.0133814 1.92685
-0.200423 -0.0133756 1.88305
-0.294752 -0.0133698 1.82576
-0.309202 -0.0133616 1.80899
-0.16899 -0.0133558 1.869
-0.26557 -0.01335 1.81062
-0.184703 -0.0133442 1.84098
-0.143398 -0.0133385 1.85157
-0.138408 -0.0133303 1.84455
-0.0576115 -0.0133246 1.8749
-0.237019 -0.0133188 1.77517
-0.37479 -0.013313 1.69626
-0.512862 -0.0133072 1.61721
-0.407462 -0.0132992 1.66042
-0.204669 -0.0132934 1.75183
-0.301296 -0.0132876 1.69354
-0.262421 -0.0132818 1.70301
-0.253392 -0.013276 1.69757
-0.156125 -0.0132701 1.73626
-0.017753 -0.0132623 1.796
-0.359629 -0.0132565 1.61514
-0.186158 -0.0132506 1.69196
0.026457 -0.0132448 1.78836
-0.28749 -0.013239 1.6215
-0.345528 -0.0132332 1.5826
-0.196022 -0.0132284 1.64723
-0.209184 -0.0132225 1.63079
-0.315458 -0.0132167 1.5678
-0.279355 -0.0132109 1.57601
-0.332812 -0.013205 1.53945
-0.176218 -0.0131992 1.60793
-0.0965336 -0.0131916 1.6384
-0.391294 -0.0131857 1.48123
-0.239366 -0.0131799 1.5474
-0.192978 -0.013174 1.56082
-0.0533735 -0.0131682 1.62086
-0.239107 -0.0131623 1.51824
0.0797096 -0.0131549 1.66831
-0.295787 -0.013149 1.47084
-0.0441155 -0.0131447 1.58654
-0.266842 -0.0131402 1.46512
-0.1908 -0.0131343 1.49344
-0.327993 -0.0131285 1.41515
-0.485189 -0.0131226 1.32687
-0.332714 -0.0131153 1.39382
-0.143782 -0.0131094 1.47863
-0.291721 -0.0131035 1.39501
-0.163412 -0.0130976 1.44953
-0.182941 -0.0130917 1.43014
-0.187212 -0.0130859 1.41839
0.00255724 -0.01308 1.50367
-0.151984 -0.0130755 1.41642
-0.206441 -0.0130698 1.37955
-0.299329 -0.0130639 1.32353
-0.227044 -0.013058 1.35011
-0.105645 -0.0130521 1.40126
-0.415984 -0.0130462 1.23655
-0.23435 -0.0130403 1.31783
-0.189668 -0.0130344 1.33066
-0.132802 -0.0130273 1.34989
-0.0709173 -0.0130214 1.37134
-0.158623 -0.0130185 1.31718
-0.404992 -0.0130126 1.18452
-0.463692 -0.0130066 1.1457
-0.157876 -0.0130007 1.28915
-0.420486 -0.0129948 1.1484
-0.183482 -0.0129888 1.25747
-0.0602427 -0.0129819 1.30994
-0.189779 -0.012976 1.23576
-0.0339149 -0.0129722 1.3037
-0.243316 -0.0129671 1.18935
-0.14325 -0.0129611 1.23
-0.390039 -0.0129552 1.09724
-0.17161 -0.0129493 1.19709
-0.301819 -0.0129433 1.12264
-0.023065 -0.0129374 1.25268
-0.253028 -0.0129306 1.12861
-0.179248 -0.0129276 1.15531
-0.353861 -0.0129216 1.0587
-0.188552 -0.0129157 1.13206
-0.296484 -0.0129097 1.0688
-0.00818865 -0.0129037 1.20367
-0.254912 -0.0128978 1.07105
-0.120288 -0.0128918 1.12911
-0.256931 -0.0128888 1.05066
-0.394452 -0.0128828 0.972662
-0.0315463 -0.0128762 1.14509
-0.212786 -0.0128702 1.04526
-0.351114 -0.0128642 0.966893
-0.12047 -0.0128583 1.07302
-0.125713 -0.0128523 1.06122
-0.197328 -0.0128493 1.01534
-0.176705 -0.0128433 1.01649
-0.260664 -0.0128373 0.965364
-0.207137 -0.0128313 0.98299
-0.217053 -0.0128253 0.968904
-0.279616 -0.0128193 0.928507
-0.238728 -0.0128158 0.939079
-0.178399 -0.0128098 0.960147
-0.0798773 -0.0128038 1.00032
-0.0378815 -0.0127978 1.01224
-0.238644 -0.0127917 0.9028
-0.160405 -0.0127857 0.932867
-0.172097 -0.0127827 0.917039
-0.169828 -0.0127767 0.90914
-0.201594 -0.0127707 0.884235
-0.33234 -0.0127646 0.809851
-0.27441 -0.0127586 0.829817
-0.343615 -0.0127531 0.78607
-0.341476 -0.0127492 0.777469
-0.233928 -0.0127432 0.822274
-0.0690725 -0.0127372 0.895743
-0.418702 -0.0127311 0.711981
-0.301998 -0.0127251 0.761397
-0.224476 -0.0127221 0.79026
-0.14117 -0.012716 0.822996
-0.179248 -0.01271 0.795052
-0.304488 -0.0127039 0.723538
-0.320487 -0.0126979 0.706655
-0.357727 -0.0126948 0.678175
-0.24951 -0.0126888 0.72342
-0.365604 -0.0126827 0.656521
-0.0947058 -0.0126767 0.783129
-0.265105 -0.0126704 0.689159
-0.268635 -0.0126674 0.677572
-0.169971 -0.0126613 0.718094
-0.351564 -0.0126552 0.618497
-0.241284 -0.0126492 0.664849
-0.157467 -0.0126433 0.697922
-0.289343 -0.0126401 0.622259
-0.0987074 -0.012634 0.708819
-0.0810144 -0.0126279 0.708919
-0.378378 -0.0126218 0.551502
-0.0967344 -0.0126188 0.682571
-0.293648 -0.0126127 0.575398
-0.0977304 -0.0126066 0.664653
-0.224828 -0.0126005 0.592411
-0.221946 -0.0125944 0.585171
-0.0990176 -0.0125913 0.63692
-0.240997 -0.0125852 0.557268
-0.239612 -0.0125791 0.54931
-0.264512 -0.012573 0.528225
-0.194284 -0.01257 0.553654
-0.123572 -0.0125639 0.58039
-0.112133 -0.0125578 0.5775
-0.305089 -0.0125516 0.472425
-0.165494 -0.0125486 0.532567
-0.0260797 -0.0125425 0.593697
-0.301403 -0.0125363 0.447469
-0.396457 -0.0125302 0.391386
-0.401672 -0.0125272 0.379154
-0.190123 -0.012521 0.476393
-0.117418 -0.0125149 0.504222
-0.322151 -0.0125088 0.393343
-0.0531861 -0.0125057 0.518232
-0.196709 -0.0124996 0.437978
-0.094629 -0.0124934 0.480537
-0.210986 -0.0124873 0.413889
-0.257562 -0.0124842 0.381038
-0.224534 -0.0124781 0.389102
-0.306435 -0.0124719 0.339713
-0.443819 -0.0124658 0.262594
-0.338969 -0.0124627 0.305486
-0.176146 -0.0124565 0.378491
-0.289451 -0.0124504 0.313443
-0.219253 -0.0124442 0.340157
-0.0252859 -0.0124411 0.427639
-0.0448437 -0.012435 0.409495
-0.229785 -0.0124288 0.308672
-0.438872 -0.0124226 0.195787
-0.209188 -0.0124196 0.301157
-0.0283463 -0.0124134 0.383257
-0.210444 -0.0124072 0.283898
-0.281385 -0.0124041 0.238978
-0.272445 -0.0123979 0.235158
-0.47854 -0.0123918 0.123832
-0.310947 -0.0123856 0.199361
-0.01925 -0.0123825 0.335791
-0.284669 -0.0123763 0.194834
-0.250889 -0.0123701 0.203489
-0.0636239 -0.012367 0.287725
-0.169927 -0.0123608 0.226358
-0.248449 -0.0123546 0.178893
-0.14163 -0.0123484 0.22411
-0.184214 -0.0123453 0.193452
-0.393881 -0.0123391 0.0804463
-0.470184 -0.0123329 0.0341341
-0.203553 -0.0123298 0.158107
-0.0847551 -0.0123236 0.209365
-0.243158 -0.0123174 0.122034
-0.0263887 -0.0123143 0.221098
-0.257843 -0.0123081 0.0972616
-0.388043 -0.0123018 0.0240639
-0.164688 -0.0122956 0.127655
-0.304806 -0.0122925 0.0483069
-0.0911257 -0.0122863 0.147081
-0.163028 -0.0122801 0.103076
-0.262543 -0.0122769 0.044051
-0.317863 -0.0122707 0.00835658
-0.32263 -0.0122645 -0.00204938
-0.451818 -0.0122614 -0.0758879
-0.141326 -0.0122551 0.071356
-0.393584 -0.0122489 -0.0627637
-0.336326 -0.0122458 -0.043357
-0.152909 -0.0122396 0.0403524
-0.321191 0 1.96166
-0.351814 0 1.93607
-0.225547 0 1.98964
-0.182711 0 2.0008
-0.14403 0 2.00989
-0.470114 0 1.83662
-0.269146 0 1.92756
-0.427359 0 1.83824
-0.363203 0 1.86012
-0.23999 0 1.91154
-0.333408 0 1.85464
-0.416506 0 1.8036
0.136866 0 2.07012
-0.291638 0 1.84572
-0.203886 0 1.87946
-0.222553 0 1.86065
-0.228171 0 1.84773
-0.337616 0 1.78291
0.00803393 0 1.94564
-0.152988 0 1.85505
-0.28842 0 1.77789
-0.20595 0 1.80906
-0.175554 0 1.81421
-0.187773 0 1.79807
-0.204966 0 1.77944
-0.215733 0 1.76465
-0.285902 0 1.71956
-0.212549 0 1.74625
-0.245072 0 1.72
-0.304304 0 1.68041
-0.0839532 0 1.78063
-0.386528 0 1.61998
-0.396097 0 1.60525
-0.254828 0 1.66596
-0.242993 0 1.66196
-0.110364 0 1.71837
-0.374977 0 1.57673
-0.0584864 0 1.72509
-0.245098 0 1.62191
-0.247151 0 1.61102
-0.33812 0 1.55496
-0.161283 0 1.63354
-0.32586 0 1.54195
-0.44163 0 1.47425
-0.285011 0 1.54275
-0.192786 0 1.57906
-0.251231 0 1.54005
-0.288591 0 1.51159
-0.401363 0 1.44595
-0.344296 0 1.46472
-0.465034 0 1.39461
-0.00656571 0 1.61411
-0.498456 0 1.35844
-0.358126 0 1.41889
-0.328635 0 1.42342
-0.196222 0 1.48017
-0.107419 0 1.51489
-0.132463 0 1.4927
-0.231419 0 1.43356
-0.340179 0 1.36953
-0.280073 0 1.38994
-0.189397 0 1.42565
-0.394655 0 1.31387
-0.139163 0 1.43201
-0.234709 0 1.37464
-0.446884 0 1.25851
-0.277825 0 1.33313
-0.396961 0 1.26399
-0.249007 0 1.32842
-0.321981 0 1.28281
-0.338979 0 1.26478
-0.305257 0 1.27212
-0.320213 0 1.25513
-0.229755 0 1.29086
-0.501731 0 1.14539
-0.0447635 0 1.36357
-0.245409 0 1.25378
-0.0741907 0 1.33032
-0.265312 0 1.22532
-0.389645 0 1.15371
-0.336796 0 1.17071
-0.285422 0 1.18699
-0.0168797 0 1.31186
-0.228966 0 1.19602
-0.226817 0 1.18726
-0.115384 0 1.23361
-0.225383 0 1.16961
-0.192672 0 1.17661
0.116796 0 1.32201
-0.237755 0 1.1354
-0.374447 0 1.05774
-0.22535 0 1.12211
-0.238448 0 1.10626
-0.254093 0 1.08915
0.0826848 0 1.24827
-0.371157 0 1.0124
-0.20275 0 1.08735
-0.0854007 0 1.13678
-0.156108 0 1.09131
-0.253042 0 1.03362
-0.330447 0 0.985702
-0.329603 0 0.976922
-0.412512 0 0.926277
-0.254799 0 0.995953
-0.18861 0 1.01955
-0.353408 0 0.927698
-0.124894 0 1.03281
-0.41343 0 0.8794
-0.381727 0 0.886124
-0.295945 0 0.919899
-0.341968 0 0.887494
-0.233444 0 0.932023
-0.145156 0 0.967081
-0.0754066 0 0.992881
-0.238953 0 0.902044
-0.211999 0 0.906468
-0.36302 0 0.821627
-0.20681 0 0.890292
-0.149008 0 0.910171
-0.451124 0 0.750103
-0.0398329 0 0.946748
-0.420912 0 0.74722
-0.353011 0 0.771234
-0.233298 0 0.822121
-0.460846 0 0.699389
-0.378068 0 0.731831
-0.127897 0 0.847981
-0.128345 0 0.837859
0.0420691 0 0.914149
-0.332669 0 0.718077
-0.425728 0 0.662654
-0.371503 0 0.680883
-0.137783 0 0.787883
-0.133177 0 0.781323
-0.184876 0 0.746622
-0.14963 0 0.755403
-0.307134 0 0.667822
-0.469245 0 0.576945
-0.157657 0 0.723929
0.00346324 0 0.79569
0.0606218 0 0.815481
-0.282469 0 0.63516
-0.223415 0 0.654903
-0.331857 0 0.591925
-0.318154 0 0.590031
-0.230202 0 0.625427
-0.221367 0 0.620765
-0.283024 0 0.580548
-0.281587 0 0.572563
-0.264835 0 0.572246
-0.311404 0 0.540281
-0.396055 0 0.48824
-0.00351654 0 0.675848
-0.211111 0 0.563401
-0.316023 0 0.502306
-0.239651 0 0.530808
0.0150263 0 0.649527
-0.12954 0 0.568637
-0.151934 0 0.548843
-0.136183 0 0.547064
-0.318744 0 0.447207
-0.0448186 0 0.575605
-0.194611 0 0.492155
-0.373831 0 0.394002
-0.264141 0 0.439231
-0.243128 0 0.441215
-0.335002 0 0.386868
-0.214136 0 0.438699
-0.231712 0 0.420427
-0.118504 0 0.46855
-0.0305122 0 0.504077
-0.211455 0 0.404897
-0.402619 0 0.300011
-0.099506 0 0.44313
-0.338885 0 0.315014
-0.326858 0 0.311495
-0.235365 0 0.348835
-0.00788757 0 0.454178
-0.259686 0 0.319895
-0.369556 0 0.255458
-0.198461 0 0.332642
-0.168788 0 0.339126
-0.403951 0 0.213203
-0.353383 0 0.229016
-0.167006 0 0.313883
-0.237186 0 0.270484
-0.162035 0 0.29861
-0.266533 0 0.238072
-0.124855 0 0.300632
-0.344098 0 0.182744
-0.183375 0 0.253688
-0.147215 0 0.263521
-0.418062 0 0.119862
-0.341164 0 0.148916
-0.137998 0 0.242283
-0.0593353 0 0.273411
-0.165587 0 0.212093
-0.201766 0 0.184639
-0.318233 0 0.118233
-0.30139 0 0.118494
-0.19138 0 0.164157
0.145126 0 0.32427
-0.410384 0 0.0383854
-0.310087 0 0.0792139
-0.0753024 0 0.188497
-0.299764 0 0.0681695
-0.317429 0 0.0512512
-0.20799 0 0.0966814
-0.174385 0 0.105419
-0.134632 0 0.117241
-0.363496 0 -0.00645736
0.267545 0 0.301029
-0.247371 0 0.0355494
-0.438665 0 -0.0693415
0.0831301 0 0.183554
-0.230073 0 0.0189621
0.0679293 0 0.158742
-0.193563 0 0.020054
-0.219798 0.0134844 2.0101
-0.274652 0.0134787 1.97239
-0.406732 0.0134693 1.89685
-0.320505 0.0134635 1.9297
-0.108457 0.0134578 2.02547
-0.08301 0.013452 2.02795
-0.258918 0.0134427 1.93053
-0.286493 0.013437 1.90653
-0.267342 0.0134312 1.90589
-0.059989 0.0134255 1.99937
-0.389937 0.0134197 1.82421
-0.498808 0.0134105 1.76035
-0.188131 0.0134048 1.90552
-0.107428 0.013399 1.93572
-0.27129 0.0133932 1.84365
-0.279461 0.0133842 1.83016
-0.201433 0.0133784 1.85906
-0.119128 0.0133726 1.8901
-0.241138 0.0133668 1.819
-0.343065 0.013361 1.75795
-0.290309 0.0133521 1.77496
-0.331545 0.0133463 1.74428
-0.214366 0.0133405 1.79282
-0.135196 0.0133347 1.82236
-0.314145 0.0133289 1.72285
-0.121413 0.0133201 1.80989
-0.212005 0.0133143 1.75459
0.0760387 0.0133085 1.88861
-0.262265 0.0133027 1.70947
-0.0985156 0.0132969 1.78137
-0.218718 0.0132882 1.71198
-0.17453 0.0132824 1.72412
-0.0752711 0.0132765 1.7638
-0.194705 0.0132707 1.69415
-0.190897 0.0132649 1.68613
-0.225211 0.0132563 1.65972
-0.217213 0.0132505 1.65382
-0.452571 0.0132447 1.52625
-0.0992545 0.0132388 1.69303
-0.180667 0.013233 1.64246
-0.238959 0.0132271 1.60346
-0.505507 0.0132217 1.46025
-0.0339394 0.0132158 1.6862
-0.31693 0.01321 1.53487
-0.194587 0.0132041 1.58623
-0.0341943 0.0131983 1.65662
-0.289007 0.0131924 1.51942
-0.0813994 0.0131841 1.61406
-0.361702 0.0131782 1.46414
-0.091782 0.0131724 1.58934
-0.1646 0.0131665 1.54318
-0.469643 0.0131606 1.38092
-0.289205 0.0131548 1.46141
-0.103783 0.0131466 1.54499
0.0303214 0.0131407 1.60234
-0.211152 0.0131371 1.47132
-0.397722 0.0131319 1.36817
-0.273371 0.013126 1.42067
-0.252384 0.0131201 1.4215
-0.277808 0.0131142 1.39914
-0.297503 0.0131062 1.38021
-0.363851 0.0131003 1.33741
-0.319097 0.0130944 1.35016
-0.234634 0.0130885 1.38279
-0.479293 0.0130826 1.25086
-0.082368 0.0130767 1.43973
-0.236109 0.0130708 1.35329
-0.274383 0.0130659 1.32432
-0.095586 0.01306 1.40416
-0.248484 0.013054 1.31817
-0.228342 0.0130481 1.3187
-0.175046 0.0130422 1.33583
-0.259522 0.0130363 1.28408
-0.294853 0.0130304 1.25691
-0.135275 0.0130226 1.32772
-0.50518 0.0130167 1.13328
-0.343768 0.0130137 1.2037
-0.374938 0.0130078 1.17865
-0.493004 0.0130018 1.11017
-0.150314 0.0129959 1.27207
-0.286516 0.0129899 1.19455
-0.345135 0.012984 1.15582
-0.21421 0.0129764 1.21235
-0.286427 0.0129704 1.16685
-0.237935 0.0129674 1.18087
-0.308568 0.0129615 1.13617
-0.152488 0.0129555 1.20485
0.055031 0.0129496 1.29926
-0.204022 0.0129436 1.16039
-0.120556 0.0129377 1.19279
-0.20452 0.0129317 1.14149
-0.0433684 0.0129257 1.21276
-0.442356 0.0129212 1.00354
-0.127942 0.0129152 1.15146
-0.286266 0.0129093 1.06302
-0.227607 0.0129033 1.08308
-0.208121 0.0128973 1.08357
-0.161893 0.0128913 1.09744
-0.194716 0.0128869 1.07134
-0.169441 0.0128823 1.07431
-0.432594 0.0128764 0.93352
-0.216459 0.012869 1.0328
-0.31551 0.012863 0.974079
-0.410458 0.012857 0.917424
-0.203724 0.012851 1.01162
-0.267059 0.012848 0.969885
-0.198094 0.012842 0.995216
0.0670386 0.012836 1.11864
-0.254767 0.01283 0.948611
-0.269065 0.012824 0.932345
-0.321316 0.012818 0.897113
-0.150869 0.012815 0.972313
-0.470262 0.0128077 0.803906
-0.196687 0.0128017 0.931619
-0.226449 0.0127957 0.907673
-0.229249 0.0127897 0.89722
-0.290249 0.0127836 0.857678
-0.105616 0.0127806 0.940018
-0.353059 0.0127746 0.807274
-0.223481 0.0127685 0.863051
-0.201755 0.0127625 0.864914
-0.147165 0.0127565 0.883219
-0.322982 0.0127535 0.785372
-0.349372 0.0127474 0.763207
-0.222213 0.0127403 0.818166
-0.231816 0.0127343 0.804417
-0.0776526 0.0127282 0.872563
-0.329632 0.0127232 0.737309
-0.0203885 0.0127191 0.882379
-0.119485 0.0127131 0.823925
-0.320407 0.012707 0.714569
-0.345128 0.012701 0.693326
-0.1332 0.0126949 0.790418
-0.255029 0.0126919 0.71965
-0.172657 0.0126858 0.751984
-0.15173 0.0126797 0.753606
-0.415373 0.0126737 0.612955
-0.117081 0.0126686 0.752939
-0.206669 0.0126636 0.69897
-0.146985 0.0126576 0.720013
-0.197625 0.0126515 0.685905
-0.416966 0.0126454 0.567458
-0.169526 0.0126424 0.681394
-0.0806164 0.0126363 0.717092
-0.248311 0.0126302 0.624499
-0.237685 0.0126241 0.621078
-0.0768775 0.012618 0.692759
-0.144484 0.0126149 0.64921
0.0693121 0.0126088 0.747404
-0.285746 0.0126027 0.561183
-0.473151 0.0125966 0.4588
-0.312746 0.0125936 0.529287
-0.181053 0.0125875 0.586472
-0.291067 0.0125814 0.522815
-0.227861 0.0125753 0.545779
-0.0593145 0.01257 0.621124
-0.0630469 0.0125654 0.610135
-0.284074 0.0125592 0.491014
-0.133466 0.0125531 0.557722
-0.424897 0.012547 0.403422
-0.281952 0.0125439 0.465248
-0.342165 0.0125378 0.426576
-0.219492 0.0125317 0.479359
-0.29713 0.0125255 0.431997
-0.266956 0.0125225 0.437469
-0.0884984 0.0125163 0.518175
-0.408117 0.0125102 0.349855
-0.355122 0.0125041 0.367852
-0.0113894 0.012501 0.530133
-0.289344 0.0124948 0.382676
-0.0891169 0.0124887 0.474321
-0.227157 0.0124825 0.396844
-0.337738 0.0124795 0.331999
-0.161743 0.0124733 0.411559
-0.313945 0.0124672 0.327032
-0.0820624 0.0124641 0.43344
-0.426866 0.0124579 0.252633
-0.320566 0.0124517 0.297388
-0.0983763 0.0124456 0.4001
0.0884438 0.0124425 0.484008
-0.438919 0.0124358 0.212165
-0.18912 0.0124296 0.328713
-0.376581 0.0124234 0.226643
-0.297259 0.0124203 0.256832
-0.128075 0.0124142 0.333104
-0.275467 0.012408 0.251099
-0.0369755 0.0124049 0.360896
-0.398431 0.0123987 0.171879
-0.00829391 0.0123925 0.35867
-0.0672543 0.0123863 0.320924
-0.274636 0.0123832 0.207815
-0.360788 0.012377 0.156493
-0.19827 0.0123708 0.229517
-0.228324 0.0123677 0.205095
-0.0451512 0.0123615 0.288466
-0.349678 0.0123553 0.128
-0.0658311 0.0123491 0.261732
-0.181026 0.012346 0.19477
-0.203336 0.0123398 0.175443
-0.229044 0.0123336 0.15443
-0.430887 0.0123305 0.0441657
0.0434627 0.0123243 0.273201
-0.411269 0.0123181 0.0377069
-0.302488 0.0123124 0.0837807
-0.249343 0.0123088 0.101242
-0.276538 0.0123025 0.0795478
-0.258114 0.0122963 0.0806752
-0.063653 0.0122932 0.168617
-0.447425 0.012287 -0.031334
-0.24709 0.0122807 0.0607805
-0.305157 0.0122776 0.0224803
-0.355296 0.0122714 -0.0106221
-0.118623 0.0122651 0.0996934
-0.140471 0.012262 0.0795249
-0.0572667 0.0122558 0.113126
-0.316068 0.0122495 -0.0242636
-0.232719 0.0122464 0.00818899
-0.133787 0.0122402 0.0496862
-0.33512 0.0269921 1.94996
-0.293491 0.0269806 1.96047
-0.291841 0.0269691 1.95101
-0.22964 0.0269496 1.9727
-0.036279 0.0269381 2.05912
-0.375338 0.0269265 1.87934
-0.26774 0.026915 1.92289
0.0425185 0.0268957 2.06864
-0.187706 0.0268842 1.94331
0.00332939 0.0268727 2.02862
-0.0682652 0.0268611 1.98263
-0.175643 0.0268421 1.91959
-0.256435 0.0268305 1.86902
-0.425278 0.026819 1.77444
-0.327341 0.0268074 1.81325
-0.471721 0.0267958 1.73092
-0.438536 0.026777 1.73821
-0.0848458 0.0267654 1.90494
-0.178721 0.0267538 1.84789
-0.386057 0.0267422 1.73413
-0.201341 0.0267237 1.8172
-0.39777 0.0267121 1.70892
-0.418636 0.0267004 1.68842
-0.142379 0.0266888 1.8165
-0.0252372 0.0266772 1.86503
-0.162798 0.0266589 1.78701
-0.119372 0.0266472 1.79871
-0.386344 0.0266356 1.65522
-0.158487 0.026624 1.75915
-0.200687 0.0266123 1.72806
-0.017589 0.0265942 1.81041
-0.145901 0.0265826 1.73629
-0.158669 0.0265709 1.71996
-0.268183 0.0265592 1.65526
-0.102095 0.0265476 1.72838
-0.110898 0.0265297 1.71481
-0.29496 0.026518 1.61287
-0.29674 0.0265064 1.60209
-0.14392 0.0264947 1.66861
-0.329104 0.026483 1.56615
-0.226251 0.0264654 1.60844
-0.34463 0.0264536 1.5394
-0.0656451 0.0264478 1.66833
-0.245641 0.0264361 1.5685
-0.497193 0.0264244 1.4329
-0.158948 0.0264126 1.59221
-0.0585606 0.0263953 1.63332
-0.347687 0.0263835 1.47897
-0.390895 0.0263718 1.44759
-0.346146 0.0263601 1.4602
-0.332355 0.0263483 1.45734
-0.284032 0.0263366 1.47176
-0.113158 0.0263194 1.54815
-0.30293 0.0263077 1.44355
-0.465235 0.0262959 1.35268
-0.206553 0.0262841 1.47233
-0.221662 0.0262777 1.45439
0.0219474 0.0262665 1.56644
-0.311623 0.0262547 1.38998
-0.438032 0.0262378 1.31779
-0.154538 0.026226 1.44989
-0.205595 0.0262142 1.41473
-0.207642 0.0262024 1.40408
-0.318287 0.0261906 1.33914
-0.581357 0.0261788 1.19801
-0.135557 0.0261622 1.41196
-0.0806119 0.0261504 1.42985
-0.383545 0.0261444 1.26802
-0.327455 0.0261326 1.2865
-0.250818 0.0261208 1.31527
-0.192248 0.0261089 1.33502
0.01186 0.0260971 1.42754
-0.213009 0.0260807 1.30621
-0.00281183 0.0260689 1.4018
-0.283428 0.026057 1.252
-0.283791 0.0260451 1.24234
-0.362227 0.0260333 1.19365
-0.246802 0.0260273 1.24107
-0.218122 0.0260154 1.24596
-0.225551 0.0260036 1.2328
-0.266965 0.0259875 1.20325
-0.278999 0.0259756 1.18782
-0.228536 0.0259637 1.20364
-0.242985 0.0259518 1.18702
-0.0584931 0.0259398 1.26988
-0.410046 0.0259339 1.08387
-0.274123 0.025922 1.14247
-0.303628 0.02591 1.11836
-0.192918 0.0258942 1.16493
-0.211381 0.0258823 1.14637
-0.143521 0.0258703 1.17098
-0.213694 0.0258584 1.12658
-0.178421 0.0258524 1.13404
-0.0679427 0.0258405 1.17999
-0.114542 0.0258285 1.14741
-0.370283 0.0258165 1.01027
-0.158055 0.0258046 1.10713
-0.439722 0.025789 0.957578
-0.315113 0.025777 1.01065
0.130966 0.025771 1.22357
-0.00146899 0.0257591 1.14813
-0.135352 0.0257471 1.07199
-0.234876 0.0257351 1.01303
-0.317297 0.0257231 0.962636
-0.404231 0.0257111 0.909997
-0.177467 0.0257026 1.01368
-0.261865 0.025693 0.961955
-0.10507 0.0256777 1.03171
0.140833 0.0256657 1.14553
-0.188094 0.0256537 0.971952
-0.0776396 0.0256416 1.01807
-0.128941 0.0256329 0.982818
0.0421979 0.0256236 1.05888
-0.234506 0.0256115 0.911446
-0.0800162 0.0255995 0.979625
-0.07557 0.0255874 0.972793
-0.299728 0.0255754 0.85167
-0.543178 0.0255693 0.719966
-0.169265 0.0255573 0.897898
-0.371642 0.0255422 0.788165
-0.426758 0.0255301 0.751605
-0.187393 0.025518 0.862297
-0.161771 0.025506 0.866129
-0.0350705 0.0254999 0.919547
-0.505771 0.0254878 0.675237
-0.206269 0.0254757 0.81604
-0.378239 0.0254636 0.721117
-0.323389 0.0254515 0.739615
-0.122001 0.0254454 0.830416
-0.167553 0.0254333 0.798733
-0.574122 0.0254212 0.586553
-0.435019 0.0254064 0.647652
-0.291452 0.0253943 0.710563
-0.0695686 0.0253882 0.81165
-0.261114 0.0253761 0.707024
-0.241979 0.0253639 0.70775
-0.174296 0.0253518 0.732761
-0.231851 0.0253396 0.695164
-0.33507 0.0253335 0.633738
-0.0339917 0.0253213 0.775477
0.0113744 0.0253092 0.789371
-0.354997 0.025297 0.597408
-0.182268 0.0252874 0.674567
-0.251838 0.0252787 0.630444
-0.100814 0.0252665 0.697209
-0.291976 0.0252543 0.592893
-0.0822852 0.0252398 0.689409
-0.190397 0.0252337 0.625606
-0.0948171 0.0252215 0.664692
-0.0577537 0.0252093 0.674531
-0.263738 0.0251971 0.562858
-0.212062 0.0251898 0.579183
-0.159353 0.0251788 0.596672
-0.153967 0.0251665 0.590714
-0.231638 0.0251543 0.54324
-0.296783 0.0251421 0.50204
-0.250438 0.0251359 0.515535
-0.0485879 0.0251237 0.607851
-0.192996 0.0251114 0.527051
-0.0569307 0.0250992 0.586498
-0.141063 0.025093 0.534784
-0.375843 0.0250808 0.408829
-0.288319 0.0250685 0.444037
-0.533908 0.0250562 0.312699
-0.356646 0.0250501 0.391713
-0.225483 0.0250378 0.448772
-0.0788511 0.0250235 0.51393
-0.175275 0.0250112 0.457219
-0.268749 0.0250051 0.400895
-0.239567 0.0249928 0.407006
-0.217542 0.0249805 0.40955
-0.258679 0.0249682 0.380524
-0.106421 0.024962 0.447097
-0.472032 0.0249497 0.255855
-0.341551 0.0249374 0.31267
-0.202341 0.0249251 0.37386
-0.172849 0.0249189 0.379081
-0.118644 0.0249066 0.397789
-0.162767 0.0248942 0.367344
-0.149544 0.0248881 0.364453
-0.257986 0.0248757 0.301868
-0.260361 0.0248634 0.292329
-0.201846 0.024851 0.313247
-0.377852 0.0248448 0.215771
-0.258113 0.0248324 0.267321
-0.0350698 0.0248201 0.370533
-0.18388 0.0248077 0.287831
-0.147638 0.0248015 0.29651
-0.234557 0.0247891 0.244773
-0.36101 0.0247767 0.173281
-0.340068 0.0247705 0.174333
-0.282018 0.0247582 0.195112
-0.452253 0.0247457 0.10176
-0.363025 0.0247333 0.138152
-0.137298 0.0247271 0.241627
-0.194619 0.0247147 0.204764
-0.104659 0.0247023 0.241553
-0.208892 0.0246961 0.18007
-0.330265 0.0246837 0.111213
-0.252961 0.0246712 0.141705
-0.116461 0.024665 0.200612
-0.279084 0.0246526 0.111161
-0.414094 0.0246401 0.0355278
-0.136958 0.0246261 0.16629
-0.275916 0.0246199 0.0874994
0.00619613 0.0246074 0.220459
-0.528092 0.0245949 -0.0547695
0.0361735 0.0245887 0.218074
-0.630826 0.0245762 -0.12349
-0.144236 0.0245638 0.111752
-0.0908474 0.0245575 0.129179
-0.0275325 0.0245451 0.152804
-0.427385 0.0245326 -0.0551429
-0.23501 0.0245263 0.0318004
-0.219324 0.0245138 0.0316424
-0.559875 0.0245013 -0.146622
-0.133895 0.0244951 0.0571462
-0.457058 0.0244826 -0.112404
-0.0478193 0.0405393 2.08996
-0.00737265 0.0405088 2.10082
0.00864021 0.0404915 2.09853
-0.331384 0.0404742 1.91824
0.0331526 0.0404569 2.09023
-0.36253 0.0404267 1.88306
-0.0921556 0.0404094 2.008
-0.423517 0.0403921 1.83208
-0.0815867 0.0403747 1.99281
-0.396503 0.0403448 1.82607
-0.263523 0.0403275 1.88235
-0.0400326 0.0403101 1.9839
-0.232803 0.0402928 1.87733
-0.0136337 0.0402631 1.97766
-0.311257 0.0402458 1.81869
-0.268366 0.0402284 1.82998
-0.076351 0.040211 1.91585
0.0281576 0.0401817 1.95888
-0.264488 0.0401643 1.80244
0.0103343 0.0401469 1.92975
-0.225964 0.0401295 1.80151
-0.238935 0.0401006 1.78583
-0.117396 0.0400831 1.83653
0.0140988 0.0400657 1.89222
-0.164563 0.0400483 1.79284
-0.361559 0.0400196 1.68518
-0.186315 0.0400022 1.76277
-0.221166 0.0399847 1.73533
-0.186039 0.0399672 1.74289
-0.072681 0.0399498 1.78958
-0.298014 0.0399215 1.66779
-0.124521 0.039904 1.74457
-0.0252486 0.0398865 1.78425
-0.152947 0.039869 1.71045
-0.141772 0.0398515 1.7061
-0.23514 0.0398235 1.65034
0.00204553 0.039806 1.75902
-0.355238 0.0397885 1.57047
-0.2708 0.0397709 1.6028
-0.289781 0.0397534 1.58343
-0.171672 0.0397258 1.63344
-0.0697511 0.0397082 1.67454
-0.130177 0.0396906 1.63448
-0.284514 0.0396818 1.54675
-0.217449 0.0396643 1.57045
-0.44115 0.0396467 1.44878
-0.133621 0.0396194 1.59355
-0.044788 0.0396018 1.62818
-0.000179546 0.0395842 1.6407
-0.1839 0.0395666 1.53907
-0.492548 0.039549 1.37498
-0.411189 0.0395221 1.4067
-0.482053 0.0395045 1.36153
-0.286684 0.0394868 1.44949
-0.302542 0.0394691 1.43184
-0.382864 0.0394515 1.38198
-0.113801 0.0394338 1.50682
-0.197538 0.0394249 1.45449
-0.208491 0.0393984 1.44011
-0.396291 0.0393807 1.33655
-0.240631 0.039363 1.40473
-0.246934 0.0393453 1.39193
-0.264084 0.0393276 1.37373
-0.197414 0.0393099 1.39745
-0.0646767 0.0392838 1.45496
-0.0467147 0.039266 1.45434
-0.0628297 0.0392483 1.4367
0.070486 0.0392305 1.49378
-0.0280174 0.0392216 1.43416
-0.271106 0.0392038 1.30307
-0.158873 0.0391861 1.34964
-0.115068 0.0391603 1.36273
-0.230753 0.0391425 1.29537
-0.0939423 0.0391247 1.35427
-0.173996 0.0391069 1.30474
-0.43013 0.0390891 1.16719
-0.10481 0.0390713 1.32037
-0.424799 0.0390624 1.15008
-0.332404 0.039037 1.18752
-0.203262 0.0390192 1.24265
-0.194774 0.0390013 1.23746
-0.263224 0.0389835 1.19381
-0.166734 0.0389656 1.23264
-0.37218 0.0389477 1.12052
-0.153616 0.0389298 1.22041
-0.214766 0.0389209 1.1796
-0.269131 0.0388959 1.14373
-0.32562 0.038878 1.10612
-0.294711 0.0388601 1.11223
-0.162737 0.0388422 1.16888
-0.0678139 0.0388243 1.20701
-0.32913 0.0388063 1.06704
-0.239836 0.0387884 1.10239
-0.132387 0.0387794 1.14594
-0.0769145 0.0387615 1.16439
-0.213304 0.0387369 1.08758
-0.318155 0.0387189 1.02589
-0.453711 0.0387009 0.948861
-0.448505 0.038683 0.942224
-0.284661 0.0386716 1.01426
-0.162476 0.038656 1.0659
-0.131288 0.038638 1.07228
-0.170305 0.03862 1.04358
-0.30723 0.0386019 0.965926
-0.224306 0.0385777 0.998836
-0.146736 0.0385597 1.02846
-0.201548 0.0385507 0.990985
-0.143293 0.0385326 1.01097
-0.195921 0.0385146 0.975521
-0.251621 0.0384965 0.938549
-0.133542 0.0384785 0.988478
-0.0908272 0.0384604 1.00074
-0.0469634 0.0384514 1.01265
-0.148211 0.0384333 0.952943
-0.481553 0.0384095 0.777797
-0.0636977 0.0383914 0.977667
-0.0817167 0.0383733 0.959612
-0.449624 0.0383551 0.766624
-0.191213 0.0383461 0.885856
-0.321064 0.038328 0.811915
0.0345628 0.0383098 0.980724
-0.2348 0.0382917 0.837049
-0.361292 0.0382735 0.764821
-0.1919 0.0382645 0.839582
-0.198806 0.0382463 0.827167
-0.101667 0.0382281 0.866785
-0.183103 0.0382047 0.81769
-0.152579 0.0381865 0.824025
-0.254187 0.0381774 0.763325
-0.172483 0.0381592 0.795268
-0.331145 0.038141 0.70704
-0.314896 0.0381228 0.706278
-0.253623 0.0381046 0.72804
-0.446882 0.0380955 0.621553
-0.269781 0.0380773 0.701248
-0.296189 0.038059 0.6792
-0.391037 0.0380408 0.622943
-0.258438 0.0380225 0.680421
-0.189586 0.0380134 0.705028
-0.373105 0.0379951 0.604466
-0.197369 0.0379721 0.684075
0.139818 0.0379538 0.84389
-0.376211 0.0379355 0.577108
-0.375393 0.0379264 0.567738
-0.404052 0.0379081 0.54466
-0.348158 0.0378898 0.563871
-0.0396019 0.0378715 0.709424
-0.23817 0.0378623 0.60039
-0.32536 0.037844 0.54809
-0.399368 0.0378257 0.502392
-0.283099 0.0378073 0.551843
-0.316901 0.037789 0.52627
-0.224335 0.0377798 0.562842
-0.076657 0.0377615 0.628029
-0.218621 0.0377431 0.548407
-0.415395 0.0377247 0.441391
-0.165323 0.0377155 0.556746
-0.201011 0.0376929 0.53079
-0.26635 0.0376745 0.489523
-0.255935 0.0376561 0.486145
-0.37076 0.0376469 0.419083
-0.325007 0.0376285 0.433393
-0.232685 0.03761 0.470999
-0.192816 0.0375916 0.48239
0.013263 0.0375824 0.575811
-0.150122 0.037564 0.485595
-0.315007 0.0375455 0.39464
-0.24681 0.0375271 0.420237
-0.0961998 0.0375179 0.485954
-0.0731678 0.0374994 0.488989
-0.287164 0.0374809 0.373521
-0.175042 0.0374624 0.421123
-0.371996 0.0374532 0.313089
-0.219081 0.0374347 0.381108
-0.158939 0.0374162 0.402752
-0.144052 0.0373977 0.40178
-0.241469 0.0373885 0.343544
-0.26381 0.0373699 0.323978
-0.180477 0.0373514 0.35726
-0.23702 0.0373422 0.319484
-0.110678 0.0373236 0.374291
-0.368167 0.0373013 0.237656
-0.217361 0.0372828 0.304718
-0.181702 0.0372735 0.313075
-0.167983 0.0372549 0.311613
-0.236266 0.0372364 0.269162
-0.289137 0.0372178 0.234429
-0.398107 0.0372085 0.170501
-0.374043 0.0371899 0.174255
-0.274004 0.0371713 0.216009
-0.307018 0.037162 0.190081
-0.281708 0.0371434 0.19449
-0.159916 0.0371248 0.247151
-0.197624 0.0371062 0.220074
-0.123209 0.0370969 0.247892
-0.216826 0.0370782 0.19288
-0.318358 0.0370596 0.133923
-0.266799 0.0370503 0.150335
-0.271517 0.0370316 0.139805
-0.0374893 0.037013 0.248659
-0.318751 0.0370036 0.0986835
-0.163312 0.036985 0.168263
-0.0623705 0.0369663 0.210605
-0.435 0.0369476 0.0161741
-0.0955014 0.0369383 0.17661
0.0829975 0.0369196 0.257763
-0.378739 0.0369009 0.0188096
-0.411726 0.0368915 -0.00697496
-0.0539089 0.0368728 0.163869
-0.57309 0.0368541 -0.103775
-0.214045 0.0368447 0.0664792
-0.143577 0.036826 0.0936804
-0.326575 0.0368072 -0.00583992
-0.183617 0.0367979 0.0563931
-0.169281 0.0367791 0.0555602
-0.301979 0.0367603 -0.0187783
-0.465398 0.036751 -0.109711
-0.31311 0.0367322 -0.0415359
-0.16382 0.0541081 2.02899
-0.14363 0.054085 2.02876
-0.284959 0.054062 1.94779
0.0434103 0.05402 2.1027
-0.151703 0.0539969 1.99485
-0.189721 0.0539738 1.96557
-0.345729 0.0539507 1.8773
-0.0297129 0.0539091 2.02607
-0.10491 0.053886 1.97823
-0.293598 0.0538629 1.87366
-0.121794 0.0538397 1.94934
-0.340344 0.0537985 1.83086
0.0891677 0.0537754 2.03543
-0.232673 0.0537522 1.86432
-0.209784 0.0537114 1.86659
-0.0962167 0.0536882 1.91321
-0.342377 0.053665 1.77998
-0.0680071 0.0536418 1.90703
-0.200212 0.0536014 1.83178
-0.184092 0.0535781 1.82973
-0.148096 0.0535549 1.83762
-0.131044 0.0535317 1.83606
0.0264571 0.0534917 1.9057
-0.0707233 0.0534684 1.84704
-0.191576 0.0534451 1.77655
-0.389982 0.0534218 1.6673
-0.334779 0.0533985 1.68487
-0.0528127 0.053359 1.81679
-0.419954 0.0533357 1.62321
-0.158833 0.0533123 1.74377
-0.523386 0.053289 1.5515
0.00618736 0.0532499 1.80725
-0.054502 0.0532265 1.76694
-0.452809 0.0532031 1.55783
-0.403209 0.0531798 1.57269
-0.226306 0.0531564 1.6512
-0.217227 0.0531177 1.64675
-0.274703 0.0530943 1.6081
-0.088894 0.0530709 1.69111
-0.519345 0.0530474 1.466
-0.402468 0.053024 1.51456
-0.00829561 0.0529858 1.70269
-0.283392 0.0529623 1.55529
-0.140539 0.0529506 1.61614
-0.111836 0.0529271 1.62066
-0.256027 0.0529036 1.53874
-0.280178 0.0528658 1.51775
-0.158696 0.0528423 1.56869
-0.277224 0.0528188 1.49964
-0.409882 0.0527953 1.42353
-0.0921772 0.0527718 1.57261
-0.395993 0.0527345 1.41183
-0.0549775 0.0527109 1.5726
-0.306839 0.0526873 1.43693
-0.5655 0.0526638 1.29788
-0.315861 0.0526402 1.41299
-0.239877 0.0526166 1.44128
-0.104916 0.0525916 1.49916
-0.248701 0.0525679 1.41759
-0.125958 0.0525443 1.46929
-0.0762617 0.0525207 1.48448
-0.289232 0.0524971 1.36835
-0.0165414 0.0524734 1.49506
0.0486025 0.052437 1.51886
-0.00082611 0.0524134 1.48453
-0.094075 0.0523897 1.4283
-0.00486209 0.052366 1.46332
-0.0553118 0.0523423 1.42852
-0.267298 0.0523305 1.31215
-0.0909931 0.0523067 1.39074
-0.103669 0.0522709 1.37568
-0.199213 0.0522471 1.31837
-0.247381 0.0522234 1.28476
-0.34724 0.0521996 1.22532
-0.0380376 0.0521759 1.37042
-0.499875 0.0521521 1.13
-0.277993 0.0521283 1.23146
-0.338364 0.0521045 1.19181
0.0723021 0.052081 1.38766
-0.0812994 0.0520572 1.30141
-0.463988 0.0520334 1.10062
-0.22246 0.0520095 1.21196
-0.185827 0.0519857 1.22086
-0.145615 0.0519619 1.23156
-0.320398 0.051927 1.13556
-0.252837 0.0519031 1.15995
-0.554183 0.0518911 0.999052
-0.157206 0.0518673 1.18818
-0.389065 0.0518434 1.06289
-0.364348 0.0518195 1.06591
-0.165729 0.0517955 1.15589
0.102975 0.0517716 1.28092
-0.232181 0.0517372 1.1048
-0.182749 0.0517252 1.11934
-0.33784 0.0517013 1.03251
-0.114025 0.0516773 1.13514
-0.20244 0.0516534 1.08167
-0.334218 0.0516294 1.00652
-0.148754 0.0516054 1.09001
-0.248486 0.0515814 1.03091
-0.233917 0.0515694 1.02808
0.0673079 0.0515355 1.17022
-0.323606 0.0515114 0.96556
-0.567937 0.0514874 0.834205
-0.139135 0.0514634 1.03943
-0.00250197 0.0514393 1.09858
-0.149196 0.0514273 1.01516
-0.382519 0.0514032 0.889348
-0.10502 0.0513791 1.01896
-0.235756 0.051355 0.944466
0.0196491 0.0513309 1.06305
-0.0667332 0.0512975 1.01147
-0.308059 0.0512854 0.880788
-0.10638 0.0512613 0.972545
-0.275113 0.0512372 0.879106
-0.201856 0.051213 0.906674
-0.386388 0.0511889 0.805358
-0.285232 0.0511647 0.846898
-0.357313 0.0511526 0.80088
-0.35476 0.0511284 0.793137
-0.125312 0.0511042 0.898853
-0.0460761 0.05108 0.929474
-0.0572726 0.0510471 0.91558
-0.391859 0.051035 0.73835
-0.168911 0.0510108 0.840858
-0.19786 0.0509866 0.81743
-0.299678 0.0509623 0.757579
-0.14208 0.050938 0.827447
-0.198763 0.0509224 0.789487
-0.0208216 0.0509016 0.869264
-0.0383651 0.0508774 0.851592
-0.30767 0.0508531 0.70805
-0.389981 0.0508288 0.658017
-0.341122 0.0508131 0.672875
-0.0458384 0.0507842 0.81203
-0.29909 0.0507599 0.676558
-0.315616 0.0507355 0.65946
-0.145847 0.0507112 0.735521
-0.272598 0.050699 0.662324
-0.220071 0.0506746 0.679783
-0.336109 0.0506503 0.612972
-0.322406 0.0506259 0.611042
-0.0887686 0.0506015 0.71909
-0.100159 0.0505893 0.703612
-0.145927 0.0505649 0.671977
-0.253249 0.0505405 0.609577
-0.284938 0.050516 0.585005
-0.123966 0.0505038 0.655738
-0.158088 0.0504793 0.629968
-0.12505 0.0504475 0.638424
-0.190256 0.050423 0.597136
-0.195917 0.0503985 0.585632
-0.217968 0.0503863 0.564894
-0.101437 0.0503618 0.614506
-0.396333 0.0503373 0.458416
-0.195008 0.0503128 0.550447
-0.135875 0.0503005 0.570331
-0.0553953 0.050276 0.60196
-0.376772 0.0502515 0.432671
-0.149421 0.0502269 0.537758
-0.118389 0.0502146 0.543622
-0.417339 0.0501901 0.385579
-0.197465 0.0501655 0.486958
-0.299571 0.0501409 0.42736
-0.320042 0.0501286 0.407502
-0.205353 0.050104 0.45632
-0.163964 0.0500794 0.4685
-0.376399 0.0500548 0.35378
-0.564175 0.0500425 0.2503
-0.143464 0.0500111 0.452778
0.15109 0.0499864 0.591584
-0.388132 0.0499618 0.313513
-0.100021 0.0499494 0.448009
-0.475253 0.0499248 0.251953
-0.223855 0.0499001 0.369224
-0.178599 0.0498754 0.383435
0.0639151 0.0498631 0.495163
0.181362 0.0498384 0.54549
-0.1469 0.0498137 0.372974
-0.255247 0.0497956 0.309811
-0.00866033 0.0497766 0.424221
-0.424022 0.0497518 0.208186
-0.519447 0.0497271 0.152131
-0.209615 0.0497147 0.297571
-0.167448 0.0496899 0.310332
-0.15264 0.0496652 0.309425
0.062147 0.0496404 0.408519
-0.260803 0.049628 0.237599
-0.0452611 0.0496032 0.33709
-0.424637 0.0495784 0.139134
-0.203669 0.049566 0.240195
-0.184558 0.0495411 0.241503
-0.337687 0.0495163 0.156702
-0.306943 0.0494915 0.163849
-0.192686 0.049479 0.211585
-0.329226 0.0494542 0.135111
-0.367707 0.0494293 0.107677
-0.210966 0.0494169 0.176678
-0.381594 0.049392 0.0831912
-0.241209 0.0493671 0.145222
-0.148886 0.0493546 0.182037
-0.0582306 0.0493297 0.219223
-0.170511 0.0493048 0.154953
-0.204462 0.0492738 0.130441
-0.219021 0.0492614 0.113847
-0.126385 0.0492364 0.152067
-0.128698 0.0492115 0.142824
-0.277462 0.049199 0.0591501
-0.302814 0.049174 0.0384083
-0.107688 0.0491491 0.127918
-0.247487 0.0491366 0.0487482
-0.326571 0.0491116 0.00117249
0.151174 0.0490866 0.232023
-0.185622 0.0490741 0.0543772
-0.245889 0.049049 0.0162417
-0.342126 0.049024 -0.0398669
-0.419255 0.0490115 -0.0876561
-0.290823 0.0489865 -0.03141
-0.248568 0.0677345 1.98237
-0.131519 0.0677057 2.03056
-0.366921 0.0676768 1.90253
-0.414991 0.0676224 1.86928
-0.277845 0.0675936 1.92755
-0.234147 0.0675647 1.93911
-0.0411041 0.0675358 2.02535
-0.271592 0.0674818 1.90094
-0.110526 0.0674529 1.97122
-0.413546 0.067424 1.80946
0.000695164 0.0673705 2.00744
-0.489283 0.0673415 1.75223
-0.236735 0.0673125 1.8683
-0.20974 0.0672595 1.87268
-0.25774 0.0672305 1.83849
-0.141765 0.0672015 1.88631
-0.413162 0.0671724 1.74044
-0.357738 0.0671198 1.75908
-0.216952 0.0670908 1.81933
-0.199392 0.0670617 1.81799
0.0480391 0.0670327 1.93158
-0.371662 0.0669805 1.71269
-0.0857021 0.0669515 1.84558
-0.146321 0.0669223 1.80519
-0.108592 0.0668707 1.81504
-0.0852695 0.0668416 1.81664
-0.344077 0.0668124 1.67719
-0.000327541 0.0667833 1.83903
-0.0574179 0.0667322 1.8015
0.00561894 0.066703 1.82301
-0.547569 0.0666738 1.53641
-0.197225 0.0666446 1.7016
-0.142652 0.0666154 1.7189
-0.29822 0.0665647 1.63219
-0.286071 0.0665355 1.62831
-0.171399 0.0665062 1.6757
-0.32605 0.066477 1.58844
-0.0599594 0.0664269 1.71258
-0.364974 0.0663976 1.55017
-0.173407 0.0663683 1.63605
-0.187115 0.066339 1.61931
-0.228438 0.0663096 1.58877
-0.387335 0.0662601 1.50047
-0.248732 0.0662454 1.55918
-0.22991 0.066216 1.55875
-0.209571 0.0661866 1.55909
-0.17193 0.0661572 1.56808
-0.272735 0.0661082 1.50886
-0.171113 0.0660788 1.54988
-0.240581 0.0660494 1.50536
-0.269232 0.06602 1.48125
-0.0910508 0.0659905 1.56058
-0.409731 0.065942 1.39246
-0.211009 0.0659126 1.48208
-0.299725 0.0658831 1.428
-0.283897 0.0658536 1.42619
-0.281418 0.0658241 1.41772
-0.316735 0.0657762 1.39133
-0.126246 0.0657614 1.47611
-0.196188 0.0657319 1.43146
-0.195384 0.0657023 1.4222
-0.389 0.0656727 1.31574
-0.00596878 0.0656431 1.49761
-0.09194 0.0656135 1.44499
-0.199181 0.0655662 1.3827
-0.0664472 0.0655366 1.43946
-0.345853 0.0655069 1.29016
-0.0764846 0.0654773 1.41525
-0.299606 0.0654476 1.29412
-0.226499 0.0654328 1.3203
-0.361496 0.0653861 1.24417
-0.291696 0.0653564 1.26953
0.00761898 0.0653267 1.40965
-0.307895 0.0652969 1.24238
-0.266226 0.0652672 1.2537
-0.213619 0.0652375 1.2705
-0.110091 0.0651913 1.31369
-0.0501116 0.0651615 1.3342
-0.00388737 0.0651467 1.34702
-0.224153 0.0651169 1.22743
-0.260371 0.0650871 1.19987
-0.218524 0.0650573 1.21136
-0.423752 0.0650274 1.09932
-0.268611 0.0649819 1.16838
0.1127 0.064952 1.34963
-0.244718 0.0649222 1.16153
-0.0632545 0.0649072 1.24203
-0.0861877 0.0648773 1.22119
-0.185048 0.0648475 1.1624
-0.24677 0.0648175 1.1222
-0.25447 0.0647876 1.10901
-0.311502 0.0647427 1.07204
-0.422831 0.0647127 1.00707
0.0653546 0.0646977 1.24098
-0.226827 0.0646678 1.0856
-0.33054 0.0646378 1.02446
-0.291607 0.0646078 1.03465
-0.276157 0.0645778 1.03312
-0.243992 0.0645478 1.03995
-0.462554 0.0645034 0.922285
-0.173801 0.0644884 1.05654
-0.0855665 0.0644584 1.09144
0.0190976 0.0644283 1.13456
-0.407113 0.0643983 0.912264
-0.0753741 0.0643682 1.06895
-0.198655 0.0643381 0.998136
-0.11138 0.0643222 1.03174
-0.349749 0.0642929 0.903359
-0.270621 0.0642628 0.93378
-0.235803 0.064219 0.942893
-0.262079 0.0641889 0.920637
-0.222433 0.0641587 0.931353
-0.160055 0.0641436 0.952512
-0.301936 0.0641134 0.872484
-0.306052 0.0640833 0.86135
-0.266609 0.064053 0.872006
-0.205467 0.0640228 0.893522
-0.247475 0.0639926 0.863475
-0.221078 0.0639775 0.86669
-0.332781 0.0639343 0.802627
-0.0996201 0.0639041 0.910197
-0.322453 0.0638738 0.789781
-0.257842 0.0638435 0.813098
-0.0676684 0.063826 0.898388
0.127569 0.063798 0.986891
-0.311547 0.0637677 0.758375
-0.260893 0.0637374 0.774755
-0.0660692 0.063707 0.863232
-0.221763 0.0636767 0.77646
-0.21099 0.0636615 0.77195
-0.238866 0.063619 0.749896
-0.425905 0.0635886 0.647484
-0.123265 0.0635582 0.789923
-0.271952 0.0635278 0.70671
-0.203303 0.0635126 0.731178
-0.181668 0.0634821 0.733146
-0.285399 0.0634517 0.672442
-0.480442 0.0634212 0.566093
-0.369589 0.063406 0.611693
-0.00119916 0.0633755 0.78708
-0.111121 0.063345 0.723322
-0.480042 0.0633145 0.530076
-0.370012 0.063284 0.576318
-0.180294 0.0632687 0.661389
-0.185163 0.0632268 0.650965
-0.314278 0.0631963 0.577666
-0.291383 0.0631657 0.580383
-0.302025 0.0631351 0.566343
-0.139598 0.0631198 0.637809
-0.121259 0.0630892 0.638279
-0.253906 0.0630586 0.563267
-0.2867 0.063028 0.538194
-0.357921 0.0630127 0.492866
-0.158905 0.0629821 0.583717
-0.364959 0.0629514 0.472044
-0.275888 0.0629208 0.507945
0.0456053 0.0629054 0.659005
-0.117548 0.0628747 0.568814
-0.277905 0.062844 0.480032
-0.349994 0.0628133 0.435396
-0.0722319 0.062798 0.564621
-0.24445 0.0627567 0.470682
-0.128226 0.0627259 0.520234
-0.359681 0.0626952 0.395959
-0.347224 0.0626798 0.392563
-0.270029 0.0626491 0.422632
-0.401522 0.0626183 0.348369
-0.069277 0.0625875 0.505987
-0.313422 0.0625721 0.37432
0.00523807 0.0625413 0.525165
-0.0666336 0.0625104 0.480755
-0.179811 0.0624796 0.415704
-0.325046 0.0624642 0.333523
-0.121995 0.0624333 0.426606
-0.42488 0.0624025 0.266732
-0.214581 0.0623716 0.363462
-0.261925 0.0623561 0.330257
-0.244 0.0623252 0.33082
-0.243796 0.0622943 0.322533
-0.324632 0.0622634 0.273739
-0.468858 0.0622479 0.192124
0.16871 0.062217 0.502551
-0.292548 0.062186 0.263577
-0.259976 0.0621705 0.270383
-0.0947629 0.0621298 0.345385
-0.300556 0.0620988 0.234176
-0.142569 0.0620678 0.304868
-0.19175 0.0620523 0.27083
-0.149453 0.0620213 0.283697
-0.179243 0.0619903 0.260533
-0.320829 0.0619748 0.180314
-0.24324 0.0619437 0.21086
-0.220363 0.0619126 0.21406
-0.131384 0.0618816 0.250323
-0.225013 0.061866 0.194114
-0.316938 0.0618349 0.139945
-0.160701 0.0618038 0.209869
-0.219256 0.0617883 0.17122
-0.406729 0.0617571 0.0693082
-0.507227 0.061726 0.0108961
-0.226922 0.0617104 0.141699
-0.0272263 0.0616793 0.233404
-0.115021 0.0616481 0.181375
-0.299684 0.0616169 0.080924
-0.361061 0.0616013 0.0409173
-0.116165 0.0615701 0.155266
-0.456845 0.0615389 -0.0231623
-0.337344 0.0615233 0.0272926
-0.287906 0.0614921 0.0439434
-0.399938 0.0614608 -0.0201288
-0.293434 0.0614452 0.0238501
-0.175594 0.0614139 0.0747343
-0.0825194 0.0613826 0.113247
-0.284886 0.061367 0.00281374
-0.254877 0.0613357 0.00981406
-0.335574 0.0613044 -0.0385268
-0.0224197 0.0612887 0.108822
-0.215739 0.0612574 0.0041909
-0.0623331 0.081442 2.06977
-0.317645 0.0814074 1.93176
-0.137388 0.0813397 2.01272
-0.399582 0.081305 1.87129
-0.0357615 0.0812703 2.04288
-0.367034 0.081203 1.86812
0.0192409 0.0811683 2.05096
-0.301941 0.0811336 1.88008
-0.28275 0.0810668 1.88058
-0.13503 0.081032 1.94418
-0.196257 0.0809972 1.90331
-0.120667 0.0809309 1.93204
-0.303573 0.0808961 1.83036
-0.359385 0.0808612 1.79224
0.0889525 0.0807954 2.00737
-0.15388 0.0807605 1.87577
-0.288653 0.0807257 1.7982
-0.475306 0.0806603 1.69587
-0.1991 0.0806254 1.82382
-0.0723928 0.0805905 1.87703
-0.0252232 0.0805256 1.89163
-0.111218 0.0804907 1.83851
-0.0735076 0.0804557 1.84726
-0.104415 0.0804208 1.82171
-0.348014 0.0803564 1.69097
-0.233121 0.0803214 1.73835
0.0487864 0.0802864 1.86924
-0.280761 0.0802226 1.69555
-0.400467 0.0801876 1.62566
-0.251649 0.0801526 1.69005
-0.192052 0.0801175 1.70983
0.00757086 0.0800543 1.80076
-0.204778 0.0800192 1.6846
-0.107798 0.0799841 1.72311
-0.168532 0.0799489 1.68278
-0.455303 0.0798863 1.53055
-0.310513 0.0798511 1.593
-0.340034 0.0798159 1.56831
0.0862645 0.0797808 1.77154
-0.216469 0.0797187 1.61136
-0.355379 0.0796835 1.53201
-0.0997039 0.0796659 1.64923
-0.201314 0.0796306 1.58855
-0.193888 0.0795954 1.58239
-0.0540642 0.0795339 1.64355
-0.0956161 0.0794986 1.61293
0.00932609 0.0794633 1.65557
-0.144499 0.079428 1.56883
-0.108738 0.0793927 1.5769
-0.0179137 0.0793318 1.6136
-0.350875 0.0792965 1.43734
-0.182246 0.0792611 1.51188
-0.0637663 0.0792257 1.56135
-0.244257 0.0791655 1.46242
-0.453233 0.0791301 1.3482
-0.239332 0.0790946 1.44542
-0.360363 0.0790592 1.37519
-0.263281 0.0790414 1.41325
-0.404732 0.079006 1.33282
-0.144132 0.0789464 1.45449
-0.179969 0.0789109 1.4269
-0.28091 0.0788754 1.36677
-0.392687 0.0788398 1.30123
-0.139314 0.0788043 1.41827
-0.355328 0.0787453 1.30168
-0.0223215 0.0787098 1.45857
-0.438433 0.0786742 1.2409
-0.0774783 0.0786386 1.41179
-0.278781 0.0786208 1.30074
-0.0116653 0.0785851 1.42473
-0.189576 0.0785495 1.3262
-0.264843 0.0784912 1.28005
-0.490385 0.0784555 1.15774
-0.056348 0.0784198 1.36523
-0.225112 0.0783841 1.27133
-0.36867 0.0783484 1.19004
-0.189622 0.0783127 1.27007
-0.30676 0.0782551 1.20303
-0.10033 0.0782372 1.29594
-0.358716 0.0782014 1.15728
-0.26515 0.0781656 1.19461
0.104404 0.0781298 1.36995
-0.285629 0.078094 1.1655
-0.0589148 0.0780371 1.27043
0.0538365 0.0780012 1.3174
-0.0758992 0.0779654 1.24314
-0.277905 0.0779474 1.13189
-0.0878761 0.0779116 1.21753
-0.0214148 0.0778757 1.2414
-0.345928 0.0778397 1.06978
-0.19111 0.0778038 1.13785
-0.0811788 0.0777476 1.18447
-0.353396 0.0777116 1.03904
-0.288443 0.0776936 1.06133
-0.328192 0.0776576 1.03215
-0.124749 0.0776216 1.12459
-0.154809 0.0775856 1.10028
-0.134463 0.0775496 1.10119
-0.066477 0.0774941 1.12689
-0.079668 0.077458 1.11105
-0.0392402 0.07744 1.12113
-0.147288 0.0774039 1.05789
-0.113248 0.0773678 1.06569
-0.286687 0.0773317 0.969774
-0.0995776 0.0772956 1.05414
-0.254602 0.0772594 0.967448
-0.267161 0.0772233 0.952
-0.0930377 0.0771865 1.02993
-0.224538 0.0771503 0.955037
-0.184094 0.0771142 0.966124
-0.15315 0.0770779 0.972472
-0.393496 0.0770417 0.843186
-0.270404 0.0770055 0.895631
-0.284919 0.0769874 0.878345
-0.188674 0.0769511 0.917385
-0.152295 0.0769148 0.926504
-0.152419 0.0768785 0.917382
-0.339713 0.0768244 0.815616
-0.337731 0.0768062 0.80662
0.139578 0.0767699 1.03625
