ply
format ascii 1.0
comment Created by Open3D
element vertex 1816
property double x
property double y
property double z
end_header
-0.734174 0.867263 1.19676
-0.895651 0.865954 1.11049
-0.730447 0.864466 1.1883
-0.387928 0.863628 1.35221
-0.683745 0.862399 1.19854
-0.623885 0.861402 1.2218
-0.559791 0.860627 1.24631
-0.783247 0.859503 1.12848
-0.633541 0.858784 1.19561
-0.616523 0.857894 1.19711
-0.594328 0.857228 1.20031
-0.773635 0.856589 1.10266
-0.691016 0.855979 1.13587
-0.606734 0.855686 1.16862
-0.800958 0.855123 1.06324
-0.718261 0.854592 1.09621
-0.446526 0.854094 1.22356
-0.702417 0.853813 1.08622
-0.641784 0.853594 1.10688
-0.567066 0.853182 1.1354
-0.652857 0.852807 1.08352
-0.615037 0.85247 1.09329
-0.484434 0.852315 1.14869
-0.777161 0.852209 0.992229
-0.528219 0.851966 1.10718
-0.567661 0.851763 1.07778
-0.791153 0.851767 0.955469
-0.607165 0.8517 1.03721
-0.5106 0.851643 1.07519
-0.577072 0.851695 1.03118
-0.588978 0.851678 1.01476
-0.453496 0.851835 1.07127
-0.530924 0.852028 1.02117
-0.560274 0.852104 0.995616
-0.502831 0.852374 1.0126
-0.626384 0.852681 0.938921
-0.630661 0.853026 0.924707
-0.575133 0.853259 0.940877
-0.605934 0.853825 0.912406
-0.506282 0.854447 0.948894
-0.392674 0.854955 0.992855
-0.574368 0.855712 0.888039
-0.606857 0.856547 0.857456
-0.623808 0.857592 0.833677
-0.709252 0.858968 0.774138
-0.60684 0.860461 0.80796
-0.366444 0.862907 0.906422
-0.448728 0.885937 1.34808
-0.74583 0.883448 1.19838
-0.504476 0.880967 1.31793
-0.536354 0.87941 1.29732
-0.41167 0.877875 1.35495
-0.816196 0.876577 1.14707
-0.557524 0.875103 1.27152
-0.598799 0.87428 1.24345
-0.686229 0.873476 1.19225
-0.532317 0.872104 1.26401
-0.483574 0.871355 1.28073
-0.66306 0.870629 1.18326
-0.720466 0.869929 1.14674
-0.552221 0.869256 1.22295
-0.654592 0.868611 1.16376
-0.511882 0.867996 1.22701
-0.827631 0.867412 1.06092
-0.697698 0.867132 1.11644
-0.98623 0.866597 0.963777
-0.647721 0.866095 1.12451
-0.64986 0.865629 1.11479
-0.647221 0.865198 1.10732
-0.776931 0.864996 1.03274
-0.58296 0.864621 1.12073
-0.231019 0.864448 1.28687
-0.816902 0.864165 0.984558
-0.613584 0.864029 1.07624
-0.755447 0.863788 0.995774
-0.658644 0.863682 1.03408
-0.671045 0.863599 1.01769
-0.605381 0.863477 1.0405
-0.573746 0.863602 1.04525
-0.665887 0.86354 0.988897
-0.742187 0.863686 0.939586
-0.730976 0.863691 0.93463
-0.597866 0.863894 0.98977
-0.466089 0.863975 1.04477
-0.507362 0.864256 1.01237
-0.491935 0.864574 1.00816
-0.472522 0.864775 1.00644
-0.553793 0.865323 0.952866
-0.489491 0.865906 0.971907
-0.58291 0.866243 0.913154
-0.231618 0.867112 1.07441
-0.515588 0.867829 0.91868
-0.475498 0.868821 0.923752
-0.628541 0.869884 0.831917
-0.458192 0.871184 0.900702
-0.607576 0.87308 0.806933
-0.375703 0.876168 0.898419
-0.546201 0.902224 1.29635
-0.615269 0.897696 1.26823
-0.325128 0.894952 1.413
-0.463178 0.8929 1.34108
-0.526326 0.890874 1.30657
-0.552657 0.889543 1.28782
-0.537633 0.888672 1.28801
-0.597161 0.887178 1.25335
-0.622674 0.886347 1.23316
-0.704559 0.884924 1.18712
-0.756071 0.884145 1.15377
-0.725431 0.883388 1.16143
-0.642542 0.882655 1.19514
-0.551826 0.881742 1.23349
-1.06527 0.881065 0.968852
-0.632018 0.880416 1.17746
-0.731653 0.879797 1.11952
-0.645489 0.87921 1.15437
-0.539373 0.878655 1.19907
-0.536869 0.878391 1.19082
-0.555029 0.877887 1.17321
-0.732673 0.877419 1.07572
-0.748284 0.876988 1.05911
-0.694315 0.876783 1.07638
-0.672775 0.876599 1.07735
-0.557534 0.87626 1.12581
-0.596737 0.87596 1.0969
-0.677795 0.875701 1.0469
-0.492849 0.875586 1.12932
-0.597195 0.875567 1.06669
-0.497931 0.875407 1.10645
-0.648649 0.875343 1.02082
-0.633293 0.875386 1.01779
-0.721616 0.875362 0.963192
-0.658597 0.875518 0.983516
-0.684115 0.875525 0.960192
-0.713533 0.875738 0.934044
-0.471613 0.875824 1.0441
-0.572498 0.876116 0.981878
-0.645336 0.876445 0.933509
-0.469685 0.876931 1.00871
-0.742278 0.877355 0.860037
-0.869687 0.877662 0.784456
-0.585092 0.878466 0.912717
-0.434791 0.879053 0.974757
-0.708828 0.879872 0.823601
-0.453564 0.880771 0.936734
-0.595143 0.882031 0.849841
-0.56635 0.883529 0.847061
-0.585843 0.885633 0.817443
-0.683447 0.889221 0.742186
-0.473212 0.913351 1.33877
-0.555992 0.9092 1.30216
-0.661551 0.906643 1.24824
-0.721804 0.905029 1.21346
-0.513522 0.902976 1.31466
-0.778575 0.901631 1.17654
-0.669317 0.900094 1.22634
-0.682717 0.899237 1.21225
-0.614019 0.897766 1.24158
-0.552177 0.896956 1.26497
-0.750463 0.896169 1.15824
-0.735265 0.89519 1.159
-0.683562 0.894452 1.1771
-0.949825 0.89374 1.03613
-0.583308 0.893056 1.21147
-0.705689 0.892402 1.14225
-0.778184 0.891778 1.09787
-0.723355 0.891186 1.11704
-0.339099 0.890627 1.30081
-0.681924 0.890103 1.12091
-0.598843 0.889854 1.15289
-0.602312 0.889383 1.14248
-0.715024 0.888949 1.07731
-0.7969 0.888552 1.02742
-0.369422 0.888369 1.23135
-0.673989 0.88803 1.0699
-0.684724 0.887732 1.05521
-0.604304 0.887598 1.08543
-0.778041 0.887443 0.98866
-0.571054 0.887349 1.08201
-0.839656 0.887192 0.937823
-0.727981 0.887258 0.982862
-0.527207 0.887183 1.07303
-0.592407 0.887162 1.02999
-0.636278 0.887326 0.996845
-0.635532 0.88753 0.985843
-0.489812 0.8876 1.04788
-0.847567 0.887882 0.857286
-0.55258 0.888036 0.9936
-0.595057 0.888397 0.960303
-0.810728 0.888796 0.840241
-0.479194 0.889232 0.993613
-0.345008 0.889706 1.04814
-0.772475 0.890407 0.820866
-0.340475 0.891191 1.02295
-0.605417 0.891963 0.876601
-0.34692 0.893027 0.990694
-0.657528 0.894166 0.819889
-0.543088 0.895873 0.859127
-0.366415 0.898193 0.926782
-0.477435 0.924416 1.34265
-0.547503 0.921367 1.30811
-0.776192 0.918545 1.19348
-0.576202 0.916675 1.28971
-0.574205 0.915061 1.28603
-0.589327 0.913474 1.27372
-0.723061 0.912145 1.20117
-0.745731 0.911053 1.18329
-0.725639 0.909789 1.18746
-0.667403 0.908972 1.20904
-0.641329 0.907955 1.21532
-0.636343 0.907185 1.21014
-0.557038 0.90644 1.24203
-0.485053 0.905722 1.27018
-0.470366 0.904817 1.27042
-0.87565 0.904159 1.05974
-0.746742 0.903531 1.11605
-0.504374 0.902937 1.22898
-0.569087 0.902376 1.18825
-0.656122 0.901849 1.13623
-0.679922 0.9016 1.11476
-0.535322 0.901128 1.17837
-0.64192 0.900693 1.11624
-0.846613 0.900297 1.00493
-0.78539 0.899939 1.02642
-0.60532 0.899776 1.10658
-0.499299 0.899674 1.14947
-0.643248 0.899416 1.068
-0.645726 0.899199 1.05711
-0.547797 0.899106 1.09593
-0.674035 0.899024 1.02262
-0.527284 0.899027 1.08546
-0.52045 0.898957 1.07864
-0.615913 0.899111 1.01976
-0.693059 0.899112 0.970659
-0.727083 0.899326 0.942248
-0.492243 0.899401 1.04883
-0.664773 0.899695 0.950827
-0.495384 0.899855 1.02433
-0.710967 0.900227 0.904459
-0.19318 0.900639 1.1511
-0.58875 0.900921 0.941601
-0.655613 0.901749 0.894154
-0.767994 0.90213 0.825811
-0.625603 0.903095 0.882385
-0.337662 0.903978 1.01205
-0.537967 0.904941 0.897245
-0.515584 0.906435 0.891499
-0.645636 0.908065 0.808918
-0.617717 0.910709 0.800959
-0.597714 0.936605 1.28424
-0.500687 0.9328 1.33587
-0.655738 0.930655 1.25545
-0.572731 0.928528 1.29404
-0.66078 0.927129 1.24446
-0.495569 0.925521 1.32232
-0.63216 0.923946 1.2492
-0.595179 0.923072 1.26028
-0.583626 0.921566 1.26104
-0.573644 0.920742 1.25848
-0.643273 0.919941 1.21605
-0.75401 0.919164 1.153
-0.483092 0.918188 1.28154
-0.654207 0.917465 1.18813
-0.564605 0.916771 1.22498
-0.740137 0.916108 1.12916
-0.697545 0.915476 1.14231
-0.616985 0.914877 1.17432
-0.748596 0.914097 1.10096
-1.07193 0.913569 0.930781
-0.941598 0.913078 0.987304
-0.781868 0.912846 1.05753
-0.774018 0.912411 1.05261
-0.649897 0.912209 1.10493
-0.673369 0.911863 1.08402
-0.571243 0.911699 1.1252
-0.837321 0.911401 0.982815
-0.73852 0.911145 1.02271
-0.786575 0.910931 0.989012
-0.626932 0.91084 1.05868
-0.545314 0.910883 1.0888
-0.719672 0.910773 0.991546
-0.704154 0.910734 0.988946
-0.76771 0.910871 0.946104
-0.681254 0.910874 0.978801
-0.851666 0.911098 0.882171
-0.649808 0.91118 0.97225
-0.83757 0.911485 0.866608
-0.819277 0.911651 0.864552
-0.802981 0.912036 0.860598
-0.576513 0.912459 0.961562
-0.437922 0.913081 1.01776
-0.717469 0.913431 0.866
-0.339372 0.914156 1.0415
-0.593645 0.914977 0.900397
-0.637766 0.915879 0.864012
-0.489411 0.91702 0.922846
-0.544359 0.918392 0.879038
-0.328222 0.9204 0.968063
-0.558024 0.923431 0.829765
-0.632529 0.948298 1.2703
-0.404508 0.94492 1.38571
-0.588565 0.942268 1.29253
-0.4461 0.940593 1.35911
-0.626788 0.938939 1.26408
-0.690622 0.937552 1.22654
-0.56213 0.935957 1.28596
-0.552687 0.934403 1.28573
-0.754378 0.933551 1.17739
-0.689149 0.932719 1.20245
-0.570901 0.931677 1.25482
-0.634132 0.930513 1.21693
-0.610742 0.92977 1.2208
-0.839443 0.929056 1.09853
-0.727774 0.928483 1.14594
-0.618789 0.927816 1.19237
-0.538846 0.927181 1.22418
-0.647045 0.926579 1.1618
-0.72056 0.926012 1.11664
-0.755503 0.925481 1.09065
-0.636018 0.924987 1.14174
-0.614717 0.924754 1.14275
-0.691974 0.924317 1.09527
-0.442994 0.92392 1.21076
-0.674559 0.923563 1.08584
-0.84344 0.923399 0.991514
-0.79609 0.923103 1.00582
-0.597305 0.92285 1.09569
-0.760508 0.922739 1.00401
-0.752322 0.922669 0.997867
-0.69671 0.9226 1.01544
-0.737958 0.922495 0.98472
-0.907699 0.922458 0.889486
-0.647241 0.922607 1.00862
-0.765271 0.922613 0.939066
-0.63941 0.922848 0.990548
-0.770744 0.922936 0.914018
-0.366922 0.923252 1.10414
-0.533076 0.923425 1.00985
-0.692794 0.923822 0.91787
-0.656241 0.924258 0.923855
-0.522288 0.924896 0.977708
-0.556383 0.925255 0.948664
-0.500932 0.926212 0.961935
-0.520859 0.926668 0.939552
-0.631045 0.927759 0.869416
-0.529821 0.929056 0.904111
-0.590679 0.930643 0.856537
-0.391696 0.932524 0.937629
-0.560449 0.936013 0.828123
-0.728695 0.95971 1.2266
-0.734581 0.956284 1.22508
-0.709778 0.954088 1.23458
-0.629356 0.952641 1.26925
-0.535366 0.950496 1.31325
-0.759851 0.949319 1.19457
-0.721867 0.947951 1.20785
-0.840972 0.946379 1.14335
-0.686053 0.945518 1.2133
-0.617424 0.944438 1.24093
-0.550239 0.943624 1.26689
-0.824798 0.942449 1.12332
-0.843429 0.941465 1.10704
-0.804446 0.940747 1.11861
-0.554384 0.940059 1.23562
-0.861693 0.939727 1.07263
-0.631948 0.939088 1.17932
-0.861446 0.938255 1.05714
-0.876517 0.937686 1.04119
-0.55297 0.937154 1.19443
-0.598291 0.936659 1.1631
-0.510721 0.936426 1.19724
-0.921921 0.93599 0.982771
-0.509653 0.935593 1.1799
-0.379444 0.935237 1.23584
-0.716701 0.935074 1.05733
-0.657758 0.93478 1.07742
-0.684599 0.934738 1.05365
-0.397625 0.934528 1.18744
-0.74087 0.934361 1.00596
-0.921017 0.934293 0.905648
-0.813487 0.934192 0.949306
-0.525563 0.934334 1.08221
-0.671557 0.934319 0.998769
-0.791525 0.934328 0.928246
-0.629188 0.934574 0.997942
-0.733342 0.934668 0.934989
-0.908017 0.934996 0.835843
-0.799869 0.935176 0.878691
-0.609003 0.935585 0.961977
-0.687834 0.936034 0.910249
-0.469452 0.93669 1.00629
-0.681235 0.937056 0.88839
-0.743673 0.93786 0.843394
-0.830452 0.938923 0.78516
-0.753207 0.939892 0.809298
-0.622764 0.940939 0.859691
-0.475393 0.942564 0.91617
-0.534256 0.944683 0.867473
-0.459172 0.948869 0.877221
-0.73295 0.971828 1.22626
-0.631395 0.968356 1.27846
-0.631131 0.966133 1.2757
-0.43973 0.963934 1.36846
-0.783289 0.962247 1.19197
-0.810604 0.960844 1.17264
-0.513214 0.959676 1.31484
-0.537308 0.958336 1.29695
-0.720288 0.95722 1.19884
-0.617091 0.956375 1.24287
-0.688764 0.955553 1.19939
-0.654581 0.954126 1.21106
-0.55793 0.953373 1.25154
-0.757593 0.952649 1.14377
-0.657765 0.951956 1.18565
-0.599029 0.951385 1.20656
-0.710146 0.950743 1.14281
-0.597299 0.950136 1.19093
-0.769386 0.949564 1.09646
-0.781958 0.949029 1.08163
-0.750315 0.948532 1.08877
-0.453522 0.948298 1.22752
-0.61907 0.94786 1.13587
-1.04962 0.947462 0.911573
-0.582528 0.947105 1.13595
-0.930534 0.946942 0.952057
-0.709034 0.946649 1.05341
-0.772033 0.946398 1.01237
-0.690812 0.946191 1.04327
-0.679989 0.946027 1.03881
-1.02305 0.945962 0.857028
-0.850068 0.946072 0.932601
-0.628468 0.946018 1.03312
-0.756412 0.946007 0.958688
-0.897021 0.946221 0.877055
-0.668019 0.946277 0.980842
-0.774156 0.946377 0.916884
-0.656281 0.946717 0.96399
-0.623246 0.946903 0.96927
-0.544088 0.947326 0.996679
-0.639395 0.947788 0.936692
-0.470634 0.948274 1.00863
-0.574197 0.948836 0.944095
-0.509161 0.949658 0.96281
-0.527343 0.950566 0.939555
-0.433582 0.951734 0.971214
-0.57027 0.952801 0.888023
-0.60442 0.954457 0.853709
-0.584667 0.956947 0.842938
-0.454799 0.961749 0.877807
-0.498217 0.983927 1.34543
-0.812759 0.98041 1.18959
-0.736018 0.97816 1.22506
-0.531622 0.975935 1.32432
-0.754357 0.974228 1.20825
-0.611738 0.972553 1.27477
-0.579863 0.971629 1.28332
-0.347533 0.970022 1.39453
-0.374027 0.969147 1.37376
-0.710803 0.968294 1.1978
-0.572835 0.967215 1.26003
-0.762141 0.966023 1.15905
-0.65517 0.965017 1.20557
-0.739627 0.96429 1.15539
-0.681869 0.963938 1.17498
-0.709375 0.963258 1.15313
-0.666874 0.962612 1.16618
-0.745128 0.961762 1.11961
-0.722279 0.961189 1.1226
-0.876171 0.960653 1.03709
-0.808019 0.9604 1.06158
-0.605932 0.959922 1.15387
-0.733337 0.959484 1.08127
-0.664243 0.959088 1.10678
-0.801982 0.958732 1.02873
-0.685994 0.958571 1.07683
-0.543044 0.95828 1.13889
-0.601012 0.958032 1.10034
-0.654173 0.957828 1.06404
-0.670289 0.957742 1.04581
-0.717526 0.957668 1.01199
-0.878568 0.957726 0.920758
-0.473553 0.957676 1.11296
-0.695282 0.957668 0.991641
-0.726086 0.957894 0.964885
-0.549037 0.957955 1.04268
-0.759657 0.958061 0.926469
-0.687743 0.958414 0.95057
-0.560859 0.958608 1.00276
-0.663029 0.959043 0.939486
-0.603202 0.959323 0.957802
-0.703334 0.960017 0.894517
-0.451448 0.960593 1.00769
-0.606357 0.961434 0.916403
-0.731028 0.962361 0.839881
-0.600086 0.963372 0.890817
-0.454152 0.964641 0.948198
-0.51692 0.966503 0.898846
-0.638676 0.968911 0.817781
-0.630488 0.995236 1.28376
-0.61793 0.992446 1.28884
-0.562525 0.990169 1.31364
-0.863197 0.987918 1.16036
-0.522221 0.986191 1.32614
-0.636066 0.984497 1.26443
-0.562311 0.983564 1.29391
-0.614899 0.981938 1.26266
-0.869661 0.981056 1.12775
-0.531933 0.979938 1.28994
-0.643099 0.979104 1.2267
-0.706018 0.978041 1.18841
-0.60706 0.977138 1.23051
-0.559345 0.976516 1.24602
-0.697474 0.975799 1.16895
-0.702453 0.974866 1.15925
-0.696687 0.974218 1.15392
-0.6724 0.973605 1.15773
-0.650757 0.973029 1.1601
-0.679493 0.972491 1.13716
-0.983965 0.971996 0.976207
-0.703637 0.971519 1.1076
-0.779681 0.971082 1.06067
-0.751653 0.970687 1.06563
-0.717466 0.970505 1.0729
-0.652661 0.970173 1.09603
-0.610245 0.969885 1.10781
-0.708644 0.96964 1.04903
-0.650849 0.969534 1.06783
-0.847791 0.969579 0.958712
-0.586208 0.969444 1.07952
-0.561635 0.969354 1.08166
-0.513128 0.96931 1.0956
-0.71507 0.969305 0.984167
-0.854442 0.969542 0.903102
-0.715637 0.969609 0.961763
-0.654212 0.969722 0.981559
-0.435377 0.970087 1.0791
-0.83223 0.970289 0.869409
-0.68013 0.970737 0.933244
-0.45602 0.971026 1.03369
-0.491723 0.971737 1.00259
-0.702134 0.972327 0.884593
-0.507069 0.973187 0.968271
-0.601266 0.974134 0.906962
-0.472079 0.975165 0.956998
-0.549377 0.97646 0.902734
-0.413208 0.978536 0.952109
-0.579463 0.980804 0.849473
-0.564907 1.00729 1.3184
-0.673862 1.00419 1.26365
-0.454289 1.00189 1.37053
-0.688712 0.99961 1.25037
-0.726211 0.997864 1.22692
-0.822097 0.996691 1.17234
-0.504845 0.995212 1.32541
-0.83762 0.993837 1.15313
-0.634349 0.992681 1.24815
-0.6356 0.991816 1.23993
-0.603019 0.990713 1.24947
-0.565855 0.989901 1.26031
-0.88701 0.989118 1.0919
-0.949686 0.988107 1.05355
-0.922222 0.987387 1.05927
-0.540493 0.9867 1.24202
-0.68694 0.986048 1.16057
-0.773908 0.985181 1.10964
-0.786474 0.984604 1.09489
-0.930835 0.984312 1.01324
-0.870561 0.983811 1.03466
-0.499272 0.983332 1.21153
-0.659072 0.982895 1.1227
-0.534771 0.982499 1.17579
-0.268822 0.982317 1.29894
-0.783121 0.981985 1.0325
-0.638714 0.981697 1.09527
-0.663392 0.981454 1.07334
-0.888257 0.981349 0.950814
-0.822747 0.981173 0.973737
-0.547604 0.981042 1.10131
-0.77105 0.980957 0.979428
-0.607758 0.980919 1.05074
-0.776655 0.981137 0.955006
-0.815144 0.981165 0.925178
-0.902005 0.981239 0.870992
-0.708836 0.981573 0.955843
-0.871445 0.981737 0.863439
-0.619299 0.981946 0.978237
-0.509118 0.982408 1.02109
-0.671785 0.982704 0.928138
-0.765965 0.983434 0.867771
-0.725181 0.984039 0.87535
-0.479636 0.984918 0.984242
-0.694711 0.985885 0.86247
-0.637868 0.986935 0.876313
-0.3901 0.988067 0.985284
-0.427534 0.990183 0.947812
-0.489388 0.992674 0.896626
-0.514012 1.01904 1.34665
-0.526149 1.01618 1.33938
-0.543813 1.01385 1.32764
-0.55067 1.01183 1.32033
-0.571868 1.00978 1.30595
-0.536921 1.00881 1.31607
-0.51364 1.0071 1.32287
-0.732185 1.00599 1.20677
-0.782327 1.00455 1.17601
-0.639958 1.00341 1.24052
-0.651086 1.00256 1.22728
-0.751477 1.00174 1.16933
-0.759191 1.00069 1.15855
-0.748386 0.999932 1.15603
-0.722935 0.999208 1.16073
-0.902586 0.998257 1.06368
-0.693306 0.997603 1.16008
-0.501967 0.996986 1.2474
-0.741231 0.996406 1.11929
-0.608294 0.996131 1.17623
-0.868334 0.995359 1.03844
-0.783204 0.994881 1.0722
-0.759749 0.994444 1.07499
-0.639982 0.994242 1.12511
-0.573536 0.993869 1.14918
-0.897689 0.99354 0.977809
-0.624085 0.993255 1.10516
-0.98366 0.993129 0.91535
-0.714385 0.992912 1.0403
-0.75222 0.992741 1.01154
-0.499656 0.992615 1.12781
-0.675157 0.992535 1.02988
-0.50511 0.992729 1.10372
-0.906573 0.992729 0.89252
-0.564698 0.992763 1.05286
-0.618308 0.992798 1.01546
-0.611797 0.992902 1.00785
-0.619468 0.993271 0.992174
-0.733755 0.993579 0.923403
-0.594748 0.994054 0.980648
-0.705676 0.99436 0.913552
-0.51031 0.994918 0.998645
-0.579481 0.995727 0.950512
-0.7746 0.996626 0.839045
-0.427519 0.99714 1.00012
-0.728116 0.998684 0.833429
-0.513593 0.999836 0.925759
-0.510185 1.00162 0.910089
-0.39608 1.00434 0.946151
-0.758503 1.03133 1.22535
-0.770266 1.02815 1.21921
-0.670334 1.0258 1.26627
-0.485628 1.02398 1.35398
-0.829265 1.02218 1.17748
-0.728161 1.02042 1.22328
-0.677565 1.01898 1.24278
-0.49202 1.01776 1.32903
-0.726394 1.01612 1.20678
-0.83533 1.01524 1.1447
-0.460831 1.01439 1.32426
-0.780943 1.01329 1.15737
-0.71464 1.0125 1.18268
-0.783062 1.01174 1.14053
-0.480997 1.01074 1.28445
-0.710348 1.01005 1.16163
-0.795517 1.00939 1.1108
-0.832783 1.00851 1.08471
-0.748762 1.00822 1.11724
-0.895387 1.00766 1.03538
-0.865099 1.00714 1.04184
-0.902495 1.00666 1.01434
-0.829424 1.00622 1.04192
-0.71914 1.00576 1.08819
-0.942577 1.00539 0.967302
-0.767621 1.00507 1.04546
-0.748407 1.00492 1.04512
-0.708258 1.00466 1.05565
-0.819377 1.00445 0.990389
-0.692018 1.00428 1.0442
-0.504725 1.00416 1.12782
-0.684911 1.00432 1.02669
-0.953412 1.0043 0.882048
-0.643523 1.00429 1.02656
-0.681206 1.00431 0.997192
-0.69118 1.00437 0.981505
-0.545291 1.00471 1.04275
-0.996326 1.00487 0.806193
-0.764379 1.00507 0.910952
-0.700996 1.00568 0.929926
-0.732966 1.00599 0.902298
-0.702606 1.00656 0.904867
-0.710684 1.00739 0.887252
-0.728095 1.00786 0.866317
-0.822253 1.00884 0.805063
-0.401772 1.0099 1.00079
-0.175539 1.01158 1.09704
-0.687377 1.0134 0.823712
-0.605985 1.01616 0.843387
-0.608534 1.04355 1.30148
-0.832124 1.04011 1.19019
-0.652279 1.03743 1.27816
-0.636057 1.03588 1.28068
-0.765144 1.03407 1.21145
-0.660495 1.03229 1.25902
-0.624369 1.03055 1.27222
-0.472836 1.0296 1.34052
-0.694758 1.0284 1.22298
-0.853297 1.02706 1.13759
-0.683279 1.02592 1.21585
-0.816074 1.0251 1.14168
-0.636718 1.02402 1.22444
-0.666129 1.02326 1.20178
-0.679517 1.02252 1.18704
-0.578809 1.02156 1.23017
-0.488578 1.0209 1.26702
-0.770739 1.02058 1.11651
-0.944504 1.01998 1.02119
-0.923107 1.01915 1.02425
-0.844823 1.01863 1.0547
-0.91461 1.01839 1.01017
-0.57368 1.01793 1.17174
-0.547138 1.01752 1.17598
-0.748226 1.01715 1.06625
-0.766061 1.01682 1.04801
-0.83715 1.01668 1.00251
-0.757112 1.01642 1.03298
-0.897847 1.01621 0.952894
-0.900792 1.01604 0.941546
-0.42752 1.01598 1.16795
-0.729957 1.01588 1.00661
-0.616253 1.01584 1.05318
-0.627613 1.01583 1.03706
-0.687852 1.01586 0.9964
-0.894919 1.01593 0.882153
-0.59595 1.01628 1.01991
-0.751103 1.01644 0.931282
-0.588567 1.01665 1.00132
-0.475087 1.01713 1.04584
-0.99691 1.0176 0.772747
-0.743559 1.01819 0.88679
-0.568169 1.0186 0.962494
-0.674324 1.01951 0.895566
-0.609528 1.02051 0.913764
-0.479566 1.02159 0.964204
-0.761316 1.02331 0.806428
-0.641089 1.02495 0.849862
-0.352594 1.02734 0.974618
-0.568322 1.05553 1.32352
-0.849785 1.05234 1.18232
-0.762475 1.04963 1.22403
-0.713404 1.04747 1.24489
-0.466617 1.04594 1.36263
-0.395045 1.04414 1.39366
-0.696949 1.04286 1.23627
-0.47294 1.04143 1.34238
-0.536491 1.04021 1.30403
-1.08468 1.03915 1.02285
-0.667215 1.03771 1.22578
-0.820957 1.03659 1.14208
-0.634508 1.03579 1.22743
-0.878845 1.03502 1.0973
-0.94603 1.03401 1.05659
-0.464136 1.03359 1.28844
-0.793327 1.03297 1.1154
-0.716721 1.03206 1.14631
-0.68327 1.03145 1.15458
-0.858583 1.03089 1.05835
-0.692442 1.03037 1.13271
-0.795628 1.03013 1.07148
-0.828495 1.0294 1.04706
-0.840339 1.02899 1.03208
-0.712403 1.02862 1.08686
-0.686677 1.02846 1.08984
-0.426249 1.02816 1.21063
-0.927682 1.0279 0.950344
-0.691356 1.0277 1.05878
-0.946697 1.02761 0.920954
-0.830394 1.02748 0.969132
-0.782665 1.02739 0.982859
-0.706532 1.02735 1.01062
-0.732156 1.02734 0.987369
-0.716004 1.02737 0.984887
-0.523872 1.02745 1.07022
-0.844474 1.02782 0.898173
-0.563531 1.02799 1.02758
-0.553872 1.02821 1.02116
-0.941344 1.0287 0.815184
-0.657441 1.02901 0.945553
-0.545334 1.02978 0.988332
-0.628797 1.0302 0.934599
-0.553935 1.03113 0.958152
-0.723825 1.03216 0.858983
-1.09084 1.03326 0.660911
-0.563886 1.03445 0.909497
-0.765205 1.0363 0.791491
-0.533821 1.03911 0.886264
-0.692369 1.06748 1.26344
-0.535187 1.06419 1.34179
-1.11471 1.06175 1.04913
-0.617399 1.05934 1.29484
-0.716665 1.05748 1.24052
-0.469884 1.05597 1.35818
-0.701568 1.05468 1.23589
-0.769048 1.05293 1.19722
-0.721882 1.052 1.21326
-0.76929 1.05079 1.18292
-0.713336 1.04991 1.20322
-0.749576 1.04877 1.17832
-0.735411 1.04784 1.17793
-0.777814 1.04687 1.1494
-0.846819 1.04611 1.10688
-0.739302 1.04539 1.15252
-0.984535 1.04443 1.02262
-0.806608 1.04378 1.10324
-0.666357 1.04318 1.1649
-0.62864 1.04261 1.17518
-0.894401 1.04207 1.03364
-0.758226 1.04157 1.09295
-0.627081 1.04112 1.1496
-0.771873 1.04071 1.06814
-0.6034 1.04025 1.14348
-0.707801 1.03991 1.08199
-0.688857 1.03961 1.08203
-0.758146 1.03936 1.0378
-0.677645 1.03926 1.06797
-0.67103 1.03908 1.06145
-0.716049 1.03895 1.02895
-0.926782 1.03886 0.913429
-0.64511 1.03883 1.04394
-0.89086 1.03883 0.910625
-0.566532 1.03884 1.0623
-0.776767 1.03915 0.945659
-0.898957 1.03926 0.873738
-0.72743 1.03941 0.948504
-0.757315 1.03962 0.922391
-0.650819 1.04025 0.962947
-0.552862 1.04057 1.00033
-0.493646 1.04116 1.01735
-0.60102 1.04179 0.950936
-0.857158 1.04249 0.809872
-0.569124 1.0435 0.939753
-0.606892 1.0446 0.906393
-0.867877 1.04612 0.759856
-0.733964 1.048 0.809433
-0.514703 1.05043 0.899662
-0.880648 1.07995 1.16957
-0.694003 1.07608 1.26435
-0.602912 1.07362 1.307
-0.565979 1.07171 1.32084
-0.73288 1.06962 1.23339
-0.760476 1.06798 1.2142
-0.736101 1.06648 1.22058
-0.918387 1.06519 1.12296
-0.842426 1.06347 1.1559
-0.880418 1.06256 1.12929
-0.67436 1.06137 1.22562
-0.864475 1.06051 1.1228
-0.791339 1.05939 1.15249
-0.71399 1.05859 1.18323
-0.578624 1.05784 1.24289
-0.759587 1.05682 1.14523
-0.770429 1.05614 1.13157
-0.617069 1.0552 1.20085
-0.901579 1.0549 1.04913
-0.706847 1.05431 1.13796
-0.769888 1.05377 1.09777
-0.976122 1.05299 0.986794
-0.725369 1.05276 1.10249
-0.838671 1.05233 1.03683
-0.779015 1.05194 1.05751
-0.83784 1.0516 1.0188
-0.977129 1.05145 0.939232
-0.885778 1.05091 0.976297
-0.899353 1.05069 0.959824
-0.61237 1.05052 1.09347
-0.946578 1.05039 0.91636
-0.766307 1.05035 0.996214
-0.780067 1.0503 0.97908
-0.860035 1.05029 0.92869
-0.545656 1.05031 1.07537
-0.862506 1.05063 0.905397
-0.655475 1.05074 0.998072
-0.85011 1.05091 0.889741
-0.699789 1.05112 0.953717
-0.526769 1.05162 1.02802
-0.661085 1.05193 0.949337
-0.53787 1.05271 0.99773
-0.846947 1.05312 0.83125
-0.633197 1.05406 0.92431
-0.663925 1.05509 0.894785
-0.680239 1.05599 0.872938
-0.509055 1.0572 0.943695
-0.557254 1.05908 0.902305
-0.424885 1.06193 0.947672
-0.626295 1.06808 0.814115
-0.813519 1.09219 1.20412
-0.568849 1.0885 1.32721
-0.538048 1.08578 1.34042
-0.590831 1.08354 1.3104
-0.802867 1.08163 1.19972
-0.731134 1.07977 1.23085
-0.83398 1.07825 1.17361
-0.660381 1.07696 1.25393
-0.797837 1.07569 1.17867
-0.591482 1.0743 1.27572
-0.686845 1.0731 1.22133
-0.72661 1.07193 1.19466
-1.02255 1.0711 1.03883
-0.498934 1.0703 1.2927
-0.720169 1.06924 1.17501
-0.674298 1.06852 1.1898
-0.723489 1.06812 1.15599
-0.782123 1.06721 1.11919
-0.615665 1.06658 1.19399
-0.704526 1.06571 1.14197
-0.88345 1.06517 1.04382
-0.754511 1.06491 1.09867
-0.524026 1.06444 1.20504
-0.947555 1.06372 0.985196
-0.704168 1.06334 1.09772
-0.716147 1.06317 1.08187
-0.908757 1.06285 0.976182
-0.753281 1.06259 1.04438
-0.851203 1.06237 0.985722
-0.573337 1.06228 1.11453
-0.348003 1.06213 1.21726
-0.646896 1.06203 1.05772
-0.851141 1.06199 0.945329
-0.544857 1.06198 1.08806
-0.748278 1.06201 0.975834
-0.591247 1.06208 1.04366
-0.879641 1.0622 0.88861
-0.782674 1.06238 0.926066
-0.610623 1.0626 1.00089
-0.661655 1.06311 0.963144
-0.640182 1.06343 0.962344
-0.831383 1.06379 0.855038
-0.660764 1.06465 0.926855
-0.701108 1.06512 0.894565
-0.429355 1.06615 1.01636
-0.553183 1.06726 0.940024
-0.679181 1.06881 0.861057
-0.776121 1.07012 0.797419
-0.426748 1.07255 0.952921
-0.550131 1.07746 0.863074
-0.780793 1.10432 1.22179
-0.782451 1.10036 1.22242
-0.79425 1.09784 1.21362
-0.689274 1.09535 1.26318
-0.580658 1.09342 1.31282
-0.687657 1.09186 1.25359
-0.497298 1.0902 1.34336
-0.586007 1.0887 1.2931
-0.926551 1.08742 1.1163
-0.845313 1.08617 1.15032
-0.773217 1.08512 1.17913
-0.936453 1.08394 1.09072
-0.750125 1.08311 1.17602
-0.663559 1.082 1.21234
-0.888821 1.08123 1.09166
-0.745263 1.08025 1.15608
-0.633113 1.07954 1.20395
-0.686487 1.07888 1.16894
-0.772923 1.07795 1.11825
-1.03217 1.07765 0.979128
-0.606673 1.07709 1.18325
-0.635659 1.07628 1.16096
-0.760438 1.0758 1.08968
-0.5825 1.07538 1.16961
-0.827661 1.07518 1.03724
-0.907911 1.07454 0.988805
-0.832803 1.07423 1.01695
-0.642123 1.07409 1.10232
-0.83824 1.07385 0.994627
-0.700643 1.07366 1.05363
-0.773132 1.07352 1.00743
-0.654008 1.07343 1.05688
-0.719138 1.07341 1.01398
-0.789734 1.07339 0.96832
-0.727928 1.0734 0.988767
-0.449706 1.07346 1.11726
-0.964293 1.07357 0.849179
-0.650139 1.07372 0.995298
-0.662395 1.07393 0.978041
-0.624525 1.07443 0.984801
-0.823381 1.0749 0.873328
-0.698771 1.07527 0.923915
-0.803243 1.07593 0.858937
-0.738172 1.07664 0.878564
-0.862536 1.07769 0.802273
-0.605034 1.07882 0.916579
-0.718776 1.08005 0.844936
-0.411201 1.08173 0.982313
-0.515323 1.08419 0.911035
-0.436759 1.088 0.926291
-0.387325 1.11676 1.41886
-0.575714 1.11276 1.32611
-0.904886 1.10999 1.15931
-0.69378 1.10768 1.26128
-0.779235 1.10573 1.21391
-0.484109 1.10381 1.35677
-0.80665 1.10193 1.1907
-0.586773 1.1006 1.29419
-0.691717 1.09914 1.23571
-0.877702 1.09787 1.13612
-0.524305 1.09663 1.30616
-0.687095 1.09574 1.21702
-0.77597 1.09457 1.16575
-0.757427 1.09375 1.1671
-0.664055 1.09265 1.20677
-0.571613 1.09191 1.24487
-0.751196 1.0912 1.14686
-0.980677 1.09053 1.02379
-0.645235 1.0899 1.18305
-0.490678 1.0893 1.25181
-0.771706 1.08843 1.10363
-0.797347 1.08791 1.08204
-0.54718 1.08767 1.19747
-0.720079 1.08693 1.103
-0.695327 1.08652 1.10626
-0.714192 1.08617 1.08756
-0.73126 1.08601 1.06912
-0.707805 1.08544 1.0723
-0.767137 1.08521 1.03298
-0.844483 1.08502 0.984496
-0.800287 1.08495 0.996421
-0.757461 1.08484 1.00778
-0.884826 1.08478 0.933883
-0.832961 1.08477 0.949439
-0.659465 1.08479 1.02572
-0.778332 1.08485 0.955653
-0.931065 1.08497 0.868482
-0.705425 1.08513 0.970328
-0.615425 1.08535 1.00418
-0.756958 1.08587 0.921219
-0.654368 1.08618 0.961035
-0.63233 1.08654 0.960406
-0.750374 1.08741 0.887949
-0.860696 1.08788 0.820728
-0.742043 1.08892 0.866033
-0.529698 1.0898 0.95869
-0.516895 1.09102 0.950396
-0.675788 1.09293 0.853811
-0.63352 1.09475 0.858115
-0.632933 1.09851 0.834699
-0.439074 1.12918 1.39335
-0.594279 1.12492 1.31785
-0.517868 1.12201 1.35418
-0.651131 1.11945 1.28463
-0.995544 1.11714 1.10881
-0.692167 1.11555 1.25477
-0.690766 1.11417 1.24909
-0.769675 1.11231 1.20477
-0.729844 1.11132 1.21717
-0.762125 1.10988 1.19492
-0.93939 1.10863 1.09962
-0.526252 1.10741 1.29944
-0.972131 1.10623 1.06967
-0.915533 1.1054 1.09004
-0.816893 1.1043 1.13234
-0.895675 1.10386 1.08383
-0.757487 1.10287 1.14558
-0.722069 1.10218 1.155
-0.800086 1.10122 1.10857
-0.86105 1.10061 1.06956
-0.689656 1.10033 1.14573
-0.831435 1.09948 1.0671
-0.674966 1.09899 1.13648
-0.834539 1.09854 1.0477
-0.757061 1.09833 1.07668
-0.89315 1.09766 1.00039
-1.07975 1.09733 0.897734
-0.62242 1.09705 1.11689
-0.915589 1.09693 0.960283
-0.698415 1.09644 1.06007
-0.851323 1.09629 0.973709
-0.541842 1.09619 1.11838
-0.784903 1.09615 0.98655
-0.796566 1.09613 0.970402
-0.582355 1.09613 1.06708
-0.571516 1.09618 1.06194
-0.852229 1.09628 0.910845
-0.822102 1.09643 0.915002
-0.469455 1.09663 1.08025
-0.71778 1.09687 0.944843
-0.762167 1.09744 0.910343
-0.811623 1.09797 0.873394
-0.670057 1.09838 0.932348
-0.800943 1.09934 0.853198
-0.600082 1.09987 0.941396
-0.732457 1.10099 0.860925
-0.522515 1.1022 0.951284
-0.475761 1.10387 0.958458
-0.712753 1.10568 0.823229
-0.652235 1.10945 0.829912
-0.402717 1.14194 1.41089
-0.677439 1.1373 1.27663
-0.376713 1.13413 1.42579
-0.463402 1.13142 1.37992
-0.927034 1.12942 1.14348
-0.861126 1.12779 1.17073
-0.756982 1.12587 1.21803
-0.55566 1.1245 1.31228
-0.857478 1.12266 1.15641
-0.771385 1.12169 1.19188
-0.680835 1.12041 1.23053
-0.543503 1.11917 1.29249
-0.670999 1.11829 1.22094
-0.766414 1.11712 1.16636
-0.70055 1.11631 1.19131
-0.832884 1.11521 1.11807
-0.735267 1.11448 1.15869
-0.654424 1.11347 1.19181
-0.799601 1.11314 1.10981
-0.82034 1.11251 1.09095
-0.838865 1.11161 1.07408
-0.865834 1.11107 1.05187
-0.851369 1.11058 1.05023
-0.705754 1.11004 1.11432
-0.664135 1.10962 1.12605
-0.750605 1.10925 1.0736
-0.765829 1.10893 1.05661
-0.883604 1.10848 0.988741
-0.570246 1.10823 1.13582
-0.959729 1.10804 0.931313
-0.894972 1.10796 0.953551
-0.934238 1.10783 0.923917
-0.809286 1.10747 0.97717
-0.758309 1.10745 0.992325
-0.770593 1.10746 0.975755
-0.805845 1.10752 0.947545
-0.689389 1.10763 0.99502
-0.713792 1.10778 0.971897
-0.805196 1.10799 0.915104
-0.825681 1.10852 0.892696
-0.484021 1.10883 1.0521
-0.905902 1.10918 0.829568
-0.932206 1.10958 0.804655
-0.723004 1.11053 0.895635
-0.726829 1.11104 0.881558
-0.597402 1.11216 0.932073
-0.702021 1.11311 0.866096
-0.741336 1.11501 0.829483
-0.831573 1.11682 0.767735
-0.484359 1.11989 0.920314
-0.72265 1.15492 1.24969
-0.596808 1.14967 1.31733
-0.365175 1.14646 1.43194
-0.554176 1.14371 1.33495
-0.694943 1.14148 1.26057
-0.653888 1.13949 1.27641
-0.731468 1.1379 1.23182
-0.735211 1.13617 1.22457
-0.575801 1.13481 1.29781
-0.852663 1.13333 1.15329
-0.715501 1.13205 1.21524
-0.943899 1.13079 1.09434
-0.704703 1.12991 1.20613
-0.608126 1.12873 1.24754
-0.692444 1.12758 1.19841
-0.777321 1.12681 1.14787
-0.620844 1.1264 1.2169
-1.00784 1.1254 1.01605
-0.815522 1.12472 1.10385
-0.788292 1.12377 1.10998
-0.805527 1.12319 1.09274
-0.569659 1.12292 1.20111
-0.920456 1.12208 1.01789
-0.682321 1.12162 1.12801
-0.800518 1.1212 1.05982
-0.865085 1.1207 1.01871
-0.702548 1.12035 1.09067
-0.833472 1.12006 1.01574
-0.861259 1.11962 0.992831
-0.900063 1.11941 0.963729
-0.979455 1.11924 0.914175
-0.749759 1.11912 1.019
-0.770688 1.11906 0.998359
-0.754663 1.11904 0.996023
-0.628666 1.11875 1.04957
-0.730821 1.11878 0.988022
-0.848433 1.11887 0.918538
-0.760471 1.11901 0.951672
-0.641822 1.1192 0.999981
-0.699726 1.11974 0.958856
-0.699622 1.12003 0.947552
-0.885086 1.12037 0.843296
-0.812144 1.12097 0.867371
-0.727371 1.12142 0.89782
-0.972219 1.12246 0.761507
-0.577144 1.12303 0.946708
-0.78586 1.12423 0.827897
-0.683844 1.12588 0.862909
-0.399568 1.12768 0.988513
-0.536346 1.13031 0.900743
-0.478822 1.1361 0.899313
-0.812583 1.16768 1.20412
-0.661182 1.16203 1.28554
-0.915862 1.15843 1.15804
-0.577324 1.15578 1.32442
-0.81775 1.15338 1.20066
-0.548036 1.15136 1.33086
-0.753291 1.14974 1.22245
-0.763993 1.14817 1.21122
-0.73522 1.14644 1.22018
-0.812917 1.1451 1.17481
-0.702894 1.14414 1.2222
-0.714065 1.14285 1.20995
-0.589036 1.14161 1.26573
-0.724363 1.14074 1.1902
-0.646182 1.13956 1.22237
-0.938025 1.13877 1.06839
-0.933461 1.13768 1.06354
-0.983647 1.13696 1.03018
-1.02829 1.13629 0.999482
-0.794037 1.13564 1.10817
-0.658725 1.13471 1.16827
-0.63852 1.13415 1.16968
-0.871842 1.13364 1.04419
-0.665637 1.13309 1.13859
-0.82827 1.13265 1.04824
-0.69922 1.13195 1.10456
-0.83202 1.13177 1.02832
-0.866115 1.13145 1.00188
-0.856553 1.13118 0.997121
-0.911443 1.13096 0.959979
-0.731752 1.13056 1.0407
-0.958676 1.13042 0.917302
-0.772625 1.13033 1.00023
-1.03408 1.13029 0.859245
-0.417927 1.13029 1.15694
-0.4998 1.13033 1.1055
-0.782973 1.13042 0.953237
-0.537832 1.13048 1.06521
-0.762891 1.13065 0.941757
-0.708621 1.13087 0.957795
-0.882582 1.13114 0.859548
-0.857371 1.13163 0.860137
-0.840677 1.13203 0.856799
-0.73085 1.13277 0.898862
-0.788258 1.13352 0.857278
-0.643588 1.13407 0.917356
-0.671488 1.13529 0.888931
-0.710467 1.13697 0.85343
-0.796012 1.13876 0.794227
-0.49091 1.14069 0.929841
-0.272294 1.14518 1.01357
-0.536383 1.18211 1.33681
-0.489453 1.17437 1.37184
-0.767904 1.17073 1.23245
-0.765087 1.16769 1.23204
-0.630538 1.16562 1.29473
-0.948216 1.16357 1.13127
-0.574035 1.16157 1.31365
-0.820108 1.15997 1.18476
-0.853889 1.15857 1.16144
-0.989128 1.15706 1.08775
-0.740114 1.15573 1.20567
-0.880092 1.15444 1.12902
-0.569163 1.15318 1.27774
-0.886301 1.15196 1.11234
-0.590198 1.15113 1.25243
-0.616153 1.15033 1.23139
-1.00901 1.14957 1.02679
-0.890768 1.14855 1.07855
-0.959528 1.14786 1.03584
-0.841279 1.14689 1.08748
-0.856814 1.14628 1.07114
-0.779698 1.146 1.10016
-0.852144 1.14514 1.05615
-0.880996 1.14465 1.03283
-0.704403 1.14411 1.1124
-0.55382 1.14369 1.1786
-0.750482 1.14331 1.07103
-0.641948 1.14268 1.11688
-0.949186 1.14254 0.953319
-0.914421 1.14229 0.961088
-0.866696 1.1421 0.97518
-0.478407 1.14196 1.15939
-0.920692 1.14159 0.929021
-0.574868 1.14153 1.09176
-0.962079 1.14152 0.887822
-0.809617 1.14153 0.953635
-0.649685 1.1416 1.02302
-0.727557 1.14171 0.973326
-0.858335 1.14188 0.897016
-0.748807 1.1421 0.940689
-1.0528 1.14238 0.777433
-0.733493 1.1427 0.925659
-0.91642 1.14307 0.822601
-0.759968 1.14403 0.887313
-0.581362 1.14452 0.964608
-0.739606 1.14506 0.873316
-0.404155 1.14658 1.02563
-0.729679 1.14791 0.848055
-0.665882 1.14933 0.864813
-0.744242 1.15169 0.807367
-0.443241 1.155 0.936396
-0.705896 1.18729 1.2624
-0.765103 1.18303 1.23431
-0.381651 1.17995 1.42423
-0.643752 1.17765 1.28919
-0.568518 1.17559 1.32218
-0.921251 1.17356 1.14111
-0.727277 1.17175 1.23281
-0.803169 1.17053 1.18785
-0.618166 1.16879 1.27493
-0.6661 1.16744 1.24441
-0.708943 1.16648 1.21532
-0.697875 1.16519 1.21415
-0.905241 1.16398 1.10359
-0.828554 1.16312 1.13401
-0.764069 1.16198 1.15919
-0.68091 1.16087 1.19361
-0.782008 1.16013 1.13485
-0.830425 1.15943 1.10231
-0.732725 1.15878 1.1427
-0.548577 1.15782 1.22724
-0.760542 1.15723 1.11264
-0.986844 1.15669 0.990731
-0.698602 1.15612 1.1262
-0.625174 1.15564 1.15396
-0.839265 1.1549 1.03879
-0.725672 1.15471 1.0858
-0.775857 1.15436 1.0514
-0.812181 1.15374 1.02476
-0.843541 1.15361 0.999107
-0.799188 1.15339 1.0116
-0.839005 1.15322 0.981843
-0.798418 1.15311 0.992131
-0.723659 1.15304 1.01934
-0.957086 1.15272 0.893293
-0.923948 1.15272 0.899493
-0.828296 1.15276 0.936823
-0.639401 1.15285 1.02061
-0.816271 1.153 0.921339
-0.697637 1.15319 0.969656
-0.795014 1.15344 0.909798
-0.818051 1.15374 0.886942
-0.85212 1.1546 0.856766
-0.874764 1.15503 0.833688
-0.845995 1.1555 0.836152
-0.579269 1.15662 0.955512
-0.5969 1.15752 0.933358
-0.709108 1.15883 0.862554
-0.709241 1.16024 0.847455
-0.836214 1.16215 0.767258
-0.715563 1.16513 0.807318
-0.556233 1.2 1.33664
-0.579904 1.19532 1.32738
-0.73216 1.1922 1.24946
-0.770633 1.18987 1.22625
-0.899827 1.1874 1.15812
-0.702371 1.18572 1.2511
-1.0161 1.18388 1.08898
-0.873314 1.1819 1.15553
-0.902095 1.18087 1.13362
-0.624773 1.17936 1.26614
-0.915608 1.17807 1.11399
-0.690142 1.1768 1.21992
-0.621655 1.17558 1.24729
-0.711846 1.17471 1.19427
-0.80327 1.17356 1.1415
-0.665852 1.17277 1.2021
-0.984847 1.17174 1.03522
-0.808845 1.17101 1.11495
-0.857302 1.17 1.08331
-0.864064 1.16968 1.07049
-0.869093 1.16874 1.0604
-0.713494 1.16816 1.12951
-0.808704 1.16732 1.07407
-0.982678 1.16707 0.977432
-0.558676 1.16662 1.18042
-0.85372 1.1659 1.02472
-0.808982 1.16555 1.03778
-0.620337 1.16539 1.12221
-0.855674 1.16512 0.995012
-1.00915 1.16457 0.909582
-0.754464 1.16448 1.02684
-0.881967 1.16434 0.95317
-0.73903 1.16425 1.01456
-0.781231 1.16421 0.983213
-0.90694 1.16421 0.909994
-0.865532 1.16425 0.920206
-0.907527 1.16435 0.888548
-0.729959 1.1645 0.966504
-0.725723 1.1647 0.957626
-0.629696 1.16495 0.994474
-0.649164 1.16525 0.973408
-0.742496 1.16561 0.915241
-0.906884 1.16601 0.82138
-0.620386 1.16647 0.952796
-0.81494 1.16756 0.841636
-0.626912 1.16844 0.922433
-0.49216 1.16973 0.975222
-0.78623 1.17112 0.813265
-0.516254 1.17302 0.93168
-0.653249 1.17552 0.844606
-0.607446 1.17955 0.843883
-0.638802 1.21291 1.2942
-0.601892 1.20798 1.31579
-0.680308 1.20483 1.2748
-0.825981 1.20208 1.19908
-0.779951 1.19958 1.2186
-0.887397 1.19749 1.16023
-0.773548 1.19583 1.21134
-0.904199 1.19408 1.14047
-0.762009 1.1925 1.20557
-0.876641 1.19082 1.14258
-0.896677 1.18983 1.12493
-0.819312 1.18854 1.15686
-0.843828 1.18728 1.13777
-0.971592 1.18639 1.06602
-0.909611 1.18521 1.09002
-0.629228 1.18406 1.22312
-0.850605 1.18328 1.10428
-0.909104 1.18255 1.06676
-0.8018 1.18187 1.112
-0.936038 1.18087 1.03743
-0.90901 1.18025 1.04239
-0.769406 1.17963 1.10365
-0.665478 1.17908 1.14687
-0.643539 1.17857 1.14896
-0.933635 1.17779 0.995885
-0.915314 1.17758 0.9953
-1.00643 1.1772 0.940514
-1.16435 1.17655 0.853169
-0.956781 1.17641 0.947032
-0.858584 1.17616 0.986529
-0.921087 1.17563 0.946518
-0.872093 1.17549 0.9611
-0.764289 1.17544 1.00481
-0.661173 1.17537 1.04621
-0.892555 1.17536 0.920201
-0.680568 1.17538 1.01579
-0.661154 1.17545 1.01493
-0.664758 1.17557 1.00239
-0.888806 1.17575 0.879456
-0.705561 1.17598 0.960003
-0.681544 1.17626 0.960769
-0.700719 1.17659 0.93977
-0.832825 1.17698 0.862139
-0.692554 1.17741 0.92053
-0.58266 1.17848 0.961714
-0.851841 1.17933 0.81403
-0.667743 1.18061 0.891607
-0.629906 1.18199 0.895714
-0.771468 1.18314 0.81083
-0.484886 1.18589 0.934822
-0.612639 1.18903 0.850342
-0.595394 1.22621 1.31372
-0.503263 1.22085 1.36395
-0.905237 1.21686 1.16343
-0.859573 1.21429 1.18282
-0.73648 1.2118 1.24075
-0.705471 1.20973 1.2515
-0.552113 1.2077 1.32335
-0.46335 1.20605 1.36185
-0.800398 1.20431 1.18775
-0.58719 1.20293 1.28778
-0.778531 1.20158 1.18547
-0.719573 1.20045 1.20769
-0.851002 1.19918 1.13515
-0.91015 1.19795 1.09867
-0.643769 1.19709 1.22391
-0.938347 1.196 1.06933
-1.04678 1.19486 1.00799
-0.763121 1.1941 1.14161
-0.996039 1.19305 1.01781
-0.671563 1.19271 1.17065
-0.958805 1.19173 1.01953
-0.818048 1.19112 1.08129
-0.940011 1.19023 1.01256
-0.843185 1.18997 1.05136
-0.878257 1.18949 1.02489
-0.769165 1.18873 1.07135
-0.718757 1.18853 1.08678
-0.970161 1.18817 0.951779
-0.813379 1.18754 1.02172
-0.80464 1.18729 1.0165
-0.996653 1.18718 0.910457
-0.900698 1.18701 0.948603
-0.698275 1.18656 1.04083
-1.02957 1.1865 0.86503
-0.673143 1.18649 1.03293
-0.745456 1.18649 0.986428
-0.878669 1.18654 0.90934
-0.679214 1.18664 0.998418
-0.766784 1.18679 0.943816
-0.618887 1.187 1.00678
-0.56908 1.18725 1.02053
-0.726323 1.18757 0.930587
-0.813052 1.18793 0.875733
-0.840802 1.1889 0.848463
-0.852532 1.18939 0.830695
-0.573398 1.19021 0.957293
-0.871556 1.19147 0.793857
-0.700627 1.19214 0.866788
-0.707224 1.19396 0.847335
-0.678599 1.19593 0.844942
-0.748334 1.19933 0.788771
-0.636502 1.24281 1.28199
-0.573533 1.23312 1.32934
-0.636418 1.22929 1.2978
-0.973852 1.22619 1.12703
-0.938794 1.22382 1.14055
-0.764403 1.22173 1.22299
-0.944362 1.2199 1.12757
-0.788448 1.21788 1.20064
-0.84093 1.21645 1.16791
-0.698956 1.21486 1.23286
-0.694385 1.21315 1.22948
-1.05459 1.21182 1.04268
-0.687183 1.21052 1.21961
-0.812388 1.2096 1.14919
-0.742585 1.20837 1.17716
-0.91187 1.20752 1.08452
-0.779091 1.20672 1.14281
-0.590651 1.20565 1.2297
-0.877113 1.2049 1.07821
-0.77471 1.20386 1.12203
-0.856484 1.20321 1.07266
-0.966134 1.20256 1.00934
-0.741679 1.20198 1.1129
-0.932003 1.2011 1.00993
-0.754356 1.20085 1.08912
-0.747365 1.20039 1.08361
-0.990483 1.19965 0.953907
-0.67431 1.19929 1.1027
-0.805758 1.19913 1.0271
-1.08313 1.19851 0.879905
-0.898049 1.19829 0.962777
-0.845429 1.19812 0.97926
-0.685389 1.19805 1.04914
-0.984314 1.19796 0.889608
-1.08606 1.19793 0.828504
-0.471182 1.1976 1.12662
-0.80015 1.19764 0.951656
-0.827031 1.19774 0.927572
-0.597129 1.19781 1.03197
-0.831449 1.198 0.903915
-0.793637 1.19823 0.911758
-0.507805 1.19852 1.04344
-0.893858 1.19938 0.837393
-0.824436 1.1998 0.860454
-0.418165 1.20027 1.05177
-0.788495 1.2014 0.852725
-0.718793 1.20231 0.874376
-0.543891 1.20297 0.949377
-0.606183 1.20475 0.902221
-0.443783 1.20671 0.966852
-0.559498 1.20882 0.891904
-0.785824 1.2143 0.750903
-0.793888 1.24639 1.21695
-0.685179 1.24196 1.27271
-0.602355 1.23883 1.31208
-0.739811 1.23608 1.24032
-0.557316 1.2336 1.32781
-0.707723 1.23174 1.2472
-0.812072 1.22969 1.19018
-0.927312 1.22804 1.12665
-1.01859 1.22627 1.07545
-0.815571 1.22522 1.1694
-0.73918 1.22386 1.20094
-1.0077 1.22253 1.05996
-0.69671 1.22124 1.20866
-0.935143 1.22033 1.08159
-1.08571 1.21911 0.999341
-0.779869 1.21793 1.1452
-0.930991 1.21714 1.0615
-0.892531 1.21639 1.07247
-0.958928 1.21568 1.03091
-0.779593 1.21466 1.11314
-0.901422 1.21402 1.04369
-0.774973 1.21338 1.0984
-0.847082 1.21281 1.05362
-0.762693 1.21195 1.08795
-0.938949 1.21149 0.990823
-1.16302 1.21128 0.869062
-0.813285 1.21055 1.03572
-0.750304 1.21022 1.05785
-0.92064 1.20994 0.963169
-0.788612 1.20982 1.0192
-0.956198 1.20928 0.926679
-0.857381 1.20913 0.966187
-0.665619 1.20908 1.05189
-0.779039 1.20902 0.985038
-0.800563 1.20901 0.963979
-0.904902 1.20903 0.90142
-0.881959 1.2091 0.902335
-1.09504 1.20923 0.785073
-0.648486 1.20942 0.997457
-0.81648 1.20966 0.902401
-0.54863 1.20995 1.0251
-0.857287 1.21029 0.859376
-0.653007 1.21069 0.949955
-0.578672 1.21114 0.975396
-0.586376 1.21224 0.957779
-0.938839 1.21312 0.76847
-0.80411 1.21444 0.821363
-0.958837 1.21553 0.730242
-0.86001 1.21705 0.764521
-0.627737 1.21955 0.862401
-0.832243 1.22313 0.738495
-0.585517 1.2593 1.31991
-0.970285 1.25429 1.13041
-0.66872 1.25112 1.27917
-0.773482 1.24822 1.22407
-1.00675 1.24582 1.10341
-0.892911 1.24371 1.15557
-0.740633 1.24185 1.22629
-0.777906 1.23981 1.20275
-0.760193 1.23836 1.20511
-0.832283 1.23694 1.16252
-1.02557 1.2354 1.0597
-1.00344 1.23406 1.06405
-0.738576 1.23275 1.18969
-0.817791 1.23183 1.14223
-0.772642 1.23095 1.15686
-0.858515 1.22976 1.10686
-0.790494 1.22865 1.1336
-1.02554 1.22787 1.00788
-0.706177 1.22679 1.16026
-0.913445 1.2261 1.04821
-0.807737 1.22543 1.09262
-0.810655 1.22481 1.08256
-0.705839 1.22389 1.12725
-0.866318 1.22363 1.03742
-0.891534 1.22314 1.01588
-0.965871 1.22235 0.970658
-0.79017 1.22196 1.0493
-0.861714 1.22179 1.0037
-0.697911 1.22113 1.07718
-0.519095 1.22088 1.15701
-0.875064 1.22077 0.969009
-0.753523 1.2206 1.01996
-0.826214 1.22014 0.974663
-0.848136 1.22007 0.953564
-0.733834 1.22006 1.00042
-1.05842 1.22007 0.827801
-0.846384 1.22012 0.92335
-0.720202 1.22022 0.975807
-0.714144 1.22038 0.968034
-0.572944 1.2206 1.02767
-0.874448 1.22086 0.865776
-0.702937 1.22119 0.940226
-0.856037 1.22156 0.852204
-0.648747 1.22257 0.942451
-0.844652 1.22307 0.832614
-0.479195 1.22392 1.00239
-0.535117 1.22522 0.960072
-1.01058 1.22628 0.7087
-0.556035 1.22778 0.920946
-0.713435 1.22982 0.825544
-0.628473 1.23332 0.84671
-0.58266 1.27264 1.31904
-0.656859 1.26723 1.28573
-0.775008 1.2634 1.2263
-0.850114 1.26047 1.18605
-0.728189 1.25768 1.24398
-0.688012 1.25553 1.25935
-0.827881 1.25378 1.18364
-0.805007 1.25193 1.18963
-0.756132 1.25026 1.20812
-0.851959 1.24847 1.15465
-0.985212 1.24707 1.08142
-0.878892 1.2457 1.12791
-0.931206 1.24436 1.09502
-0.724376 1.24342 1.19063
-0.706999 1.24215 1.19241
-0.904259 1.24093 1.08679
-0.875929 1.2401 1.09287
-0.837564 1.23932 1.10386
-0.967648 1.23859 1.0305
-0.566168 1.23752 1.22389
-0.881835 1.23685 1.05758
-0.96302 1.23618 1.00853
-0.913843 1.23558 1.02446
-0.716442 1.23468 1.11539
-1.01464 1.23419 0.957364
-0.893 1.23396 1.0085
-0.661075 1.23319 1.11635
-0.909146 1.23283 0.983032
-0.77192 1.23267 1.04179
-1.00775 1.23203 0.915392
-0.700393 1.2318 1.05942
-0.747058 1.23163 1.02627
-1.03227 1.23157 0.873538
-0.728283 1.23148 1.01548
-0.742031 1.23109 0.999424
-0.851086 1.2311 0.934571
-0.905251 1.23115 0.897027
-0.964879 1.23126 0.856585
-0.704523 1.23133 0.976229
-0.778766 1.23152 0.928228
-0.76295 1.23176 0.925088
-0.871912 1.23206 0.859392
-0.981351 1.23296 0.791646
-0.79905 1.23339 0.871164
-0.708106 1.23388 0.90484
-0.575631 1.2347 0.958249
-0.808015 1.23597 0.827816
-0.94409 1.23665 0.747349
-0.570733 1.2385 0.918018
-0.704881 1.24051 0.834379
-0.628581 1.24268 0.855443
-0.616559 1.24833 0.833594
-0.647519 1.28017 1.28902
-0.975674 1.27568 1.12624
-0.82234 1.27272 1.20024
-0.804783 1.26989 1.20601
-0.961909 1.26771 1.12275
-0.793442 1.26557 1.20223
-0.675695 1.26368 1.25569
-0.814263 1.26198 1.18051
-0.85878 1.26016 1.15273
-0.707897 1.25909 1.22063
-0.778184 1.25755 1.17926
-0.725752 1.25632 1.19839
-0.940583 1.25499 1.08421
-0.686228 1.25397 1.20379
-0.833284 1.2528 1.12308
-0.885408 1.25159 1.09
-0.749265 1.25078 1.14994
-0.680465 1.25001 1.1761
-0.982182 1.24929 1.0169
-0.868579 1.24823 1.0663
-0.805655 1.24758 1.08924
-0.987157 1.24692 0.990015
-0.753403 1.24634 1.09817
-0.896695 1.24546 1.0187
-0.885159 1.24499 1.01548
-0.767331 1.24477 1.06468
-0.714043 1.24402 1.08315
-0.870676 1.24368 0.995483
-0.889258 1.2434 0.976693
-0.803201 1.24328 1.00976
-0.934843 1.24272 0.935239
-1.06405 1.24257 0.860748
-0.861272 1.24252 0.95198
-0.679419 1.24246 1.03278
-1.0178 1.24245 0.853309
-0.582172 1.24215 1.06169
-0.951115 1.2422 0.86678
-0.975101 1.24234 0.844081
-0.784304 1.24253 0.928606
-0.83353 1.24278 0.892952
-1.00771 1.24343 0.793597
-0.943047 1.24379 0.814552
-0.713138 1.2442 0.917963
-0.83131 1.24466 0.847169
-0.920109 1.24545 0.790066
-0.865516 1.24671 0.803239
-0.913189 1.24737 0.767057
-0.761912 1.24919 0.826832
-0.638435 1.25076 0.87344
-0.488435 1.25334 0.930188
-0.787755 1.25702 0.758865
-0.48549 1.29312 1.36869
-0.562414 1.28822 1.33249
-0.780953 1.28495 1.22124
-0.794807 1.28209 1.21133
-1.06993 1.27951 1.07009
-0.656529 1.27734 1.27206
-0.683417 1.27558 1.25282
-0.563336 1.27369 1.30743
-0.86483 1.2722 1.15022
-0.531906 1.27058 1.31061
-0.618069 1.26916 1.26091
-0.958736 1.26778 1.08389
-0.896332 1.26644 1.10834
-0.759509 1.2655 1.16891
-1.04352 1.26423 1.01997
-0.944343 1.26337 1.06153
-0.551268 1.26223 1.25085
-0.932572 1.26143 1.05202
-0.94532 1.26032 1.03836
-0.970123 1.25962 1.01756
-0.895209 1.25892 1.04661
-0.756534 1.25829 1.10736
-0.684849 1.25735 1.13551
-0.945481 1.25708 0.995624
-0.81215 1.25658 1.05337
-0.858056 1.25577 1.02239
-0.68834 1.25537 1.09805
-0.755579 1.25483 1.05566
-0.614828 1.25452 1.11662
-0.878062 1.25426 0.975428
-1.0001 1.25415 0.904412
-0.775494 1.25362 1.00795
-1.11341 1.2535 0.829033
-0.910204 1.25344 0.920511
-0.627415 1.25343 1.05163
-0.698823 1.25344 1.00562
-0.750943 1.25349 0.969105
-0.84615 1.2536 0.910882
-0.780676 1.25377 0.932833
-0.695419 1.25399 0.964508
-0.740678 1.25427 0.930757
-0.610748 1.2546 0.984434
-0.762282 1.25499 0.897213
-0.505024 1.25567 1.01351
-0.934926 1.25655 0.785623
-0.654669 1.25742 0.912816
-0.594022 1.25807 0.930878
-0.702908 1.25948 0.861848
-0.772529 1.26141 0.810886
-0.757245 1.26351 0.80183
-0.63482 1.26625 0.844332
-0.672027 1.30644 1.27312
-0.632442 1.30086 1.2968
-0.780176 1.29719 1.22194
-0.487042 1.29429 1.36555
-0.685011 1.29167 1.26291
-0.780667 1.28947 1.21039
-0.790487 1.2873 1.20071
-0.795018 1.28576 1.19205
-0.965152 1.28406 1.10105
-0.817135 1.28221 1.16955
-0.66698 1.28077 1.23805
-0.999119 1.27936 1.06535
