ply
format ascii 1.0
comment Created by Open3D
element vertex 1863
property double x
property double y
property double z
end_header
-1.21734 1.84921 0.790133
-1.21624 1.84862 0.782032
-1.21694 1.84764 0.773777
-1.2153 1.84716 0.765735
-1.21574 1.84625 0.757518
-1.21356 1.84588 0.749532
-1.21102 1.84559 0.74158
-1.21099 1.84477 0.73342
-1.2079 1.8446 0.725522
-1.20759 1.84385 0.717396
-1.20394 1.84379 0.709549
-1.20001 1.84379 0.701722
-1.19934 1.84312 0.69364
-1.19493 1.84322 0.685854
-1.19015 1.8434 0.678096
-1.185 1.84366 0.670365
-1.17949 1.84399 0.662659
-1.17798 1.84349 0.654653
-1.17191 1.84394 0.646985
-1.16549 1.84447 0.639339
-1.15871 1.84506 0.631714
-1.15158 1.84573 0.624108
-1.13886 1.84757 0.616885
-1.13089 1.84841 0.609321
-1.12028 1.84981 0.601927
-1.10563 1.85204 0.594792
-1.09641 1.85314 0.587278
-1.07771 1.85621 0.580372
-1.04801 1.86157 0.574145
-1.01261 1.86811 0.568231
-1.03089 1.92254 1.02728
-1.06589 1.91417 1.01473
-1.08515 1.90918 1.00403
-1.10425 1.90423 0.993394
-1.11509 1.90105 0.983715
-1.12979 1.89705 0.973641
-1.14038 1.89393 0.96405
-1.14782 1.89149 0.954827
-1.15805 1.88845 0.945327
-1.16489 1.88614 0.936212
-1.17128 1.88393 0.927166
-1.17749 1.88175 0.918159
-1.18356 1.87961 0.909184
-1.1894 1.87752 0.900252
-1.19501 1.87548 0.891363
-1.19743 1.87413 0.882811
-1.20265 1.87217 0.873993
-1.2076 1.87028 0.865219
-1.20889 1.86917 0.856818
-1.21083 1.86792 0.848364
-1.21505 1.86618 0.839703
-1.2156 1.86523 0.831406
-1.21715 1.86407 0.823023
-1.22059 1.8625 0.814475
-1.2219 1.86139 0.806136
-1.22147 1.86065 0.797965
-1.22253 1.8596 0.789667
-1.22495 1.85825 0.781257
-1.22239 1.85797 0.773297
-1.22428 1.85674 0.764952
-1.22145 1.85651 0.757025
-1.2228 1.85539 0.748743
-1.22043 1.85507 0.740786
-1.21715 1.85493 0.732906
-1.21759 1.85401 0.724722
-1.21403 1.85394 0.716871
-1.21391 1.85314 0.708744
-1.21007 1.85312 0.70092
-1.20604 1.85315 0.693112
-1.20498 1.85255 0.685072
-1.20068 1.85263 0.677286
-1.19571 1.85286 0.669551
-1.19113 1.853 0.661784
-1.18561 1.85334 0.654086
-1.17973 1.85375 0.646412
-1.17348 1.85424 0.63876
-1.16688 1.85481 0.63113
-1.15992 1.85545 0.623519
-1.15262 1.85616 0.615927
-1.14299 1.85735 0.608489
-1.13486 1.85824 0.600939
-1.12067 1.86039 0.593786
-1.10914 1.86198 0.586439
-1.09361 1.86441 0.579338
-1.07437 1.86762 0.572454
-1.04396 1.87315 0.566249
-0.995439 1.94205 1.03134
-1.05624 1.92806 1.01583
-1.08375 1.92126 1.00419
-1.10294 1.91626 0.99354
-1.1179 1.91218 0.983404
-1.12926 1.90887 0.9737
-1.13992 1.90572 0.964101
-1.15084 1.90251 0.9545
-1.16116 1.89944 0.944994
-1.16791 1.89713 0.935892
-1.17459 1.89484 0.926818
-1.18088 1.89264 0.917806
-1.18705 1.89047 0.908824
-1.193 1.88834 0.899884
-1.19873 1.88626 0.890986
-1.20122 1.88488 0.882431
-1.20657 1.88289 0.873604
-1.21165 1.88096 0.86482
-1.21307 1.87981 0.856411
-1.21509 1.87854 0.847953
-1.21946 1.87676 0.839282
-1.22126 1.87554 0.830871
-1.22517 1.87386 0.822271
-1.22538 1.87298 0.81403
-1.22678 1.87184 0.805688
-1.22988 1.87034 0.7972
-1.22766 1.86998 0.789205
-1.23025 1.86859 0.780785
-1.22912 1.868 0.772704
-1.22984 1.86701 0.764467
-1.22818 1.86653 0.756445
-1.22863 1.8656 0.748246
-1.22644 1.86524 0.740279
-1.22661 1.86437 0.732117
-1.22387 1.86413 0.724204
-1.22377 1.86332 0.716077
-1.22047 1.86319 0.708215
-1.2168 1.86314 0.700384
-1.21623 1.86243 0.692308
-1.21221 1.86245 0.684508
-1.20779 1.86256 0.676739
-1.20301 1.86275 0.668996
-1.20189 1.86216 0.660976
-1.19655 1.86246 0.653275
-1.19084 1.86285 0.645598
-1.18477 1.8633 0.637943
-1.17834 1.86384 0.630311
-1.17156 1.86444 0.622698
-1.16443 1.86512 0.615105
-1.15696 1.86587 0.607529
-1.14916 1.86669 0.599969
-1.13543 1.86876 0.592799
-1.12437 1.87027 0.585434
-1.10926 1.87262 0.57832
-1.09688 1.8744 0.57101
-1.07081 1.87906 0.564551
-1.03615 1.88553 0.558586
-1.04398 1.94255 1.01722
-1.07484 1.93498 1.00519
-1.0982 1.92905 0.994069
-1.11729 1.92404 0.983471
-1.12816 1.92082 0.973821
-1.14285 1.91677 0.963781
-1.15346 1.91362 0.954218
-1.16085 1.91116 0.945027
-1.1711 1.90808 0.935554
-1.17789 1.90575 0.926472
-1.18427 1.90352 0.917452
-1.19052 1.90132 0.908467
-1.19658 1.89915 0.899519
-1.20242 1.89704 0.890613
-1.20802 1.89498 0.881749
-1.21045 1.89361 0.873218
-1.21566 1.89164 0.864425
-1.22061 1.88972 0.855676
-1.22187 1.8886 0.847299
-1.22382 1.88734 0.838865
-1.22804 1.88559 0.830229
-1.22976 1.88437 0.821841
-1.23351 1.88272 0.813276
-1.23161 1.88229 0.805244
-1.23488 1.88075 0.796746
-1.23442 1.88 0.788597
-1.2355 1.87893 0.780318
-1.23453 1.8783 0.772228
-1.23534 1.87729 0.763988
-1.23724 1.87605 0.755664
-1.2344 1.87582 0.747754
-1.23576 1.87469 0.739493
-1.23265 1.87452 0.731613
-1.23346 1.87351 0.723412
-1.23052 1.87331 0.715526
-1.22696 1.87323 0.707691
-1.22684 1.87242 0.699583
-1.22301 1.87241 0.691775
-1.22233 1.87172 0.68372
-1.21822 1.87177 0.675936
-1.21361 1.87192 0.66819
-1.20921 1.87202 0.660426
-1.20405 1.87229 0.652718
-1.2019 1.87192 0.644787
-1.19601 1.87234 0.63713
-1.18976 1.87284 0.629495
-1.18315 1.87342 0.621881
-1.1762 1.87407 0.614286
-1.1689 1.87479 0.606709
-1.15789 1.87629 0.599378
-1.14777 1.87761 0.591973
-1.13933 1.87857 0.584448
-1.12466 1.88085 0.577318
-1.11271 1.88255 0.569995
-1.09374 1.88574 0.563101
-1.06368 1.89127 0.556871
-1.0199 1.95965 1.01995
-1.06942 1.94797 1.0058
-1.09689 1.9411 0.994216
-1.11607 1.93604 0.983607
-1.13103 1.93191 0.973506
-1.14236 1.92857 0.963834
-1.15304 1.92538 0.954264
-1.16394 1.92214 0.944696
-1.17428 1.91902 0.935218
-1.18102 1.91669 0.926143
-1.18765 1.91439 0.917101
-1.19396 1.91216 0.908111
-1.20013 1.90996 0.899156
-1.20608 1.90781 0.890242
-1.2118 1.90572 0.88137
-1.2143 1.90432 0.872835
-1.21964 1.90231 0.864033
-1.22472 1.90035 0.855275
-1.22689 1.89903 0.846814
-1.22814 1.89791 0.838453
-1.2325 1.89612 0.829806
-1.23431 1.89488 0.821414
-1.23822 1.89319 0.812839
-1.23841 1.8923 0.80462
-1.23982 1.89115 0.796297
-1.23952 1.89037 0.788138
-1.24069 1.88927 0.779856
-1.24328 1.88787 0.771457
-1.24079 1.88756 0.763513
-1.24286 1.88627 0.755179
-1.24118 1.8858 0.747176
-1.24164 1.88485 0.738996
-1.23943 1.88449 0.731048
-1.23962 1.88361 0.722904
-1.23686 1.88337 0.715009
-1.23678 1.88255 0.706899
-1.23346 1.88242 0.699055
-1.2331 1.88166 0.690979
-1.22926 1.88165 0.68318
-1.2252 1.88168 0.675399
-1.22416 1.88107 0.667387
-1.21986 1.88116 0.659626
-1.21488 1.88139 0.651915
-1.20953 1.8817 0.644228
-1.20381 1.88209 0.636565
-1.19774 1.88256 0.628925
-1.19131 1.8831 0.621305
-1.18453 1.88371 0.613706
-1.1774 1.8844 0.606125
-1.16994 1.88516 0.598561
-1.16214 1.88599 0.591013
-1.15178 1.88737 0.583626
-1.13734 1.88961 0.576493
-1.12829 1.89071 0.568996
-1.10987 1.8938 0.562082
-1.09038 1.89711 0.555207
-1.05963 1.90282 0.548996
-1.05719 1.96245 1.00718
-1.08804 1.9548 0.995204
-1.11138 1.9488 0.984126
-1.12989 1.94387 0.97363
-1.14134 1.94048 0.963945
-1.15604 1.93639 0.95394
-1.16667 1.93319 0.944405
-1.17401 1.93071 0.935246
-1.18427 1.9276 0.925802
-1.19093 1.92528 0.91676
-1.1974 1.923 0.907757
-1.20367 1.92077 0.898795
-1.20972 1.91858 0.889873
-1.21555 1.91645 0.880993
-1.21812 1.91503 0.872455
-1.22359 1.91298 0.863645
-1.2288 1.91098 0.854878
-1.23104 1.90964 0.846413
-1.23584 1.90774 0.837716
-1.24035 1.9059 0.829064
-1.24114 1.90488 0.820775
-1.24288 1.90365 0.812407
-1.24321 1.90272 0.804179
-1.24471 1.90155 0.795852
-1.24797 1.89999 0.787378
-1.24923 1.89887 0.779095
-1.24858 1.89816 0.77099
-1.24958 1.89709 0.762746
-1.24842 1.8965 0.7547
-1.24916 1.89549 0.746495
-1.24747 1.89502 0.738504
-1.24883 1.89388 0.730263
-1.24572 1.89371 0.722401
-1.24653 1.89269 0.71422
-1.24314 1.89258 0.706386
-1.2434 1.89168 0.698262
-1.23975 1.89163 0.690455
-1.23605 1.89159 0.682651
-1.23552 1.89086 0.674604
-1.23127 1.89094 0.666847
-1.22706 1.89101 0.659085
-1.22506 1.8906 0.651159
-1.22048 1.89075 0.643425
-1.21495 1.8911 0.635759
-1.2101 1.89131 0.628042
-1.20402 1.89178 0.620409
-1.19759 1.89232 0.612797
-1.19081 1.89294 0.605204
-1.18368 1.89363 0.597629
-1.17431 1.89481 0.590199
-1.16635 1.89568 0.582665
-1.15236 1.89784 0.575516
-1.14362 1.89888 0.568013
-1.12575 1.90187 0.561077
-1.10679 1.9051 0.554185
-1.08681 1.90854 0.547327
-1.04105 1.91749 0.542
-1.03319 1.97957 1.00988
-1.08272 1.96775 0.995799
-1.11015 1.96081 0.984263
-1.12527 1.95659 0.974137
-1.14028 1.9524 0.964061
-1.15559 1.94815 0.953988
-1.16628 1.94492 0.944446
-1.17716 1.94165 0.934912
-1.18406 1.93926 0.925824
-1.19425 1.93615 0.916414
-1.20081 1.93383 0.907405
-1.20718 1.93157 0.898436
-1.21334 1.92934 0.889507
-1.21928 1.92717 0.880619
-1.22499 1.92506 0.871773
-1.2275 1.92364 0.86326
-1.23284 1.92161 0.854484
-1.23791 1.91964 0.845751
-1.24009 1.9183 0.83731
-1.24474 1.91642 0.828648
-1.24567 1.91536 0.82035
-1.24749 1.91411 0.811979
-1.25139 1.9124 0.803428
-1.25155 1.91151 0.795231
-1.25298 1.91034 0.786928
-1.25433 1.90919 0.778641
-1.25725 1.9077 0.770226
-1.25642 1.90703 0.762151
-1.25734 1.90598 0.75393
-1.25599 1.90543 0.745912
-1.25665 1.90443 0.737729
-1.25477 1.90399 0.729767
-1.25516 1.90306 0.721621
-1.25274 1.90274 0.713713
-1.25286 1.90187 0.705602
-1.2499 1.90167 0.697745
-1.24656 1.90154 0.689918
-1.24622 1.90077 0.681859
-1.24238 1.90076 0.674077
-1.24172 1.90006 0.666052
-1.2376 1.90011 0.658293
-1.23297 1.90027 0.650572
-1.22798 1.90051 0.642876
-1.22604 1.90009 0.634957
-1.22128 1.90028 0.627243
-1.21538 1.90071 0.619608
-1.20912 1.90123 0.611994
-1.20251 1.90181 0.6044
-1.19556 1.90248 0.596824
-1.18826 1.90321 0.589266
-1.18063 1.90402 0.581723
-1.16711 1.90609 0.574557
-1.15629 1.90759 0.5672
-1.14139 1.90996 0.560088
-1.12926 1.91173 0.552784
-1.11003 1.91503 0.545901
-1.07963 1.92073 0.539665
-1.07053 1.98224 0.997159
-1.10137 1.9745 0.985234
-1.12411 1.96857 0.974265
-1.13975 1.96421 0.964119
-1.15465 1.96003 0.95409
-1.16588 1.95666 0.944489
-1.17999 1.95265 0.934612
-1.18729 1.95016 0.925485
-1.19757 1.94701 0.916069
-1.20421 1.94466 0.907054
-1.21067 1.94236 0.898079
-1.21694 1.9401 0.889143
-1.22299 1.9379 0.880247
-1.22881 1.93574 0.871394
-1.23139 1.9343 0.862877
-1.23685 1.93223 0.854093
-1.24205 1.93022 0.845351
-1.24431 1.92886 0.836907
-1.2491 1.92694 0.828236
-1.25015 1.92584 0.81993
-1.25206 1.92456 0.811555
-1.25611 1.92281 0.802994
-1.25779 1.92158 0.794664
-1.25793 1.92069 0.786482
-1.26119 1.91912 0.77803
-1.26246 1.91798 0.769767
-1.26178 1.91728 0.761683
-1.2628 1.9162 0.753459
-1.26504 1.91485 0.74514
-1.26237 1.91458 0.737247
-1.26408 1.91335 0.72899
-1.26114 1.91315 0.721128
-1.26232 1.91204 0.712931
-1.25911 1.91189 0.705097
-1.25975 1.9109 0.696959
-1.25659 1.91074 0.689128
-1.25292 1.91069 0.681337
-1.25264 1.90991 0.673287
-1.2487 1.90992 0.665521
-1.24467 1.90995 0.657762
-1.24365 1.90932 0.64978
-1.23883 1.90953 0.64208
-1.23435 1.90966 0.634356
-1.22898 1.90998 0.626692
-1.22326 1.91038 0.619052
-1.21718 1.91086 0.611433
-1.21276 1.91097 0.603696
-1.20396 1.91204 0.596254
-1.19684 1.91274 0.588692
-1.18937 1.91352 0.581147
-1.17951 1.91482 0.57375
-1.17124 1.91577 0.566241
-1.15677 1.91806 0.559116
-1.14507 1.91975 0.551799
-1.12638 1.92295 0.544897
-1.10665 1.92638 0.538031
-1.0756 1.93226 0.531811
-1.04661 1.99938 0.999831
-1.09264 1.9882 0.986201
-1.12353 1.98042 0.974328
-1.13866 1.97615 0.964237
-1.15368 1.97191 0.954195
-1.16894 1.96762 0.944162
-1.17965 1.96435 0.934648
-1.19024 1.96111 0.925175
-1.1974 1.95863 0.916086
-1.2076 1.95548 0.906705
-1.21415 1.95315 0.897723
-1.22051 1.95086 0.888781
-1.22667 1.94861 0.879878
-1.2326 1.94642 0.871017
-1.23525 1.94496 0.862498
-1.24083 1.94285 0.853705
-1.24615 1.9408 0.844955
-1.24849 1.93941 0.836508
-1.25341 1.93745 0.827827
-1.25805 1.93556 0.81919
-1.25895 1.93449 0.810916
-1.26078 1.93322 0.802565
-1.26254 1.93197 0.794232
-1.26628 1.93028 0.785731
-1.26625 1.92942 0.77758
-1.26761 1.92826 0.769313
-1.27053 1.92676 0.76092
-1.2682 1.92641 0.752994
-1.27061 1.92502 0.744665
-1.26802 1.92473 0.73677
-1.26991 1.92346 0.728504
-1.26801 1.92302 0.720561
-1.26842 1.92208 0.712433
-1.26598 1.92176 0.704544
-1.26612 1.92087 0.696451
-1.26313 1.92068 0.688612
-1.263 1.91985 0.680553
-1.25946 1.91978 0.672762
-1.25561 1.91977 0.664995
-1.25511 1.91903 0.656978
-1.25084 1.91911 0.649246
-1.2462 1.91928 0.64154
-1.24524 1.91864 0.633567
-1.24006 1.91892 0.625901
-1.23451 1.91929 0.618258
-1.2286 1.91973 0.610638
-1.22234 1.92025 0.603037
-1.21573 1.92085 0.595456
-1.20878 1.92152 0.587894
-1.20149 1.92226 0.580348
-1.19386 1.92308 0.572817
-1.18591 1.92397 0.565301
-1.1719 1.92618 0.55816
-1.16064 1.92778 0.550829
-1.14529 1.93028 0.543735
-1.12633 1.93356 0.53684
-1.10307 1.93777 0.530174
-1.084 2.00191 0.987158
-1.11483 1.99409 0.975283
-1.13758 1.98808 0.964355
-1.15318 1.98369 0.954249
-1.16809 1.97946 0.944253
-1.17929 1.97605 0.934686
-1.18995 1.97278 0.925206
-1.20069 1.96949 0.915744
-1.2075 1.96708 0.906715
-1.21762 1.96393 0.897369
-1.22407 1.9616 0.88842
-1.23033 1.95933 0.879511
-1.23637 1.9571 0.870643
-1.23908 1.95561 0.862121
-1.24478 1.95347 0.85332
-1.25023 1.95138 0.844562
-1.25542 1.94934 0.835845
-1.25769 1.94796 0.827422
-1.26247 1.94603 0.818776
-1.2635 1.94493 0.810494
-1.26541 1.94363 0.80214
-1.26946 1.94186 0.793603
-1.27115 1.94062 0.785293
-1.27472 1.93896 0.776825
-1.27271 1.93854 0.768864
-1.2758 1.93699 0.760461
-1.2751 1.93628 0.752399
-1.27613 1.93519 0.744194
-1.27708 1.93411 0.736006
-1.27569 1.93356 0.728022
-1.27637 1.93255 0.719871
-1.27446 1.93211 0.711941
-1.27488 1.93116 0.703826
-1.27242 1.93084 0.695948
-1.27306 1.92984 0.68783
-1.26957 1.92976 0.68004
-1.26966 1.92888 0.671977
-1.2659 1.92885 0.664213
-1.26206 1.92885 0.656456
-1.26141 1.92814 0.648462
-1.25695 1.92826 0.640753
-1.25264 1.92836 0.633032
-1.24764 1.92861 0.62536
-1.24571 1.92818 0.617468
-1.23998 1.92859 0.609845
-1.23504 1.92882 0.602165
-1.22878 1.92934 0.594572
-1.22217 1.92995 0.586998
-1.21522 1.93062 0.579442
-1.20609 1.93177 0.572021
-1.1983 1.93263 0.564505
-1.18452 1.9348 0.557361
-1.17595 1.93583 0.549875
-1.16103 1.93825 0.542769
-1.14892 1.94005 0.535474
-1.1297 1.9434 0.528587
-1.08891 1.95148 0.522938
-1.04886 2.02162 0.991048
-1.10617 2.00777 0.976235
-1.13299 2.00081 0.964854
-1.15217 1.99559 0.954357
-1.16719 1.9913 0.944349
-1.18203 1.98706 0.934396
-1.19314 1.98366 0.92487
-1.20374 1.98038 0.915426
-1.21086 1.97789 0.906369
-1.21758 1.97549 0.897373
-1.22762 1.97235 0.888062
-1.23397 1.97003 0.879146
-1.24012 1.96777 0.870271
-1.24289 1.96626 0.861746
-1.2487 1.96408 0.852938
-1.25427 1.96195 0.844171
-1.25958 1.95988 0.835447
-1.26193 1.95847 0.827021
-1.26685 1.95649 0.818366
-1.26899 1.95514 0.809985
-1.27348 1.95326 0.801399
-1.27419 1.95223 0.793172
-1.27596 1.95096 0.784859
-1.2797 1.94925 0.776382
-1.27964 1.94839 0.768254
-1.28101 1.94722 0.760007
-1.2823 1.94606 0.751777
-1.28159 1.94535 0.743729
-1.284 1.94395 0.735422
-1.28487 1.94289 0.727256
-1.28329 1.94237 0.7193
-1.2839 1.94137 0.711171
-1.28179 1.94098 0.703268
-1.28213 1.94004 0.695174
-1.27948 1.93977 0.687323
-1.27955 1.93889 0.679263
-1.27636 1.93874 0.671461
-1.27281 1.93867 0.663688
-1.27242 1.93789 0.655678
-1.26848 1.93791 0.647937
-1.26419 1.938 0.640222
-1.26344 1.93731 0.632251
-1.2586 1.93752 0.624576
-1.25341 1.93781 0.616925
-1.24786 1.93819 0.609297
-1.24195 1.93864 0.601691
-1.23914 1.9384 0.59387
-1.23394 1.9387 0.586211
-1.22715 1.93934 0.578655
-1.22003 1.94006 0.571115
-1.2072 1.94203 0.563935
-1.19925 1.94293 0.55643
-1.19099 1.9439 0.548937
-1.17399 1.94679 0.541974
-1.16483 1.94795 0.534511
-1.14614 1.95121 0.527608
-1.12642 1.9547 0.520737
-1.07402 1.96538 0.515726
-1.09759 2.02146 0.977176
-1.12841 2.01355 0.965353
-1.14764 2.00828 0.954846
-1.16673 2.00305 0.944398
-1.18164 1.99877 0.934437
-1.19282 1.99534 0.924904
-1.2035 1.99202 0.915452
-1.21404 1.98874 0.906041
-1.22101 1.98627 0.897022
-1.22764 1.98387 0.888059
-1.23759 1.98073 0.878783
-1.24053 1.97918 0.87023
-1.24667 1.97691 0.861374
-1.25259 1.97468 0.852558
-1.25828 1.97252 0.843784
-1.26372 1.9704 0.835052
-1.26614 1.96898 0.826623
-1.27119 1.96696 0.817959
-1.27596 1.965 0.809338
-1.27803 1.96366 0.800981
-1.28237 1.9618 0.792429
-1.28074 1.96129 0.78443
-1.28462 1.95954 0.775944
-1.28471 1.95865 0.767807
-1.28617 1.95745 0.759557
-1.28926 1.95588 0.751178
-1.29047 1.95474 0.742971
-1.28957 1.95407 0.734952
-1.29053 1.95298 0.726783
-1.28912 1.95243 0.718819
-1.28982 1.9514 0.710687
-1.29136 1.95019 0.702496
-1.28832 1.95 0.694681
-1.28932 1.94891 0.686548
-1.28601 1.94878 0.67876
-1.283 1.94859 0.67095
-1.28289 1.94775 0.662921
-1.27933 1.94768 0.655158
-1.27887 1.94692 0.647166
-1.27484 1.94696 0.639442
-1.27071 1.94702 0.631724
-1.269 1.94654 0.623834
-1.26451 1.94667 0.616143
-1.25993 1.94683 0.608457
-1.25437 1.94721 0.600837
-1.24846 1.94766 0.593238
-1.24219 1.9482 0.585659
-1.23558 1.94881 0.578099
-1.22862 1.94949 0.570556
-1.22133 1.95025 0.563029
-1.21371 1.95108 0.555516
-1.20361 1.95246 0.548151
-1.18935 1.95477 0.54103
-1.18049 1.95587 0.533564
-1.16234 1.95903 0.526642
-1.14313 1.96243 0.519757
-1.11274 1.96829 0.513489
-1.06254 2.04122 0.981024
-1.11981 2.02722 0.966288
-1.14664 2.02019 0.954954
-1.16581 2.01491 0.944497
-1.18083 2.01058 0.934524
-1.19214 2.00709 0.924976
-1.20323 2.00366 0.91548
-1.21384 2.00035 0.906061
-1.22443 1.99704 0.896673
-1.23115 1.99461 0.887704
-1.23775 1.99222 0.878767
-1.24419 1.98986 0.869866
-1.25043 1.98755 0.861004
-1.25997 1.98449 0.851839
-1.26226 1.98308 0.8434
-1.26783 1.98093 0.834659
-1.27031 1.97948 0.826228
-1.27549 1.97742 0.817556
-1.2804 1.97542 0.808926
-1.28255 1.97405 0.800566
-1.28703 1.97215 0.792005
-1.28772 1.97112 0.783802
-1.2895 1.96983 0.775509
-1.29323 1.96811 0.767056
-1.29478 1.96688 0.758807
-1.29453 1.96606 0.750723
-1.29583 1.96489 0.742513
-1.29858 1.96339 0.734192
-1.29615 1.96307 0.726315
-1.29838 1.96169 0.718055
-1.29569 1.96142 0.710208
-1.2974 1.96017 0.702009
-1.29445 1.95996 0.694192
-1.29563 1.95882 0.686051
-1.29297 1.95855 0.678218
-1.29305 1.95766 0.670177
-1.28984 1.95751 0.662392
-1.28965 1.95669 0.654383
-1.2859 1.95666 0.646644
-1.28196 1.95668 0.63892
-1.2814 1.95594 0.63095
-1.27692 1.95608 0.623267
-1.27208 1.95629 0.615609
-1.26759 1.95643 0.607924
-1.26569 1.956 0.60006
-1.25995 1.95642 0.592459
-1.25386 1.95691 0.584879
-1.24741 1.95749 0.577318
-1.24063 1.95814 0.569775
-1.2335 1.95887 0.562248
-1.22605 1.95967 0.554736
-1.21827 1.96054 0.547238
-1.20446 1.96276 0.540102
-1.19345 1.96435 0.53278
-1.1783 1.96686 0.525691
-1.15961 1.97016 0.518789
-1.13991 1.97369 0.51192
-1.10888 1.97973 0.505665
-1.11131 2.04089 0.967214
-1.14211 2.0329 0.955442
-1.16133 2.02758 0.944975
-1.18041 2.02229 0.934568
-1.19141 2.01886 0.925052
-1.20647 2.0145 0.915142
-1.21716 2.01115 0.905719
-1.22772 2.00783 0.896337
-1.23464 2.00534 0.88735
-1.2413 2.00292 0.878411
-1.24784 2.00053 0.869504
-1.25418 1.99818 0.860635
-1.26383 1.99508 0.851463
-1.26622 1.99364 0.843018
-1.2719 1.99145 0.83427
-1.27445 1.98997 0.825836
-1.27976 1.98787 0.817156
-1.2848 1.98584 0.808518
-1.28703 1.98444 0.800155
-1.29165 1.9825 0.791586
-1.29247 1.98143 0.783374
-1.29434 1.98012 0.775079
-1.29822 1.97835 0.766617
-1.29985 1.9771 0.758365
-1.30326 1.97544 0.749971
-1.30114 1.97504 0.742061
-1.30406 1.9735 0.73373
-1.3017 1.97316 0.725851
-1.30411 1.97173 0.717582
-1.30267 1.97118 0.709639
-1.30339 1.97014 0.701526
-1.30401 1.96912 0.693429
-1.30188 1.96873 0.685558
-1.30224 1.96777 0.677496
-1.29956 1.9675 0.669675
-1.29653 1.96732 0.661884
-1.29644 1.96646 0.653873
-1.29286 1.9664 0.646128
-1.2925 1.96561 0.638147
-1.28855 1.96563 0.630433
-1.28425 1.96573 0.622744
-1.28352 1.96502 0.614801
-1.27867 1.96525 0.607152
-1.27347 1.96555 0.599525
-1.2679 1.96593 0.59192
-1.26198 1.9664 0.584336
-1.26045 1.96587 0.576458
-1.25401 1.96645 0.568905
-1.24722 1.96711 0.561368
-1.2401 1.96784 0.553848
-1.22724 1.96986 0.546679
-1.2193 1.97078 0.539191
-1.20874 1.97228 0.531855
-1.19402 1.97471 0.524754
-1.18216 1.9765 0.517466
-1.16321 1.97987 0.510573
-1.1365 1.98499 0.504095
-1.09041 1.99443 0.498659
-1.13359 2.04656 0.956362
-1.15639 2.04037 0.945504
-1.17558 2.03503 0.93508
-1.19103 2.03055 0.925092
-1.20587 2.02622 0.915204
-1.21694 2.02276 0.905742
-1.22757 2.0194 0.896352
-1.23806 2.01608 0.887004
-1.24485 2.01361 0.878055
-1.25147 2.01119 0.869143
-1.2579 2.00881 0.860269
-1.26767 2.00566 0.851088
-1.27016 2.00419 0.842638
-1.27595 2.00197 0.833883
-1.27857 2.00047 0.825446
-1.284 1.99833 0.816759
-1.28917 1.99625 0.808113
-1.29147 1.99483 0.799747
-1.29623 1.99285 0.791169
-1.29718 1.99174 0.782951
-1.29913 1.9904 0.774653
-1.30316 1.98859 0.766182
-1.30488 1.98731 0.757927
-1.30844 1.98561 0.749524
-1.30816 1.98479 0.741462
-1.30948 1.9836 0.733272
-1.31071 1.98244 0.725099
-1.30978 1.98177 0.717115
-1.31076 1.98066 0.708979
-1.30931 1.98011 0.701048
-1.31003 1.97907 0.692949
-1.31157 1.97784 0.684794
-1.30924 1.97749 0.67695
-1.30952 1.97655 0.668909
-1.30666 1.97632 0.661114
-1.30316 1.97624 0.653368
-1.30326 1.97534 0.645356
-1.29949 1.97532 0.637635
-1.29905 1.97454 0.629673
-1.29501 1.97459 0.621975
-1.29052 1.97473 0.614308
-1.28917 1.97416 0.606421
-1.28468 1.97431 0.598755
-1.27929 1.97465 0.591148
-1.27453 1.97486 0.583497
-1.26861 1.97532 0.57592
-1.26234 1.97587 0.568363
-1.25572 1.97649 0.560823
-1.24876 1.97719 0.5533
-1.24147 1.97797 0.545791
-1.23186 1.97927 0.53842
-1.22377 1.98022 0.530945
-1.20949 1.98257 0.523832
-1.19806 1.98427 0.516533
-1.18249 1.98691 0.509459
-1.16328 1.99036 0.502571
-1.13291 1.99632 0.49628
-1.11362 2.06289 0.958515
-1.15192 2.05307 0.945982
-1.17515 2.04676 0.935125
-1.19026 2.04233 0.925173
-1.20522 2.03795 0.915272
-1.21643 2.03443 0.905794
-1.2272 2.03103 0.89639
-1.23797 2.02762 0.887014
-1.24839 2.0243 0.8777
-1.25509 2.02184 0.868783
-1.26161 2.01943 0.859903
-1.26794 2.01706 0.851062
-1.27407 2.01474 0.84226
-1.27997 2.01248 0.833498
-1.28265 2.01096 0.825059
-1.2882 2.00878 0.816365
-1.2935 2.00666 0.807711
-1.29587 2.00521 0.799343
-1.30077 2.00319 0.790757
-1.30538 2.00123 0.782213
-1.30741 1.99987 0.773915
-1.30805 1.99883 0.76575
-1.30985 1.99752 0.757493
-1.31357 1.99578 0.749081
-1.31344 1.99492 0.741011
-1.31485 1.99371 0.732819
-1.31617 1.99251 0.724643
-1.31892 1.991 0.71636
-1.31779 1.99037 0.708405
-1.3187 1.98928 0.700291
-1.31706 1.98877 0.692389
-1.31771 1.98774 0.684311
-1.31555 1.98735 0.676459
-1.31592 1.98638 0.668416
-1.31323 1.98611 0.660614
-1.31334 1.98521 0.652603
-1.3101 1.98506 0.644848
-1.30994 1.98422 0.636869
-1.30617 1.9842 0.629158
-1.30221 1.98423 0.62146
-1.30169 1.98347 0.61352
-1.29719 1.98361 0.605863
-1.29233 1.98384 0.598229
-1.28712 1.98415 0.590618
-1.28596 1.98354 0.582732
-1.28021 1.98397 0.575155
-1.27411 1.98448 0.567597
-1.26766 1.98507 0.560057
-1.26088 1.98574 0.552534
-1.25376 1.98648 0.545026
-1.2463 1.9873 0.537533
-1.23853 1.98819 0.530052
-1.2247 1.99045 0.522926
-1.2137 1.99206 0.515615
-1.19855 1.99462 0.508531
-1.1863 1.99652 0.501262
-1.16017 2.00156 0.494755
-1.12564 2.00849 0.488669
-1.14348 2.0667 0.946884
-1.1703 2.05952 0.935639
-1.18947 2.05412 0.925255
-1.20489 2.0496 0.915307
-1.21945 2.04529 0.905483
-1.23077 2.04174 0.896026
-1.24128 2.03837 0.886678
-1.24835 2.03581 0.877704
-1.2587 2.03249 0.868424
-1.26531 2.03004 0.85954
-1.27173 2.02764 0.850693
-1.27796 2.02529 0.841885
-1.28397 2.02298 0.833116
-1.28671 2.02144 0.824675
-1.29238 2.01922 0.815973
-1.2978 2.01706 0.807312
-1.30024 2.01559 0.798941
-1.30527 2.01353 0.790348
-1.31002 2.01153 0.781795
-1.31213 2.01014 0.773495
-1.31645 2.00825 0.765011
-1.31693 2.00724 0.756877
-1.31866 2.00594 0.748643
-1.32031 2.00467 0.740426
-1.32017 2.00381 0.73237
-1.32324 2.00221 0.724054
-1.32449 2.00103 0.715901
-1.32352 2.00036 0.707937
-1.32452 1.99924 0.699822
-1.32304 1.99869 0.691912
-1.32378 1.99763 0.683832
-1.32532 1.99639 0.675698
-1.32226 1.99621 0.667928
-1.32326 1.99509 0.659851
-1.31994 1.99497 0.652107
-1.32041 1.99398 0.644084
-1.31682 1.99392 0.636365
-1.31674 1.99305 0.628393
-1.31288 1.99305 0.620698
-1.30893 1.99308 0.61301
-1.30775 1.99246 0.605127
-1.30344 1.99257 0.597466
-1.29904 1.9927 0.589809
-1.29382 1.99301 0.582207
-1.28824 1.99341 0.574625
-1.28584 1.99308 0.566834
-1.28082 1.99334 0.559213
-1.27437 1.99394 0.551681
-1.26758 1.99461 0.544164
-1.2587 1.99576 0.536771
-1.24757 1.99742 0.529506
-1.23749 1.99884 0.522164
-1.2291 1.99987 0.514712
-1.21436 2.00235 0.507618
-1.20252 2.00417 0.500339
-1.18358 2.0076 0.493445
-1.15686 2.0128 0.48695
-1.12759 2.08211 0.948583
-1.16189 2.07313 0.93653
-1.1851 2.06675 0.925715
-1.20419 2.06135 0.915379
-1.21916 2.05691 0.905513
-1.23034 2.05337 0.896069
-1.24113 2.04992 0.886694
-1.25186 2.04649 0.877351
-1.25872 2.04397 0.868422
-1.26899 2.04065 0.859177
-1.27551 2.03821 0.850325
-1.28183 2.03582 0.841511
-1.28794 2.03349 0.832736
-1.29075 2.03192 0.824293
-1.29653 2.02966 0.815584
-1.30207 2.02746 0.806916
-1.30736 2.02532 0.798288
-1.30974 2.02386 0.789941
-1.31463 2.02182 0.781381
-1.31681 2.02041 0.773079
-1.32127 2.01847 0.764586
-1.32188 2.01743 0.756445
-1.32369 2.01611 0.748208
-1.3274 2.01435 0.73982
-1.32898 2.01308 0.731626
-1.32867 2.01226 0.723601
-1.33 2.01105 0.715445
-1.33274 2.00952 0.707185
-1.33028 2.0092 0.699357
-1.33251 2.00779 0.691157
-1.3298 2.00752 0.683358
-1.33151 2.00624 0.675216
-1.32854 2.00603 0.667445
-1.32972 2.00487 0.65936
-1.32648 2.00473 0.651616
-1.32713 2.00369 0.643585
-1.32388 2.00355 0.635848
-1.32373 2.0027 0.627887
-1.31996 2.00268 0.620192
-1.31953 2.00189 0.612262
-1.31548 2.00194 0.604589
-1.31097 2.00209 0.596949
-1.30964 2.00151 0.589091
-1.30515 2.00166 0.581449
-1.29974 2.00202 0.573867
-1.29399 2.00246 0.566304
-1.28788 2.00298 0.55876
-1.28278 2.00327 0.551149
-1.27616 2.00391 0.54363
-1.26752 2.00501 0.53623
-1.26008 2.00583 0.528749
-1.25231 2.00673 0.521281
-1.24423 2.0077 0.513824
-1.22993 2.0101 0.506719
-1.21851 2.01183 0.49943
-1.20294 2.01451 0.492361
-1.18065 2.01873 0.485641
-1.14996 2.02486 0.479341
-1.14993 2.0876 0.937798
-1.18072 2.07939 0.926175
-1.19989 2.07394 0.915827
-1.21886 2.06854 0.905544
-1.22986 2.06502 0.896118
-1.24096 2.06148 0.886711
-1.25169 2.05803 0.877369
-1.26231 2.05461 0.868066
-1.26914 2.05208 0.859163
-1.27583 2.04959 0.850294
-1.28234 2.04714 0.841462
-1.28865 2.04474 0.832668
-1.29476 2.04239 0.823913
-1.30065 2.0401 0.815198
-1.30631 2.03786 0.806522
-1.31172 2.03568 0.797887
-1.31417 2.03419 0.789538
-1.31919 2.03211 0.780971
-1.32145 2.03068 0.772665
-1.32605 2.02869 0.764165
-1.3268 2.02761 0.756016
-1.32869 2.02627 0.747777
-1.33255 2.02446 0.739381
-1.33421 2.02317 0.731185
-1.33404 2.02231 0.723152
-1.33547 2.02107 0.714994
-1.33837 2.0195 0.706726
-1.33599 2.01915 0.698896
-1.33839 2.0177 0.690688
-1.33931 2.01659 0.682608
-1.33764 2.01608 0.674738
-1.33831 2.01503 0.666693
-1.33611 2.01464 0.658873
-1.33651 2.01366 0.650862
-1.33379 2.0134 0.643091
-1.33392 2.01247 0.635112
-1.33066 2.01234 0.627385
-1.33053 2.01148 0.619437
-1.32675 2.01146 0.611752
-1.32277 2.0115 0.604082
-1.32198 2.01079 0.596192
-1.31776 2.01088 0.588541
-1.31288 2.01112 0.580932
-1.30765 2.01144 0.573345
-1.30653 2.01081 0.565488
-1.30077 2.01126 0.557934
-1.29466 2.01178 0.550398
-1.28821 2.01238 0.542879
-1.28142 2.01306 0.535376
-1.2743 2.01382 0.527888
-1.26685 2.01465 0.520414
-1.25909 2.01556 0.512952
-1.24523 2.01786 0.505834
-1.23425 2.0195 0.498535
-1.21909 2.02211 0.491457
-1.20687 2.02403 0.484197
-1.18072 2.02916 0.477675
-1.14623 2.0362 0.471558
-1.14168 2.10121 0.938671
-1.17237 2.09299 0.927052
-1.19917 2.0857 0.915902
-1.21432 2.08117 0.906012
-1.22961 2.07662 0.896144
-1.24057 2.07309 0.88675
-1.25157 2.06956 0.877381
-1.26224 2.0661 0.868072
-1.27277 2.06269 0.858805
-1.27954 2.06016 0.849932
-1.28614 2.05768 0.841095
-1.29255 2.05525 0.832296
-1.29876 2.05286 0.823535
-1.30475 2.05053 0.814814
-1.31052 2.04825 0.806131
-1.31605 2.04603 0.797489
-1.31857 2.04452 0.789138
-1.32372 2.0424 0.780563
-1.32605 2.04094 0.772256
-1.33079 2.03891 0.763747
-1.33167 2.03779 0.755592
-1.33364 2.03642 0.747351
-1.33765 2.03457 0.738946
-1.3394 2.03325 0.730748
-1.34294 2.03152 0.722409
-1.34088 2.0311 0.714548
-1.34395 2.02947 0.706271
-1.34521 2.02827 0.698152
-1.34421 2.02761 0.690224
-1.34523 2.02647 0.682141
-1.34728 2.02509 0.673987
-1.34448 2.02484 0.666218
-1.34601 2.02359 0.658121
-1.34294 2.0234 0.650379
-1.34395 2.02227 0.642337
-1.34062 2.02215 0.634621
-1.34109 2.02115 0.626631
-1.33749 2.02109 0.61894
-1.33386 2.02104 0.611251
-1.33355 2.02022 0.603331
-1.32939 2.0203 0.595683
-1.32842 2.01963 0.587818
-1.32411 2.01974 0.580181
-1.31971 2.01987 0.57255
-1.31447 2.0202 0.564972
-1.30888 2.02061 0.557413
-1.3065 2.02027 0.549649
-1.30022 2.02084 0.542131
-1.2936 2.02148 0.534629
-1.28664 2.02221 0.527142
-1.27936 2.02301 0.519669
-1.26819 2.0247 0.512417
-1.25812 2.02615 0.505089
-1.24974 2.0272 0.497654
-1.23499 2.02972 0.490567
-1.22318 2.03156 0.483298
-1.20424 2.03505 0.476401
-1.17421 2.0411 0.470068
-1.16408 2.1066 0.927923
-1.19485 2.09831 0.916351
-1.214 2.09281 0.906045
-1.22907 2.08828 0.896199
-1.24036 2.08466 0.886772
-1.25504 2.08023 0.877032
-1.26579 2.07674 0.86772
-1.27278 2.07414 0.858804
-1.28324 2.07073 0.849571
-1.28992 2.06821 0.84073
-1.29642 2.06574 0.831926
-1.30273 2.06332 0.823159
-1.30883 2.06095 0.814432
-1.31471 2.05864 0.805743
-1.32035 2.05638 0.797094
-1.32294 2.05485 0.788741
-1.32822 2.05268 0.780158
-1.33062 2.05119 0.771849
-1.33549 2.04913 0.763333
-1.3365 2.04797 0.755171
-1.33855 2.04658 0.746927
-1.34271 2.04468 0.738515
-1.34454 2.04334 0.730314
-1.34823 2.04155 0.721968
-1.34804 2.04069 0.713957
-1.34947 2.03945 0.70582
-1.35083 2.03822 0.697699
-1.35356 2.03667 0.689478
-1.35109 2.03635 0.68168
-1.35331 2.03492 0.673518
-1.35162 2.03441 0.665669
-1.35229 2.03335 0.657643
-1.35008 2.03297 0.649843
-1.35049 2.03197 0.641851
-1.34775 2.03171 0.634098
-1.3479 2.03078 0.626138
-1.34462 2.03065 0.61843
-1.3445 2.02978 0.6105
-1.34072 2.02976 0.602832
-1.3403 2.02896 0.594934
-1.33625 2.02902 0.587287
-1.33172 2.02918 0.579672
-1.3304 2.02859 0.571844
-1.32591 2.02875 0.564227
-1.32049 2.02912 0.556669
-1.31473 2.02957 0.549129
-1.30861 2.0301 0.541608
-1.30216 2.03071 0.534103
-1.29537 2.0314 0.526614
-1.28825 2.03217 0.519139
-1.28081 2.03301 0.511677
-1.27304 2.03393 0.504227
-1.26497 2.03491 0.496788
-1.25065 2.03735 0.48969
-1.23926 2.03911 0.482413
-1.22084 2.0425 0.475503
-1.20141 2.04612 0.468619
-1.17074 2.05235 0.462297
-1.14445 2.12294 0.929984
-1.18657 2.11189 0.917213
-1.20941 2.10547 0.906518
-1.22488 2.10082 0.896627
-1.2399 2.09628 0.886818
-1.25474 2.09179 0.877063
-1.26571 2.08823 0.867728
-1.2764 2.08474 0.858448
-1.28332 2.08215 0.849564
-1.2937 2.07874 0.840365
-1.30028 2.07624 0.831557
-1.30669 2.07378 0.822785
-1.31289 2.07137 0.814052
-1.31887 2.06902 0.805357
-1.32165 2.06743 0.796976
-1.32729 2.06516 0.788346
-1.33268 2.06296 0.779757
-1.33515 2.06145 0.771445
-1.34016 2.05934 0.762922
-1.34489 2.05729 0.754439
-1.34702 2.05587 0.746197
-1.35132 2.05393 0.73778
-1.34963 2.05342 0.729885
-1.35348 2.05159 0.72153
-1.35516 2.05028 0.713369
-1.35495 2.04942 0.705374
-1.35639 2.04816 0.697251
-1.35928 2.04657 0.689022
-1.35825 2.0459 0.681115
-1.35928 2.04475 0.673052
-1.35775 2.0442 0.665197
-1.35852 2.04311 0.657169
-1.35921 2.04204 0.649157
-1.35698 2.04166 0.64137
-1.3574 2.04066 0.633391
-1.35465 2.0404 0.62565
-1.35481 2.03946 0.617702
-1.35152 2.03934 0.610006
-1.35141 2.03846 0.602088
-1.34763 2.03845 0.59443
-1.34362 2.03849 0.586787
-1.34285 2.03777 0.578928
-1.33862 2.03787 0.571302
-1.33373 2.03812 0.563719
-1.32848 2.03845 0.556156
-1.32739 2.03781 0.548328
-1.32162 2.03826 0.540797
-1.31551 2.0388 0.533283
-1.30905 2.03942 0.525786
-1.30226 2.04011 0.518304
-1.29514 2.04088 0.510836
-1.2877 2.04173 0.503381
-1.27786 2.04313 0.496055
-1.26606 2.045 0.488828
-1.2551 2.04667 0.481541
-1.23992 2.04932 0.474469
-1.22773 2.05127 0.467218
-1.19838 2.05723 0.460849
-1.16712 2.06363 0.454534
-1.17048 2.12737 0.918888
-1.20118 2.11902 0.907367
-1.22431 2.1125 0.896686
-1.23942 2.10792 0.886867
-1.25457 2.10333 0.87708
-1.2655 2.09975 0.867748
-1.27637 2.0962 0.858451
-1.28699 2.09271 0.849205
-1.29383 2.09013 0.840353
-1.30414 2.08672 0.831189
-1.31063 2.08423 0.822412
-1.31692 2.08179 0.813673
-1.32301 2.07939 0.804973
-1.32585 2.07779 0.79659
-1.3316 2.07548 0.787954
-1.33712 2.07323 0.779358
-1.33965 2.0717 0.771044
-1.34479 2.06955 0.762514
-1.34965 2.06746 0.754024
-1.35186 2.06601 0.745779
-1.3563 2.06403 0.737355
-1.35684 2.06298 0.729276
-1.35868 2.06162 0.721097
-1.36044 2.06028 0.712934
-1.36398 2.05852 0.704637
-1.36359 2.0577 0.69667
-1.36496 2.05646 0.68857
-1.36408 2.05575 0.680656
-1.3652 2.05457 0.672592
-1.36624 2.05341 0.664543
-1.36829 2.05202 0.656427
-1.36547 2.05178 0.648687
-1.367 2.0505 0.640626
-1.36392 2.05032 0.632913
-1.36493 2.04918 0.624906
-1.36199 2.04897 0.617189
-1.36206 2.04804 0.609262
-1.35859 2.04796 0.601589
-1.3548 2.04795 0.593937
-1.35452 2.04711 0.586048
-1.35034 2.0472 0.578427
-1.34938 2.04652 0.570592
-1.34507 2.04663 0.562981
-1.33999 2.04693 0.555418
-1.33541 2.04711 0.547821
-1.32981 2.04753 0.540287
-1.32746 2.04718 0.532549
-1.32117 2.04776 0.525053
-1.31455 2.04842 0.517572
-1.30759 2.04916 0.510105
-1.30031 2.04998 0.502652
-1.29271 2.05086 0.49521
-1.27905 2.05318 0.488101
-1.27068 2.05424 0.480682
-1.25592 2.05681 0.473602
-1.24413 2.05868 0.466344
-1.2252 2.06223 0.459445
-1.19518 2.06838 0.45309
-1.1436 2.14551 0.921685
-1.193 2.13258 0.908211
-1.22008 2.12507 0.897117
-1.23917 2.11949 0.886892
-1.25419 2.11491 0.877118
-1.26538 2.11126 0.867761
-1.27627 2.10768 0.858461
-1.28703 2.10413 0.849201
-1.29758 2.10065 0.839991
-1.3045 2.09804 0.831154
-1.31116 2.09549 0.822361
-1.31765 2.09299 0.813605
-1.32394 2.09053 0.804887
-1.33003 2.08813 0.796206
-1.33589 2.08579 0.787564
-1.34152 2.0835 0.778962
-1.34413 2.08194 0.770646
-1.34938 2.07975 0.762109
-1.35438 2.07762 0.753612
-1.35666 2.07615 0.745365
-1.36124 2.07412 0.736934
-1.36191 2.07304 0.728848
-1.36383 2.07165 0.720667
-1.36568 2.07029 0.712502
-1.36937 2.06848 0.704197
-1.36912 2.06762 0.696224
-1.37058 2.06635 0.688121
-1.37195 2.0651 0.680035
-1.37106 2.0644 0.672135
-1.37345 2.06291 0.663988
-1.37441 2.06177 0.655961
-1.37268 2.06126 0.648145
-1.37338 2.06018 0.640153
-1.37113 2.05981 0.632385
-1.37156 2.05879 0.624425
-1.36879 2.05854 0.616703
-1.36896 2.05759 0.608775
-1.36566 2.05746 0.601097
-1.36556 2.05658 0.593198
-1.36178 2.05657 0.585557
-1.36136 2.05576 0.57769
-1.35731 2.05581 0.570069
-1.35276 2.05599 0.562481
-1.35146 2.05539 0.554683
-1.34697 2.05555 0.547091
-1.34154 2.05593 0.539556
-1.33576 2.0564 0.53204
-1.32964 2.05694 0.524541
-1.32318 2.05757 0.517057
-1.31639 2.05827 0.509589
-1.30927 2.05905 0.502134
-1.30183 2.05991 0.494692
-1.29408 2.06084 0.48726
-1.28601 2.06184 0.479838
-1.27168 2.06433 0.472749
-1.2603 2.06611 0.465483
-1.24188 2.06956 0.458572
-1.22247 2.07323 0.451686
-1.19182 2.07956 0.44534
-1.18122 2.14704 0.909426
-1.21191 2.13861 0.897952
-1.23476 2.13209 0.887339
-1.25012 2.12739 0.877526
-1.26509 2.1228 0.86779
-1.27609 2.11918 0.858478
-1.28702 2.11557 0.849203
-1.29773 2.11203 0.839976
-1.30815 2.10855 0.830805
-1.31504 2.10594 0.821994
-1.32161 2.1034 0.813234
-1.328 2.10091 0.80451
-1.33418 2.09848 0.795824
-1.34015 2.09609 0.787177
-1.3459 2.09377 0.778568
-1.34857 2.09218 0.770251
-1.35395 2.08995 0.761707
-1.35907 2.08778 0.753203
-1.36143 2.08628 0.744954
-1.36614 2.08421 0.736516
-1.36694 2.08309 0.728424
-1.36894 2.08168 0.72024
-1.37293 2.07979 0.711903
-1.37471 2.07844 0.703761
-1.37461 2.07753 0.695781
-1.37615 2.07624 0.687677
-1.3792 2.07458 0.679464
-1.38049 2.07335 0.6714
-1.37942 2.07269 0.663528
-1.38047 2.07151 0.6555
-1.3789 2.07097 0.647678
-1.37969 2.06986 0.639684
-1.3804 2.06878 0.631705
-1.37814 2.0684 0.62395
-1.37859 2.06738 0.616003
-1.3758 2.06713 0.608293
-1.37598 2.06617 0.600378
-1.37267 2.06605 0.59271
-1.369 2.06602 0.585067
-1.36879 2.06515 0.577193
-1.36477 2.0652 0.569578
-1.364 2.06447 0.56175
-1.35977 2.06457 0.554149
-1.35486 2.06484 0.546592
-1.3496 2.06518 0.539053
-1.34855 2.06452 0.531254
-1.34277 2.06499 0.523746
-1.33665 2.06554 0.516255
-1.33019 2.06617 0.508779
-1.32339 2.06688 0.501318
-1.31627 2.06767 0.49387
-1.30883 2.06853 0.486434
-1.30108 2.06946 0.479009
-1.28718 2.07186 0.471909
-1.27623 2.07355 0.464634
-1.26105 2.07625 0.457568
-1.24889 2.07823 0.450326
-1.22272 2.08353 0.443777
-1.18831 2.09078 0.437598
-1.20378 2.15216 0.898783
-1.23058 2.14463 0.887761
-1.2497 2.139 0.877569
-1.26476 2.13436 0.867822
-1.27599 2.13066 0.858489
-1.29066 2.12612 0.848848
-1.2978 2.12343 0.83997
-1.30842 2.11988 0.830779
-1.31891 2.11638 0.821628
-1.32557 2.11381 0.812863
-1.33204 2.11128 0.804135
-1.33832 2.10881 0.795444
-1.3444 2.10639 0.786791
-1.35025 2.10402 0.778176
-1.35298 2.10242 0.769857
-1.35848 2.10014 0.761307
-1.36373 2.09793 0.752797
-1.36616 2.09641 0.744546
-1.37101 2.0943 0.736101
-1.37193 2.09314 0.728003
-1.37401 2.0917 0.719817
-1.37814 2.08977 0.711473
-1.38 2.08839 0.703329
-1.38004 2.08745 0.695343
-1.38167 2.08613 0.687237
-1.38488 2.08442 0.679016
-1.38626 2.08316 0.670951
-1.38534 2.08246 0.663072
-1.38648 2.08126 0.655043
-1.38754 2.08008 0.647029
-1.38595 2.07954 0.63922
-1.38676 2.07842 0.63124
-1.38829 2.07713 0.623215
-1.3852 2.07696 0.615531
-1.3862 2.0758 0.607559
-1.38323 2.07559 0.599873
-1.38333 2.07465 0.591977
-1.37983 2.07458 0.584333
-1.37604 2.07457 0.576709
-1.37579 2.07372 0.568851
-1.37158 2.07381 0.561257
-1.36743 2.07389 0.553658
-1.36632 2.07325 0.545867
-1.36191 2.07339 0.538286
-1.35665 2.07374 0.530757
-1.35103 2.07417 0.523246
-1.3487 2.07382 0.515536
-1.34241 2.07441 0.508062
-1.33723 2.07474 0.500519
-1.33044 2.07545 0.493065
-1.32155 2.07667 0.485722
-1.31395 2.07757 0.4783
-1.30027 2.07993 0.4712
-1.29192 2.08101 0.463799
-1.28077 2.08276 0.456536
-1.26538 2.08552 0.449478
-1.24645 2.08913 0.442578
-1.22659 2.09295 0.435697
-1.18427 2.16853 0.900777
-1.22641 2.15719 0.888183
-1.24557 2.15151 0.877982
-1.26459 2.14587 0.867839
-1.27574 2.14217 0.858513
-1.29057 2.13757 0.848856
-1.30149 2.13394 0.839613
-1.30859 2.13124 0.830763
-1.31909 2.12771 0.821611
-1.32583 2.12511 0.812839
-1.33607 2.12165 0.803761
-1.34244 2.11914 0.795066
-1.34862 2.11668 0.786407
-1.35153 2.11502 0.778061
-1.35737 2.11265 0.769467
-1.36299 2.11033 0.76091
-1.36836 2.10808 0.752393
-1.37085 2.10653 0.744141
-1.37583 2.10438 0.735689
-1.37688 2.10318 0.727585
-1.37904 2.10172 0.719398
-1.38332 2.09974 0.711046
-1.38525 2.09834 0.702901
-1.38908 2.09647 0.694613
-1.39079 2.09512 0.686509
-1.39051 2.09426 0.678573
-1.39198 2.09297 0.670506
-1.39121 2.09223 0.662621
-1.39244 2.091 0.65459
-1.39482 2.08949 0.646482
-1.3958 2.08833 0.638489
-1.39403 2.08783 0.630706
-1.39475 2.08673 0.622747
-1.39247 2.08636 0.615011
-1.39293 2.08533 0.607085
-1.39012 2.08509 0.599393
-1.39032 2.08411 0.591497
-1.38698 2.084 0.583848
-1.38692 2.0831 0.575981
-1.38313 2.08309 0.568367
-1.37908 2.08315 0.560769
-1.37866 2.08233 0.552938
-1.37409 2.08252 0.545376
-1.36917 2.08278 0.537834
-1.36831 2.08207 0.530041
-1.36287 2.08247 0.52253
-1.35708 2.08295 0.515037
-1.35096 2.08351 0.507561
-1.34586 2.08381 0.50002
-1.33923 2.08449 0.492564
-1.33058 2.08566 0.485217
-1.32314 2.08653 0.477794
-1.3154 2.08748 0.470381
-1.30735 2.08849 0.462977
-1.29663 2.09015 0.455705
-1.28164 2.09283 0.448641
-1.26605 2.09566 0.441587
-1.24688 2.09933 0.434689
-1.22353 2.10401 0.427968
-1.21054 2.17265 0.88979
-1.23752 2.16501 0.87879
-1.26036 2.15839 0.868259
-1.27561 2.15366 0.858526
-1.29051 2.14902 0.848863
-1.30148 2.14535 0.839614
-1.31234 2.14171 0.830404
-1.31938 2.13902 0.821584
-1.32975 2.13551 0.812471
-1.3364 2.13291 0.803731
-1.34286 2.13037 0.795027
-1.34962 2.12775 0.786316
-1.35579 2.12529 0.777678
-1.36174 2.12287 0.769078
-1.36747 2.12052 0.760516
-1.37296 2.11823 0.751993
-1.37552 2.11665 0.743739
-1.38063 2.11445 0.73528
-1.38179 2.11323 0.72717
-1.38403 2.11174 0.718981
-1.38845 2.10971 0.710623
-1.39046 2.10828 0.702476
-1.39444 2.10637 0.694181
-1.39623 2.10499 0.686075
-1.39609 2.10409 0.678133
-1.39765 2.10278 0.670064
-1.40068 2.1011 0.661892
-1.39834 2.10074 0.654141
-1.40089 2.09919 0.646026
-1.40196 2.098 0.638032
-1.40035 2.09746 0.630243
-1.40116 2.09633 0.622284
-1.39904 2.09592 0.614542
-1.39959 2.09486 0.606615
-1.40006 2.09381 0.598701
-1.39724 2.09357 0.591021
-1.39408 2.09342 0.583367
-1.39411 2.09249 0.5755
-1.39041 2.09246 0.567886
-1.39026 2.09157 0.560042
-1.3862 2.09163 0.552454
-1.38545 2.09089 0.544658
-1.38122 2.091 0.537083
-1.37629 2.09127 0.529551
-1.37102 2.09163 0.522037
-1.36999 2.09096 0.514268
-1.3642 2.09144 0.506783
-1.35807 2.092 0.499314
-1.35161 2.09265 0.491861
-1.34481 2.09337 0.48442
-1.33769 2.09417 0.476993
-1.33026 2.09505 0.469576
-1.32251 2.096 0.462169
-1.31224 2.09756 0.454888
-1.29766 2.10016 0.447816
-1.28876 2.10138 0.440439
-1.27034 2.10491 0.433524
-1.25094 2.10866 0.426632
-1.20979 2.11765 0.420752
-1.18751 2.18993 0.892122
-1.22949 2.17852 0.879596
-1.25628 2.17089 0.868664
-1.27533 2.16519 0.858553
-1.29035 2.16049 0.848878
-1.30146 2.15677 0.839616
-1.31239 2.15309 0.830399
-1.32319 2.14945 0.821223
-1.33015 2.14677 0.812434
-1.34039 2.14327 0.803361
-1.34694 2.14069 0.794653
-1.35376 2.13805 0.78594
-1.36003 2.13554 0.777297
-1.36608 2.13309 0.768691
-1.37192 2.1307 0.760124
-1.37467 2.12907 0.751843
-1.38015 2.12677 0.743339
-1.38539 2.12453 0.734874
-1.38667 2.12326 0.726759
-1.39266 2.12084 0.718261
-1.39353 2.11968 0.710203
-1.39563 2.11822 0.702054
-1.39975 2.11627 0.693753
-1.40163 2.11486 0.685645
-1.40162 2.11393 0.677697
-1.40326 2.11258 0.669627
-1.40646 2.11086 0.661447
-1.40786 2.10958 0.653417
-1.4069 2.10888 0.645574
-1.40806 2.10766 0.637579
-1.40661 2.10708 0.629785
-1.40751 2.10592 0.621824
-1.40834 2.10479 0.613878
-1.4062 2.10438 0.606149
-1.40676 2.10331 0.598235
-1.40411 2.10303 0.59055
-1.40441 2.10203 0.582667
-1.40123 2.10188 0.575024
-1.40127 2.10094 0.56717
-1.39756 2.10091 0.559567
-1.39734 2.10004 0.55174
-1.39311 2.10015 0.544174
-1.38896 2.10023 0.536601
-1.38786 2.09958 0.52884
-1.38345 2.09973 0.521285
-1.37817 2.10009 0.513781
-1.37255 2.10053 0.506293
-1.37024 2.10017 0.498611
-1.36523 2.10046 0.491086
-1.35877 2.10111 0.483639
-1.35197 2.10184 0.476206
-1.34485 2.10265 0.468786
-1.33549 2.104 0.461478
-1.32393 2.10588 0.454276
-1.31344 2.1075 0.447004
-1.30482 2.10867 0.439627
-1.28691 2.11208 0.432701
-1.268 2.11574 0.4258
-1.24815 2.11962 0.418916
-1.22152 2.19203 0.880394
-1.2522 2.18339 0.86907
-1.27132 2.17764 0.858948
-1.28643 2.1729 0.84926
-1.30139 2.1682 0.839623
-1.31243 2.16447 0.830395
-1.32329 2.1608 0.821213
-1.33403 2.15716 0.81207
-1.34091 2.15448 0.803312
-1.34763 2.15185 0.794589
-1.35418 2.14926 0.785902
-1.36425 2.14579 0.776917
-1.37041 2.14331 0.768306
-1.37635 2.14087 0.759733
-1.37916 2.13922 0.751451
-1.38476 2.13688 0.742942
-1.39011 2.1346 0.734471
-1.39152 2.1333 0.72635
-1.39759 2.13084 0.71785
-1.39859 2.12965 0.709786
-1.40076 2.12816 0.701636
-1.40502 2.12616 0.693328
-1.40698 2.12473 0.685219
-1.41079 2.12284 0.676974
-1.40883 2.12238 0.669193
-1.41219 2.12061 0.661007
-1.41368 2.1193 0.652975
-1.41287 2.11856 0.645126
-1.41411 2.11732 0.63713
-1.41528 2.11609 0.629149
-1.41381 2.11552 0.621368
-1.41568 2.11412 0.613353
-1.41642 2.113 0.605428
-1.4141 2.11264 0.597724
-1.41458 2.11158 0.58983
-1.41174 2.11135 0.58217
-1.41197 2.11036 0.574306
-1.4086 2.11025 0.566686
-1.40856 2.10933 0.558851
-1.40476 2.10933 0.551264
-1.4007 2.1094 0.543694
-1.40031 2.10856 0.535894
-1.39572 2.10876 0.528358
-1.39139 2.10889 0.520805
-1.38995 2.10831 0.513079
-1.38449 2.10872 0.505592
-1.37974 2.10896 0.498063
-1.37377 2.10949 0.4906
-1.36747 2.1101 0.483152
-1.36084 2.1108 0.475718
-1.35388 2.11157 0.468297
-1.3466 2.11242 0.460886
-1.33701 2.11383 0.453591
-1.32897 2.11486 0.446206
-1.32063 2.11597 0.438827
-1.30326 2.11927 0.431889
-1.29411 2.12057 0.424526
-1.2752 2.12425 0.417621
-1.2452 2.13062 0.411209
-1.19096 2.21124 0.883459
-1.24424 2.19688 0.869861
-1.2634 2.19109 0.859728
-1.28247 2.18533 0.849646
-1.30134 2.17962 0.839628
-1.31243 2.17586 0.830395
-1.32343 2.17214 0.8212
-1.33418 2.16847 0.812056
-1.34486 2.16483 0.802946
-1.35166 2.16217 0.79422
-1.35829 2.15954 0.785528
-1.36474 2.15696 0.776873
-1.37099 2.15444 0.768254
-1.37704 2.15197 0.759672
-1.38363 2.14936 0.751062
-1.38934 2.14698 0.742547
-1.39481 2.14466 0.73407
-1.39633 2.14333 0.725944
-1.40248 2.14084 0.717441
-1.4036 2.13961 0.709372
-1.40585 2.1381 0.701221
-1.41025 2.13605 0.692906
-1.41228 2.1346 0.684796
-1.41625 2.13266 0.676544
-1.41436 2.13218 0.668763
-1.41786 2.13037 0.66057
-1.41944 2.12903 0.652537
-1.42247 2.12733 0.644405
-1.42011 2.12697 0.636685
-1.42265 2.1254 0.628609
-1.42374 2.12419 0.62065
-1.42209 2.12366 0.612895
-1.42292 2.12251 0.604969
-1.42076 2.12211 0.59726
-1.42134 2.12103 0.589366
-1.41866 2.12075 0.581701
-1.41898 2.11973 0.573837
-1.41578 2.11959 0.566213
-1.41584 2.11864 0.558378
-1.41212 2.11862 0.550792
-1.412 2.11771 0.542979
-1.40793 2.11778 0.535419
-1.40719 2.11703 0.527654
-1.40295 2.11714 0.520105
-1.39801 2.11743 0.512599
-1.39272 2.1178 0.50511
-1.39173 2.11711 0.49737
-1.38593 2.1176 0.489909
-1.37979 2.11818 0.482463
-1.37332 2.11884 0.475031
-1.36652 2.11958 0.467612
-1.3594 2.12039 0.460204
-1.35197 2.12128 0.452807
-1.34424 2.12225 0.44542
-1.3362 2.12329 0.43804
-1.32182 2.12588 0.430968
-1.3105 2.12772 0.423727
-1.29208 2.1313 0.416813
-1.27269 2.13511 0.409918
-1.24209 2.14166 0.403512
-1.22487 2.21327 0.871785
-1.25936 2.20358 0.860125
-1.28224 2.19683 0.849669
-1.29739 2.19203 0.840009
-1.31242 2.18726 0.830396
-1.32351 2.18349 0.821193
-1.33442 2.17977 0.812033
-1.34507 2.17611 0.802927
-1.35219 2.17335 0.79417
-1.36238 2.16982 0.785156
-1.36892 2.16721 0.776497
-1.37527 2.16465 0.767874
-1.38142 2.16214 0.759287
-1.38735 2.15968 0.750738
-1.39389 2.15708 0.742154
-1.39576 2.15565 0.733989
-1.4011 2.15335 0.725541
-1.40734 2.15083 0.717036
-1.40858 2.14957 0.708962
-1.4109 2.14803 0.700808
-1.41544 2.14594 0.692487
-1.41755 2.14446 0.684376
-1.42166 2.14248 0.676118
-1.41984 2.14198 0.668336
-1.42349 2.14011 0.660136
-1.42515 2.13875 0.652102
-1.42834 2.13701 0.643964
-1.42606 2.13663 0.636244
-1.42876 2.13501 0.628161
-1.42994 2.13377 0.620201
-1.42844 2.1332 0.612441
-1.42937 2.13202 0.604515
-1.42737 2.13158 0.5968
-1.42804 2.13047 0.588906
-1.42862 2.12938 0.581026
-1.42593 2.1291 0.573372
-1.42626 2.12808 0.565522
-1.42305 2.12794 0.557909
-1.42311 2.12698 0.550087
-1.4194 2.12697 0.542511
-1.41549 2.127 0.534948
-1.41521 2.12613 0.527161
-1.41077 2.12629 0.519632
-1.40969 2.12562 0.511902
-1.40528 2.12578 0.504373
-1.39998 2.12615 0.496893
-1.39435 2.12661 0.48943
-1.39206 2.12624 0.481776
-1.38706 2.12654 0.474274
-1.38059 2.1272 0.46685
-1.37379 2.12795 0.459438
-1.36667 2.12877 0.452038
-1.35924 2.12966 0.444648
-1.34573 2.13206 0.437558
-1.33755 2.13314 0.430187
-1.32665 2.13489 0.42294
-1.31144 2.1377 0.415886
-1.29277 2.14135 0.408975
-1.27001 2.14601 0.402226
-1.22814 2.15536 0.396306
-1.25147 2.21706 0.860902
-1.27826 2.20928 0.850057
-1.29731 2.20346 0.840017
-1.31238 2.19866 0.830401
-1.32353 2.19486 0.82119
-1.3346 2.19107 0.812017
-1.34541 2.18736 0.802895
-1.35618 2.18366 0.793805
-1.36304 2.18095 0.785096
-1.36974 2.17829 0.776423
-1.37953 2.17485 0.767494
-1.38262 2.1731 0.759181
-1.38876 2.17058 0.750615
-1.39843 2.16717 0.741764
-1.40039 2.16571 0.733594
-1.40585 2.16337 0.725141
-1.41217 2.16082 0.716633
-1.41352 2.15952 0.708554
-1.41591 2.15796 0.700399
-1.42059 2.15582 0.692072
-1.42277 2.15431 0.683959
-1.42702 2.15229 0.675695
-1.42899 2.15084 0.667623
-1.42908 2.14986 0.659706
-1.43082 2.14847 0.651671
-1.43416 2.14668 0.643526
-1.43567 2.14535 0.63553
-1.43481 2.14461 0.627717
-1.43608 2.14334 0.619757
-1.43474 2.14273 0.611991
-1.43575 2.14153 0.604064
-1.43669 2.14035 0.596151
-1.43838 2.13898 0.588195
-1.43535 2.13879 0.580569
-1.43653 2.13755 0.572663
-1.43324 2.13742 0.565061
-1.4339 2.13632 0.557203
-1.43036 2.13626 0.549622
