ply
format ascii 1.0
comment Created by Open3D
element vertex 1833
property double x
property double y
property double z
end_header
-0.630956 0.331767 1.64304
-0.603478 0.331881 1.64484
-0.613433 0.331902 1.62876
-0.612638 0.332017 1.61718
-0.619961 0.332036 1.60244
-0.554859 0.332162 1.6229
-0.593481 0.332281 1.59156
-0.624567 0.332296 1.56496
-0.58807 0.332417 1.57115
-0.581023 0.33243 1.56362
-0.607465 0.332558 1.53827
-0.607746 0.332682 1.52602
-0.582232 0.332692 1.52775
-0.560345 0.332817 1.52656
-0.565662 0.332825 1.51289
-0.55884 0.332955 1.50411
-0.463913 0.333083 1.53939
-0.478429 0.333087 1.52114
-0.471314 0.333216 1.5125
-0.437477 0.333347 1.51718
-0.478521 0.33335 1.48568
-0.469336 0.333481 1.47803
-0.437226 0.333614 1.48181
-0.503788 0.333613 1.43758
-0.487129 0.333746 1.43363
-0.475386 0.333879 1.4272
-0.469598 0.334015 1.41776
-0.392909 0.334012 1.44516
-0.501537 0.334146 1.37852
-0.41784 0.33428 1.40803
-0.42194 0.334419 1.39358
-0.416297 0.334414 1.38547
-0.320813 0.334548 1.42085
-0.438331 0.334689 1.34965
-0.375488 0.334824 1.36869
-0.450119 0.334967 1.3189
-0.367009 0.335111 1.34796
-0.420071 0.335103 1.3105
-0.390714 0.335247 1.31267
-0.341225 0.335538 1.32336
-0.422796 0.335684 1.27001
-0.308163 0.335831 1.31476
-0.343344 0.336138 1.28289
-0.290291 0.336299 1.29667
-0.311593 0.336448 1.27339
-0.319024 0.336938 1.2534
-0.232333 0.337612 1.27847
-1.04185 0.343381 2.41471
-1.05134 0.34208 2.40696
-0.997294 0.341067 2.42932
-1.20356 0.34076 2.31727
-1.05466 0.340191 2.38443
-1.14026 0.339748 2.3336
-1.09947 0.339459 2.34503
-1.05955 0.339176 2.35602
-1.10379 0.33901 2.3242
-1.09261 0.338739 2.32078
-1.17217 0.338584 2.27126
-1.11132 0.338434 2.29192
-1.16 0.338186 2.25846
-1.08424 0.33817 2.28574
-1.19642 0.338038 2.2198
-1.09488 0.337913 2.26069
-1.09742 0.337904 2.24878
-1.10361 0.337896 2.23505
-1.06601 0.337885 2.24323
-1.09592 0.337783 2.21825
-1.08869 0.337782 2.21119
-1.11285 0.337784 2.18841
-1.05841 0.337788 2.20492
-1.06357 0.337885 2.19099
-1.07729 0.337899 2.17335
-1.10434 0.337909 2.14907
-1.06687 0.33792 2.15703
-1.08499 0.338021 2.13658
-1.03202 0.338122 2.15168
-1.12616 0.338156 2.09368
-1.11899 0.338259 2.08584
-1.03068 0.338281 2.11915
-1.10703 0.338385 2.06953
-1.00086 0.33849 2.11117
-1.05112 0.338624 2.07438
-1.02346 0.338731 2.07674
-1.08054 0.338838 2.03671
-1.0169 0.338946 2.05703
-1.03043 0.339054 2.03876
-1.0092 0.339163 2.03786
-1.04241 0.339273 2.00972
-0.876183 0.339383 2.08129
-0.981644 0.339495 2.01701
-0.956373 0.339607 2.01808
-0.959565 0.339783 2.00443
-0.967567 0.339896 1.98884
-1.02249 0.340009 1.94977
-0.834839 0.340183 2.03154
-0.893054 0.340298 1.9908
-0.857044 0.340469 1.99675
-0.869441 0.340581 1.97893
-0.835701 0.340743 1.98378
-0.776948 0.34086 2.00148
-0.894244 0.340975 1.93116
-0.760446 0.341125 1.98612
-0.88095 0.341256 1.91405
-0.852433 0.341397 1.91642
-0.781634 0.341533 1.93995
-0.887035 0.341669 1.87537
-0.763159 0.341796 1.9255
-0.765399 0.341908 1.91268
-0.822789 0.34206 1.87196
-0.845821 0.342175 1.84871
-0.81555 0.342285 1.85214
-0.77462 0.342397 1.86087
-0.786873 0.342543 1.84273
-0.77255 0.34264 1.83827
-0.770288 0.34275 1.82766
-0.822302 0.342891 1.78966
-0.769061 0.342947 1.80497
-0.793741 0.343083 1.78066
-0.695756 0.343194 1.81788
-0.704582 0.343329 1.80149
-0.645536 0.343373 1.81978
-0.754173 0.343504 1.7535
-0.69984 0.343543 1.76948
-0.663051 0.343669 1.77594
-0.686846 0.343779 1.75224
-0.657785 0.343833 1.75544
-0.653268 0.343948 1.74584
-0.689151 0.343981 1.71672
-0.700228 0.344098 1.6993
-0.58261 0.344218 1.74619
-0.657908 0.344264 1.69725
-0.674042 0.344385 1.67725
-0.568219 0.344508 1.71818
-0.595741 0.344535 1.69329
-0.642936 0.344661 1.65769
-0.622877 0.344801 1.65558
-0.645274 0.344825 1.63326
-0.585291 0.344954 1.6512
-0.590172 0.344976 1.63765
-0.555921 0.345106 1.64269
-0.62507 0.345249 1.59592
-0.562899 0.345267 1.61592
-0.542125 0.345401 1.61417
-0.562298 0.345417 1.59301
-0.599033 0.345552 1.56249
-0.532296 0.345697 1.58361
-0.542297 0.345836 1.56639
-0.510694 0.345848 1.57115
-0.476067 0.345988 1.57622
-0.548013 0.345998 1.52921
-0.486771 0.346143 1.54754
-0.432952 0.346286 1.56216
-0.481417 0.346431 1.52562
-0.513218 0.346436 1.49871
-0.476884 0.346584 1.50453
-0.453414 0.346731 1.50391
-0.474986 0.34688 1.48074
-0.38815 0.346881 1.51318
-0.411119 0.34703 1.4893
-0.447406 0.347179 1.45875
-0.463771 0.34733 1.43813
-0.449768 0.347328 1.43416
-0.471222 0.34748 1.41098
-0.467921 0.347631 1.40018
-0.48826 0.347785 1.37751
-0.406864 0.347941 1.40569
-0.450074 0.348092 1.37159
-0.355152 0.348249 1.4065
-0.37186 0.348407 1.38557
-0.384093 0.348566 1.36686
-0.335263 0.348893 1.37701
-0.297604 0.349054 1.3832
-0.289283 0.349215 1.37471
-0.300216 0.349731 1.35304
-0.34965 0.350254 1.31201
-1.1166 0.354868 2.3953
-1.09229 0.353811 2.40275
-1.07356 0.353209 2.40483
-1.12278 0.352616 2.37292
-1.13109 0.352155 2.36072
-1.12514 0.351854 2.35473
-1.15696 0.351412 2.33072
-1.1533 0.351125 2.32354
-1.08816 0.350845 2.34708
-1.20157 0.350689 2.28061
-1.17913 0.350555 2.28195
-1.10252 0.35028 2.31123
-1.11882 0.350267 2.29248
-1.09013 0.350133 2.29696
-1.12483 0.350014 2.26967
-1.19593 0.35 2.22352
-1.09227 0.349887 2.26537
-1.08181 0.349883 2.25996
-1.14247 0.349883 2.21895
-1.17871 0.349784 2.19079
-1.11315 0.349789 2.21286
-1.09506 0.349796 2.21119
-1.17648 0.349814 2.15969
-1.02015 0.349924 2.22647
-1.13582 0.349937 2.15787
-1.08486 0.349968 2.17247
-1.10888 0.349987 2.14966
-1.07174 0.3501 2.15681
-1.03694 0.350122 2.16338
-1.14067 0.350262 2.0999
-0.99682 0.350378 2.16037
-1.1281 0.350407 2.08384
-1.0667 0.350524 2.10306
-1.02382 0.350641 2.11301
-1.01039 0.350759 2.10822
-0.988526 0.350877 2.10765
-1.02397 0.350995 2.07841
-1.01108 0.351078 2.07357
-1.04621 0.351201 2.04444
-1.04444 0.351324 2.03376
-1.00365 0.351448 2.04256
-0.967309 0.351645 2.04863
-1.0262 0.351769 2.00758
-0.963977 0.351894 2.02707
-0.94936 0.352088 2.02227
-0.922428 0.352214 2.02409
-0.859543 0.352341 2.04388
-0.87516 0.352532 2.02395
-0.932913 0.35266 1.98339
-0.901221 0.352843 1.98714
-0.815524 0.352978 2.01824
-0.890317 0.353108 1.96913
-0.883484 0.353295 1.96039
-0.881458 0.353427 1.94965
-0.839825 0.353588 1.95849
-0.948836 0.353744 1.89203
-0.876867 0.353898 1.91607
-0.816708 0.354045 1.93425
-0.899615 0.354208 1.88076
-0.90833 0.354346 1.86456
-0.949178 0.354479 1.83231
-0.819966 0.354647 1.88482
-0.824542 0.354773 1.87075
-0.822653 0.354939 1.85959
-0.801557 0.355067 1.85832
-0.795442 0.355177 1.84969
-0.835722 0.355303 1.81774
-0.737977 0.355463 1.85451
-0.81298 0.355591 1.80516
-0.719922 0.355684 1.84012
-0.726146 0.355838 1.82493
-0.744066 0.355965 1.80411
-0.75925 0.356119 1.78443
-0.711018 0.356168 1.79729
-0.663262 0.356317 1.8091
-0.733177 0.356444 1.76225
-0.698834 0.356505 1.76806
-0.702421 0.356647 1.75423
-0.752903 0.356682 1.71782
-0.70948 0.35681 1.7276
-0.69418 0.35696 1.72314
-0.718423 0.356995 1.69983
-0.701605 0.357128 1.69625
-0.646624 0.357264 1.71172
-0.674791 0.357296 1.68647
-0.750642 0.357448 1.63637
-0.64376 0.357588 1.67773
-0.63974 0.357616 1.66859
-0.659078 0.357757 1.64682
-0.586748 0.357913 1.67074
-0.547238 0.357938 1.67937
-0.604349 0.358083 1.63865
-0.567685 0.35823 1.6448
-0.599474 0.358251 1.61779
-0.534815 0.35841 1.63782
-0.543786 0.35856 1.6211
-0.545361 0.358578 1.60922
-0.532566 0.358729 1.60335
-0.592124 0.35889 1.56122
-0.484353 0.359045 1.60279
-0.562883 0.359059 1.55245
-0.592391 0.359215 1.52536
-0.519102 0.359378 1.5496
-0.523689 0.359537 1.53492
-0.536738 0.359546 1.51735
-0.427684 0.359706 1.55947
-0.436244 0.359871 1.54273
-0.545043 0.360034 1.47588
-0.516414 0.360198 1.47771
-0.441524 0.360201 1.50415
-0.443599 0.360532 1.4891
-0.479298 0.360532 1.46025
-0.475565 0.360699 1.44958
-0.406166 0.361037 1.47016
-0.397609 0.361207 1.46185
-0.450775 0.361379 1.42265
-0.380502 0.361551 1.44516
-0.417201 0.361724 1.41417
-0.419845 0.361897 1.40018
-0.322566 0.362251 1.43446
-0.330479 0.362614 1.41602
-0.22169 0.363166 1.45414
-0.281974 0.363918 1.40578
-1.09603 0.368713 2.42078
-1.14404 0.367019 2.3953
-1.15808 0.365928 2.38355
-1.15393 0.365146 2.37922
-1.22659 0.364538 2.33555
-1.16313 0.364224 2.35832
-1.1734 0.363764 2.34507
-1.20939 0.363464 2.31807
-1.12771 0.363171 2.34989
-1.17006 0.362885 2.31966
-1.22543 0.362607 2.2829
-1.11154 0.362459 2.33003
-1.14057 0.362317 2.30567
-1.07545 0.362189 2.32831
-1.14995 0.362058 2.28117
-1.13928 0.361935 2.27656
-1.17949 0.361933 2.24581
-1.18606 0.361822 2.23253
-1.11457 0.361825 2.2576
-1.2248 0.36183 2.19179
-1.13111 0.361845 2.22789
-1.21959 0.361746 2.17359
-1.13828 0.361772 2.20343
-1.10133 0.361787 2.21115
-1.13727 0.361909 2.18177
-1.07754 0.361947 2.20073
-1.08364 0.361969 2.18688
-1.10243 0.36202 2.16651
-1.15568 0.362146 2.12842
-1.11977 0.362176 2.13551
-1.15686 0.362303 2.10549
-1.06026 0.36243 2.1423
-1.08837 0.362503 2.1171
-1.03534 0.362633 2.13209
-0.952006 0.362674 2.1628
-1.09731 0.362807 2.0786
-1.05599 0.363025 2.08714
-1.06949 0.363157 2.06882
-1.01013 0.363257 2.08714
-0.986586 0.363393 2.08731
-0.93266 0.36353 2.10265
-1.05142 0.363667 2.03164
-0.95936 0.363806 2.06602
-0.9913 0.36402 2.03788
-0.99964 0.364159 2.02204
-0.876238 0.364371 2.07157
-1.01241 0.36451 1.99179
-0.99803 0.36465 1.98728
-0.877504 0.36486 2.03535
-1.01594 0.365001 1.9544
-0.924914 0.365197 1.98779
-0.895079 0.365351 1.99087
-0.86846 0.365537 1.99211
-0.856206 0.3657 1.98631
-0.94408 0.365877 1.93034
-0.927018 0.366049 1.92687
-0.84064 0.366217 1.95807
-0.906671 0.36638 1.9131
-0.944644 0.366557 1.88204
-0.808904 0.366711 1.938
-0.784562 0.366901 1.93799
-0.841723 0.367042 1.89756
-0.89046 0.367231 1.861
-0.906486 0.367419 1.84078
-0.769484 0.367504 1.89783
-0.817157 0.367687 1.86181
-0.750079 0.367868 1.88317
-0.760781 0.36801 1.86591
-0.766762 0.36819 1.85073
-0.755695 0.36826 1.84489
-0.834106 0.368436 1.79351
-0.811474 0.368609 1.79265
-0.718844 0.368752 1.82701
-0.787372 0.368925 1.78056
-0.740228 0.36898 1.79285
-0.737795 0.369148 1.7819
-0.686988 0.369314 1.79514
-0.748245 0.369359 1.75328
-0.668047 0.36952 1.78124
-0.698328 0.369662 1.7541
-0.652567 0.369822 1.76483
-0.644016 0.369861 1.7579
-0.590999 0.370028 1.7722
-0.615078 0.370178 1.74806
-0.728242 0.370213 1.68029
-0.572123 0.370366 1.74623
-0.710556 0.370399 1.66583
-0.66324 0.370568 1.67721
-0.679281 0.370724 1.65701
-0.572337 0.370882 1.69828
-0.476877 0.37091 1.73485
-0.606632 0.371083 1.65763
-0.50614 0.371245 1.69562
-0.563996 0.371269 1.65555
-0.572251 0.371432 1.63914
-0.551378 0.371608 1.63717
-0.57998 0.371774 1.61053
-0.564722 0.371943 1.6058
-0.578647 0.371962 1.58772
-0.565802 0.37214 1.58169
-0.534437 0.372311 1.58496
-0.431021 0.372484 1.62423
-0.65045 0.372665 1.502
-0.53541 0.372841 1.54704
-0.567313 0.372852 1.52001
-0.486038 0.373202 1.54665
-0.38883 0.37321 1.58419
-0.552155 0.373389 1.48999
-0.487746 0.373569 1.50962
-0.473186 0.373753 1.5043
-0.47294 0.373935 1.49182
-0.450971 0.374118 1.49018
-0.448348 0.374487 1.47722
-0.474121 0.374673 1.45165
-0.431667 0.375049 1.45851
-0.429931 0.375238 1.44665
-0.319862 0.375815 1.48548
-0.329493 0.376399 1.46436
-1.13634 0.380086 2.4186
-1.12625 0.378644 2.4205
-1.07959 0.377693 2.43813
-1.1268 0.376894 2.40808
-1.27552 0.376569 2.32474
-1.23715 0.375956 2.33654
-1.18308 0.375645 2.35457
-1.20261 0.37519 2.3366
-1.1367 0.375042 2.35969
-1.16814 0.37474 2.33497
-1.16445 0.374461 2.3277
-1.1676 0.374452 2.31551
-1.19086 0.374186 2.29472
-1.14743 0.374054 2.30653
-1.14364 0.37393 2.29848
-1.21566 0.373932 2.2518
-1.174 0.373814 2.26266
-1.15764 0.373826 2.26013
-1.10926 0.373716 2.27432
-1.12732 0.373738 2.25451
-1.17843 0.373752 2.21823
-1.07837 0.37367 2.25811
-1.23431 0.373689 2.16937
-1.17098 0.373734 2.19013
-1.12853 0.373868 2.19991
-1.11071 0.373894 2.19802
-1.11341 0.373952 2.18567
-1.06853 0.373985 2.19726
-1.15978 0.374123 2.14015
-1.10223 0.374197 2.15782
-1.10386 0.374338 2.14548
-1.01523 0.374379 2.17888
-1.09301 0.374522 2.12844
-1.0362 0.374664 2.14529
-1.14767 0.374807 2.078
-1.07461 0.374908 2.10322
-1.01496 0.375054 2.12144
-1.06624 0.375201 2.08419
-1.1264 0.375348 2.04248
-0.990069 0.375559 2.09861
-1.05944 0.37571 2.05226
-0.933439 0.375861 2.10358
-1.03151 0.376014 2.04285
-1.06859 0.376167 2.01261
-0.948287 0.3764 2.06052
-0.99034 0.376553 2.02776
-0.906191 0.376784 2.05759
-0.989057 0.376938 2.0044
-1.00604 0.377166 1.98366
-0.874337 0.377322 2.03773
-0.875442 0.377548 2.02491
-0.946564 0.377704 1.97754
-0.951623 0.377928 1.96274
-0.919671 0.378122 1.96664
-0.866456 0.378309 1.9812
-0.913458 0.378493 1.94566
-0.901672 0.37869 1.93942
-0.870073 0.378864 1.94323
-0.804453 0.379078 1.96376
-0.874547 0.379289 1.91645
-0.817858 0.379448 1.93288
-0.820818 0.379659 1.91911
-0.77522 0.379819 1.92996
-0.944308 0.379964 1.83358
-0.851335 0.380168 1.86779
-0.789723 0.380371 1.88632
-0.834488 0.38053 1.85196
-0.820493 0.380732 1.84667
-0.708913 0.380932 1.89017
-0.779609 0.381008 1.84342
-0.739247 0.381203 1.85133
-0.679644 0.381397 1.86886
-0.798686 0.381557 1.7973
-0.679239 0.381749 1.84474
-0.732451 0.381941 1.80585
-0.764882 0.381997 1.77834
-0.777131 0.382183 1.75995
-0.646097 0.382343 1.81338
-0.760728 0.382528 1.74379
-0.631605 0.382593 1.79697
-0.671892 0.382751 1.76473
-0.630834 0.382929 1.77301
-0.654903 0.382969 1.74976
-0.691626 0.383153 1.71908
-0.663632 0.38332 1.72088
-0.652647 0.38349 1.71415
-0.634177 0.383526 1.71219
-0.639264 0.383714 1.69726
-0.657302 0.383887 1.67596
-0.529015 0.384062 1.7278
-0.593983 0.384093 1.68414
-0.635933 0.384284 1.65072
-0.586387 0.384462 1.66313
-0.693217 0.384643 1.59733
-0.55653 0.384838 1.65317
-0.625873 0.384862 1.60735
-0.493884 0.385045 1.66091
-0.575206 0.385241 1.60771
-0.523499 0.385427 1.62109
-0.606989 0.385615 1.56684
-0.52102 0.385813 1.59723
-0.546013 0.386004 1.57218
-0.468794 0.386197 1.59822
-0.429646 0.386397 1.60515
-0.449367 0.386591 1.58268
-0.504158 0.386787 1.54266
-0.421148 0.387177 1.5699
-0.356956 0.387377 1.58931
-0.403738 0.387775 1.55155
-0.391194 0.387977 1.54508
-0.394323 0.388381 1.52906
-0.469879 0.388992 1.47506
-0.375564 0.389404 1.50764
-1.13856 0.391678 2.43381
-1.17621 0.390687 2.40926
-1.16203 0.389536 2.41152
-1.12278 0.388886 2.42378
-1.17878 0.388248 2.38839
-1.19807 0.387925 2.36973
-1.22842 0.387452 2.34635
-1.17007 0.387145 2.36648
-1.27227 0.386845 2.3063
-1.12678 0.386691 2.36921
-1.18261 0.386407 2.33217
-1.15826 0.386268 2.33444
-1.19277 0.386132 2.30728
-1.21207 0.386 2.2877
-1.29248 0.385876 2.23755
-1.18352 0.385759 2.28203
-1.18804 0.385652 2.26974
-1.19284 0.385664 2.25664
-1.2079 0.385569 2.23902
-1.20556 0.385587 2.22946
-1.16915 0.385628 2.23681
-1.20829 0.385651 2.20648
-1.14778 0.385675 2.22597
-1.2417 0.38573 2.16807
-1.1589 0.38576 2.19866
-1.18239 0.385826 2.1759
-1.08522 0.385863 2.21364
-1.09155 0.385901 2.19962
-1.15033 0.386094 2.15846
-1.1445 0.386138 2.15047
-1.0843 0.386292 2.16902
-1.05703 0.386391 2.17142
-1.17224 0.386547 2.10224
-1.06535 0.386602 2.1447
-1.137 0.38676 2.09726
-1.12246 0.38698 2.09254
-1.06169 0.387141 2.11128
-1.07648 0.387302 2.09223
-1.05333 0.387464 2.09214
-0.99934 0.387626 2.10746
-0.994165 0.387864 2.09789
-1.09417 0.38803 2.03616
-1.07123 0.388197 2.0359
-1.04743 0.388364 2.03604
-0.994118 0.388617 2.0504
-1.00573 0.388785 2.03282
-1.03651 0.389035 2.00513
-0.866888 0.389204 2.07813
-0.969777 0.389451 2.01438
-0.925028 0.389622 2.02492
-1.01616 0.389867 1.96703
-0.92874 0.390083 1.99859
-0.952817 0.390282 1.9745
-0.925009 0.390488 1.97629
-0.947577 0.390724 1.9527
-0.931805 0.390936 1.94841
-0.871829 0.391127 1.96636
-1.01721 0.391349 1.8814
-0.864751 0.391586 1.94526
-0.790441 0.391762 1.97045
-0.865503 0.391991 1.92057
-0.883508 0.392219 1.89922
-0.872351 0.392393 1.89281
-0.844099 0.39262 1.89457
-0.909185 0.392845 1.84966
-0.821112 0.393021 1.88166
-0.871677 0.393245 1.84399
-0.817335 0.393468 1.85878
-0.760949 0.393647 1.87488
-0.762041 0.393771 1.86262
-0.735146 0.393987 1.8637
-0.757465 0.394201 1.84017
-0.76088 0.394379 1.82634
-0.732085 0.394592 1.82835
-0.713495 0.394804 1.82526
-0.666371 0.394865 1.8375
-0.699704 0.395072 1.80847
-0.700517 0.395276 1.7957
-0.686298 0.395479 1.79045
-0.700393 0.395657 1.7712
-0.636508 0.395858 1.79078
-0.641442 0.396057 1.77594
-0.748238 0.396095 1.71135
-0.67533 0.396298 1.73538
-0.642474 0.396483 1.73952
-0.646878 0.396522 1.7261
-0.614925 0.396709 1.72975
-0.63099 0.396916 1.70924
-0.566762 0.397107 1.72898
-0.628746 0.3973 1.68558
-0.529831 0.397511 1.72249
-0.535335 0.397542 1.70855
-0.591789 0.397737 1.66787
-0.507666 0.397949 1.69735
-0.586943 0.398148 1.64522
-0.603939 0.398348 1.6242
-0.555379 0.398563 1.63584
-0.475104 0.398766 1.66341
-0.524298 0.398972 1.62623
-0.43041 0.399377 1.65901
-0.496985 0.399586 1.61306
-0.478412 0.399806 1.60961
-0.579853 0.400017 1.5462
-0.363715 0.400436 1.63992
-0.433616 0.400651 1.59222
-0.505027 0.401076 1.54208
-0.479354 0.401715 1.53874
-0.284287 0.402363 1.61999
-1.17735 0.403703 2.4282
-1.16101 0.402176 2.43313
-1.2508 0.401499 2.38086
-1.22817 0.400831 2.38479
-1.2282 0.400177 2.37736
-1.22094 0.399848 2.37197
-1.21523 0.399366 2.36659
-1.17354 0.399054 2.37836
-1.19983 0.39875 2.35613
-1.28163 0.398454 2.30611
-1.20355 0.398309 2.33526
-1.20715 0.398031 2.32427
-1.25315 0.397895 2.29135
-1.19618 0.397771 2.30987
-1.2576 0.397654 2.26916
-1.26283 0.397546 2.2565
-1.22855 0.397563 2.26294
-1.22116 0.397448 2.25664
-1.24257 0.397489 2.2351
-1.23704 0.397383 2.22783
-1.17496 0.397436 2.24797
-1.18856 0.397465 2.2304
-1.17888 0.397529 2.22428
-1.18262 0.397564 2.2116
-1.23476 0.397639 2.1745
-1.19564 0.39768 2.18321
-1.17848 0.397723 2.18094
-1.11805 0.397815 2.20001
-1.15276 0.39798 2.1711
-1.19324 0.398032 2.13995
-1.2169 0.398253 2.11623
-1.13109 0.39831 2.14817
-0.993671 0.39848 2.20527
-1.11797 0.398649 2.1315
-1.06788 0.398779 2.14515
-1.10429 0.398952 2.11528
-1.12546 0.399126 2.09303
-1.00587 0.399375 2.1407
-1.08647 0.399552 2.08869
-1.09582 0.399729 2.07229
-1.05708 0.399907 2.07992
-1.07531 0.400086 2.05906
-1.01539 0.400355 2.07671
-1.0554 0.400538 2.04491
-1.07231 0.400722 2.02464
-1.07354 0.400994 2.01166
-1.05579 0.401178 2.0087
-1.03292 0.401448 2.00776
-1.03648 0.401694 1.99374
-0.949809 0.4019 2.02507
-0.946201 0.402165 2.01449
-0.876118 0.40239 2.03738
-0.972434 0.402615 1.97706
-0.909943 0.402877 1.99591
-0.932153 0.403091 1.97268
-0.919563 0.403379 1.96638
-0.89338 0.403583 1.96739
-0.919202 0.403839 1.94206
-0.946711 0.404093 1.91588
-0.952982 0.404285 1.90072
-0.879301 0.404538 1.92511
-0.86182 0.404789 1.92141
-0.839316 0.405039 1.92021
-0.78726 0.405234 1.93415
-0.800313 0.405482 1.91515
-0.795795 0.40573 1.90494
-0.837979 0.405975 1.87138
-0.786608 0.40622 1.88459
-0.746165 0.406312 1.89334
-0.766966 0.406551 1.87048
-0.713542 0.406788 1.88473
-0.769661 0.407024 1.84421
-0.730465 0.407219 1.8516
-0.683373 0.407454 1.86267
-0.749242 0.407686 1.81726
-0.779885 0.407917 1.78946
-0.748479 0.408115 1.79289
-0.757594 0.408344 1.77584
-0.642507 0.408571 1.8209
-0.795682 0.408796 1.73182
-0.679541 0.408846 1.77863
-0.695068 0.409065 1.7584
-0.706194 0.409282 1.74037
-0.63716 0.4095 1.76241
-0.645903 0.409704 1.74565
-0.693968 0.409909 1.7092
-0.645327 0.40995 1.72229
-0.602729 0.410175 1.73101
-0.589235 0.410384 1.72529
-0.559631 0.410612 1.72747
-0.594845 0.410824 1.69736
-0.602432 0.411038 1.68102
-0.56926 0.411269 1.68493
-0.551198 0.411485 1.68138
-0.567315 0.411704 1.66072
-0.541645 0.412131 1.65938
-0.527498 0.412355 1.65378
-0.522554 0.412591 1.64347
-0.48245 0.412816 1.65081
-0.536775 0.413258 1.60929
-0.461679 0.413705 1.63241
-0.386868 0.414149 1.6554
-0.46917 0.414822 1.59805
-1.16982 0.418291 2.44423
-1.17135 0.415497 2.44587
-1.19542 0.414108 2.42969
-1.20542 0.413414 2.4173
-1.17477 0.41273 2.42522
-1.20296 0.412059 2.40368
-1.19732 0.411724 2.39747
-1.22784 0.411235 2.37394
-1.22279 0.410918 2.36738
-1.21305 0.410609 2.36314
-1.24365 0.410309 2.3387
-1.29193 0.410018 2.30539
-1.23035 0.409885 2.32623
-1.29852 0.409613 2.28291
-1.23704 0.409627 2.30297
-1.29283 0.409497 2.26514
-1.18302 0.40939 2.30999
-1.29477 0.409291 2.24402
-1.24199 0.409203 2.26028
-1.2168 0.409231 2.26213
-1.15503 0.40926 2.28227
-1.12998 0.409191 2.28456
-1.15205 0.409264 2.26255
-1.19215 0.409304 2.23169
-1.13187 0.409345 2.25101
-1.17227 0.409434 2.21974
-1.23114 0.409482 2.17945
-1.18793 0.409584 2.1899
-1.14842 0.409638 2.19876
-1.19274 0.409817 2.16502
-1.17946 0.409936 2.1604
-1.1719 0.410117 2.15257
-1.1649 0.410249 2.14472
-1.11363 0.410433 2.1587
-1.14571 0.410505 2.13164
-1.11413 0.410691 2.13575
-1.18093 0.410956 2.09023
-1.11678 0.411145 2.11059
-1.09562 0.411334 2.10945
-1.08799 0.411524 2.10153
-1.12094 0.411804 2.07279
-1.01273 0.411998 2.11512
-1.05442 0.412192 2.08248
-0.962259 0.412387 2.11675
-1.03688 0.412679 2.06706
-1.01893 0.412886 2.06413
-1.11797 0.413163 2.00229
-1.02119 0.413379 2.0387
-0.969763 0.413669 2.05199
-1.0702 0.413929 1.98951
-1.00292 0.414158 2.01106
-1.03403 0.414443 1.98306
-0.987192 0.414687 1.99427
-0.934316 0.41493 2.0085
-0.907455 0.415211 2.00946
-0.914375 0.415491 1.99354
-0.81411 0.415757 2.03128
-0.912445 0.416039 1.9696
-0.961299 0.41625 1.93309
-0.900161 0.416525 1.95117
-0.895708 0.416798 1.9409
-0.871946 0.41707 1.94028
-0.804083 0.417339 1.96171
-0.856943 0.417548 1.92316
-0.797439 0.417816 1.94039
-0.840255 0.418083 1.90646
-0.827932 0.418453 1.89942
-0.876234 0.418721 1.86271
-0.830897 0.418824 1.87387
-0.783981 0.419087 1.88478
-0.799839 0.419347 1.8643
-0.745988 0.419732 1.87785
-0.706611 0.419994 1.88495
-0.716722 0.420254 1.86731
-0.659121 0.420334 1.88469
-0.686876 0.420589 1.85824
-0.772473 0.420841 1.80287
-0.758759 0.421091 1.79716
-0.834503 0.421339 1.74671
-0.720308 0.421556 1.79144
-0.73234 0.421802 1.77284
-0.692626 0.422045 1.78012
-0.645496 0.422287 1.79111
-0.623028 0.422526 1.78977
-0.65182 0.422742 1.76295
-0.587518 0.422981 1.7825
-0.634871 0.423205 1.74632
-0.523217 0.423452 1.78947
-0.617711 0.423679 1.72968
-0.511922 0.423927 1.76986
-0.651681 0.424157 1.68738
-0.57869 0.424389 1.71126
-0.56799 0.42484 1.70242
-0.560255 0.425094 1.69349
-0.602437 0.425331 1.6597
-0.543433 0.425795 1.67486
-0.55126 0.42625 1.65665
-0.540557 0.426725 1.64753
-0.535812 0.427205 1.63538
-0.479762 0.428139 1.64555
-1.15735 0.429048 2.47002
-1.21678 0.427066 2.43859
-1.27895 0.425992 2.40171
-1.28415 0.42528 2.3917
-1.21659 0.424579 2.41804
-1.22301 0.423893 2.40738
-1.2863 0.423553 2.36668
-1.24896 0.423056 2.37705
-1.25816 0.422735 2.36335
-1.221 0.422422 2.3728
-1.27362 0.422118 2.33733
-1.33852 0.421823 2.2957
-1.29662 0.42168 2.30674
-1.29902 0.421419 2.29622
-1.25142 0.421438 2.30934
-1.22453 0.42118 2.31346
-1.35452 0.421082 2.23837
-1.23265 0.421111 2.28858
-1.28951 0.420994 2.25015
-1.23413 0.420953 2.26747
-1.2396 0.420991 2.25397
-1.32554 0.421031 2.20022
-1.2433 0.420978 2.23103
-1.24004 0.421025 2.22184
-1.20174 0.421124 2.2299
-1.2706 0.421177 2.18461
-1.12748 0.421289 2.24501
-1.28325 0.421349 2.15623
-1.25796 0.42141 2.15796
-1.17433 0.421668 2.18783
-1.2173 0.421736 2.15539
-1.18721 0.421931 2.1588
-1.10001 0.422078 2.19101
-1.1388 0.422276 2.15994
-1.16619 0.422474 2.13457
-1.12268 0.422639 2.14481
-1.15645 0.422842 2.1162
-1.07233 0.423044 2.14653
-1.16679 0.42334 2.08704
-1.08597 0.423436 2.11628
-1.13384 0.423752 2.07995
-1.03271 0.423959 2.11871
-1.10801 0.424272 2.06866
-0.99711 0.424484 2.11225
-1.07247 0.424696 2.06271
-1.10665 0.425008 2.03318
-1.00486 0.425318 2.07163
-0.970622 0.425531 2.07684
-1.02728 0.425774 2.03642
-0.944798 0.426085 2.06516
-0.954177 0.426394 2.04797
-0.989932 0.4267 2.0176
-0.949062 0.426958 2.0258
-0.895384 0.427279 2.04002
-0.936072 0.427526 2.00748
-0.933525 0.427827 1.99623
-0.954859 0.428126 1.97303
-0.886435 0.42842 1.99473
-0.891406 0.428722 1.97967
-0.905048 0.429022 1.96026
-0.921613 0.429234 1.93991
-0.852158 0.429617 1.96153
-0.861201 0.429911 1.94441
-0.846386 0.430205 1.93922
-0.814202 0.430496 1.94271
-0.852803 0.430787 1.9108
-0.850416 0.431075 1.89938
-0.775911 0.431305 1.92436
-0.863499 0.431593 1.86793
-0.77395 0.431878 1.90007
-0.826815 0.432295 1.86015
-0.874827 0.432581 1.82347
-0.698724 0.432865 1.89885
-0.713111 0.433148 1.87898
-0.740488 0.433428 1.85261
-0.652345 0.433706 1.884
-0.721163 0.433983 1.83691
-0.754384 0.43422 1.80785
-0.633544 0.434494 1.85558
-0.670059 0.434766 1.82463
-0.652058 0.435035 1.82094
-0.648346 0.435301 1.81011
-0.621905 0.43575 1.80943
-0.634929 0.436015 1.79021
-0.649508 0.436277 1.77022
-0.563682 0.436515 1.80058
-0.618655 0.436779 1.76035
-0.522976 0.437025 1.79556
-0.63694 0.4375 1.72439
-0.542929 0.437771 1.75856
-0.531039 0.438023 1.75179
-0.627549 0.438511 1.6892
-0.565219 0.438987 1.70608
-0.576661 0.439487 1.68589
-0.49369 0.439991 1.71285
-0.446177 0.440963 1.7188
-1.17508 0.441333 2.4734
-1.21748 0.438928 2.45205
-1.22723 0.437825 2.44136
-1.21409 0.437097 2.4405
-1.25362 0.43638 2.41328
-1.26422 0.435678 2.4005
-1.23566 0.435334 2.40571
-1.20973 0.434996 2.40959
-1.17443 0.434337 2.41965
-1.26788 0.434022 2.36378
-1.30387 0.43388 2.33584
-1.21934 0.433583 2.3689
-1.29596 0.433296 2.32135
-1.20114 0.433317 2.35809
-1.26298 0.433046 2.31787
-1.30915 0.432945 2.2847
-1.30182 0.432819 2.2784
-1.22222 0.432732 2.30805
-1.25099 0.432769 2.28293
-1.30774 0.432697 2.24434
-1.19813 0.43274 2.28837
-1.16532 0.432683 2.29449
-1.17241 0.432783 2.27989
-1.30248 0.432836 2.20403
-1.18822 0.432806 2.25075
-1.12741 0.432866 2.27029
-1.31857 0.432994 2.1635
-1.20961 0.433061 2.20707
-1.19415 0.433266 2.20319
-1.15506 0.43341 2.21143
-1.18212 0.433486 2.18693
-1.1543 0.433775 2.18877
-1.1517 0.433857 2.17905
-1.21953 0.43407 2.13344
-1.13621 0.434247 2.16358
-1.21505 0.434463 2.11243
-0.991199 0.434679 2.21261
-1.12903 0.434994 2.13141
-1.11384 0.435096 2.12785
-1.03813 0.435433 2.15328
-1.16492 0.435649 2.0781
-1.09902 0.435874 2.0992
-1.03558 0.43621 2.11846
-1.11736 0.436543 2.06511
-1.02182 0.436768 2.101
-1.06355 0.437014 2.06812
-1.01836 0.437347 2.07821
-1.08605 0.437678 2.03186
-1.03363 0.437945 2.0459
-0.9863 0.438277 2.05702
-1.00327 0.438563 2.03623
-0.981874 0.438887 2.0344
-1.00267 0.439208 2.01146
-0.918642 0.439498 2.04111
-0.935211 0.439822 2.02025
-0.973034 0.440144 1.98875
-0.999063 0.440465 1.96315
-0.943017 0.440783 1.97858
-0.97942 0.441184 1.94729
-0.835427 0.441504 2.00665
-0.864435 0.441821 1.97951
-0.901899 0.442137 1.94813
-0.845049 0.442489 1.96369
-0.866402 0.442808 1.94032
-0.858765 0.443125 1.93144
-0.924554 0.443441 1.88584
-0.79277 0.443755 1.93902
-0.781176 0.444067 1.93211
-0.882222 0.444378 1.86886
-0.794095 0.444686 1.90021
-0.824621 0.445139 1.87132
-0.808982 0.445449 1.86638
-0.745877 0.445756 1.88517
-0.722024 0.446061 1.88433
-0.740897 0.446364 1.86213
-0.734159 0.446836 1.85167
-0.698588 0.447138 1.85665
-0.672209 0.447439 1.85705
-0.631658 0.447736 1.86453
-0.690571 0.448031 1.82227
-0.696444 0.448517 1.80532
-0.689026 0.44881 1.79622
-0.725756 0.4491 1.76504
-0.586203 0.449593 1.82069
-0.5322 0.44988 1.83487
-0.568565 0.450163 1.80388
-0.60408 0.450663 1.77188
-0.561856 0.45093 1.78025
-0.574108 0.451446 1.75975
-0.56175 0.452198 1.74997
-0.524867 0.452727 1.75388
-0.560364 0.453998 1.71668
-1.13062 0.453211 2.50951
-1.17657 0.450739 2.48634
-1.30192 0.449608 2.41782
-1.26332 0.448864 2.42967
-1.2926 0.448132 2.40756
-1.25009 0.447415 2.42131
-1.18863 0.447066 2.44295
-1.32794 0.446724 2.36419
-1.29013 0.446052 2.37548
-1.2813 0.445733 2.37074
-1.36763 0.445578 2.31769
-1.28979 0.445296 2.34731
-1.2817 0.445007 2.34209
-1.26986 0.444866 2.33809
-1.28712 0.444761 2.31939
-1.32166 0.444629 2.29217
-1.29675 0.444538 2.29449
-1.30425 0.444457 2.28058
-1.33321 0.444386 2.25588
-1.30369 0.444326 2.26037
-1.28264 0.444378 2.26011
-1.34225 0.444334 2.21996
-1.22747 0.444393 2.26653
-1.25258 0.444454 2.24314
-1.23722 0.444582 2.23966
-1.12966 0.444649 2.28256
-1.22549 0.444789 2.22341
-1.22848 0.444863 2.211
-1.28958 0.444939 2.16952
-1.24459 0.445099 2.18066
-1.20384 0.445322 2.18937
-1.27434 0.445495 2.14269
-1.22874 0.445585 2.15446
-1.20697 0.445907 2.15316
-1.18753 0.446005 2.1518
-1.19657 0.446236 2.13552
-1.17809 0.446572 2.13246
-1.08356 0.44668 2.16857
-1.20347 0.447039 2.09617
-1.08101 0.447267 2.14562
-1.10672 0.447506 2.12091
-1.06068 0.447863 2.13144
-1.08984 0.448112 2.10492
-1.06203 0.448469 2.10631
-1.08005 0.448712 2.08537
-1.0414 0.449066 2.09217
-1.16276 0.449341 2.01936
-1.04208 0.449696 2.06714
-1.04733 0.450049 2.05194
-1.0669 0.450345 2.02987
-1.02713 0.4507 2.03714
-1.02992 0.451052 2.02313
-0.984572 0.451403 2.03318
-0.998247 0.451751 2.01371
-1.04248 0.452097 1.97896
-0.901474 0.452442 2.03682
-0.963492 0.452784 1.99316
-1.00563 0.453212 1.95895
-0.975435 0.453556 1.96136
-0.908363 0.453897 1.98221
-0.931848 0.454237 1.95776
-0.897371 0.454685 1.96167
-0.770738 0.455026 2.01225
-0.790849 0.455365 1.98945
-0.82859 0.455702 1.95783
-0.829239 0.456171 1.94398
-0.875652 0.456509 1.90798
-0.833944 0.456845 1.91603
-0.814508 0.45718 1.91295
-0.803748 0.457667 1.90461
-0.787003 0.458002 1.90015
-0.761474 0.45839 1.89974
-0.64911 0.45889 1.94207
-0.797821 0.45922 1.85484
-0.77049 0.459548 1.85564
-0.690012 0.460061 1.88188
-0.74986 0.460388 1.83906
-0.702071 0.460713 1.85006
-0.718673 0.461236 1.82764
-0.706447 0.461558 1.82083
-0.656715 0.461877 1.83278
-0.597663 0.462441 1.84787
-0.682959 0.462974 1.79094
-0.550866 0.463512 1.84266
-0.613318 0.464054 1.79705
-0.591122 0.464622 1.79357
-0.631211 0.46541 1.75755
-0.504127 0.466214 1.80497
-1.13411 0.465229 2.52087
-1.20954 0.462886 2.48209
-1.32929 0.461724 2.41636
-1.27451 0.46058 2.43787
-1.30872 0.459833 2.41327
-1.26426 0.459468 2.42642
-1.25087 0.458749 2.42557
-1.24676 0.458403 2.41851
-1.25178 0.457883 2.40764
-1.33584 0.457397 2.35714
-1.30824 0.457085 2.36173
-1.26872 0.457111 2.37083
-1.31566 0.456815 2.3381
-1.3133 0.456529 2.32999
-1.30906 0.456429 2.32201
-1.33452 0.456297 2.29934
-1.23652 0.456212 2.33818
-1.38937 0.456088 2.25178
-1.30642 0.45602 2.28303
-1.31542 0.455962 2.26827
-1.24997 0.456019 2.29021
-1.2355 0.455977 2.2871
-1.25634 0.456041 2.26586
-1.28944 0.456087 2.23857
-1.22087 0.45616 2.26198
-1.33747 0.456235 2.19279
-1.25524 0.456392 2.22264
-1.30596 0.456474 2.18635
-1.22927 0.456646 2.21334
-1.23592 0.456735 2.19904
-1.29861 0.456973 2.15601
-1.23679 0.457163 2.17545
-1.26062 0.457262 2.1525
-1.19397 0.457607 2.17358
-1.20282 0.457714 2.15807
-1.12389 0.458071 2.18521
-1.16486 0.458318 2.15293
-1.24994 0.458567 2.09857
-1.10247 0.458807 2.16052
-1.16922 0.45906 2.11528
-1.16688 0.45944 2.10395
-1.14158 0.4597 2.10466
-1.12106 0.459958 2.103
-1.08583 0.460336 2.10807
-1.15212 0.460619 2.06284
-1.04685 0.460998 2.10289
-1.0726 0.461374 2.07743
-1.11257 0.461679 2.04521
-1.03599 0.462057 2.07087
-1.06817 0.462487 2.04185
-1.01779 0.462864 2.05437
-1.11062 0.46324 1.99529
-1.03514 0.463585 2.0205
-0.964565 0.463984 2.04296
-0.994643 0.464353 2.01523
-1.02847 0.46472 1.98562
-0.958769 0.465176 2.00727
-0.916364 0.465543 2.01574
-0.997096 0.465909 1.96263
-0.930939 0.466273 1.98296
-0.872947 0.466749 1.99857
-0.932062 0.467114 1.95622
-0.818346 0.467605 1.99958
-0.839959 0.468048 1.97551
-0.871455 0.46841 1.94693
-0.80355 0.468916 1.96723
-0.811952 0.469278 1.95016
-0.803631 0.469639 1.94144
-0.807342 0.469998 1.9267
-0.802038 0.470586 1.91515
-0.777272 0.470943 1.91463
-0.858841 0.471478 1.85989
-0.724601 0.471834 1.91407
-0.746557 0.47238 1.88903
-0.697371 0.472788 1.90035
-0.711569 0.473341 1.8791
-0.677883 0.473693 1.88295
-0.684238 0.474255 1.86553
-0.614905 0.474604 1.88718
-0.646175 0.475438 1.85564
-0.628688 0.475784 1.85134
-0.630909 0.476631 1.83418
-0.566164 0.477212 1.85206
-0.576371 0.4786 1.82757
-1.24799 0.477011 2.47782
-1.20706 0.474604 2.49719
-1.32643 0.473415 2.43162
-1.25945 0.472634 2.45763
-1.30184 0.471866 2.42894
-1.3294 0.471114 2.40762
-1.2929 0.470559 2.41757
-1.32888 0.470206 2.39046
-1.27011 0.469692 2.41141
-1.30806 0.469173 2.38405
-1.29496 0.468853 2.38139
-1.2058 0.468698 2.41609
-1.27984 0.468432 2.36966
-1.35028 0.468145 2.32513
-1.28181 0.468006 2.34944
-1.36271 0.467918 2.29885
-1.3986 0.467788 2.27094
-1.33994 0.467716 2.29008
-1.3047 0.467654 2.29745
-1.31195 0.467603 2.28354
-1.39951 0.467563 2.22942
-1.30343 0.467632 2.26664
-1.39831 0.46761 2.20879
-1.31774 0.467686 2.23821
-1.29217 0.467764 2.24013
-1.33715 0.467852 2.20673
-1.31681 0.46794 2.20598
-1.25447 0.46803 2.22622
-1.2981 0.468219 2.19301
-1.33587 0.468471 2.16243
-1.23618 0.46857 2.20128
-1.16537 0.468777 2.22518
-1.23709 0.469033 2.17758
-1.15022 0.469255 2.20943
-1.23321 0.46937 2.15684
-1.26527 0.469751 2.12843
-1.18143 0.469874 2.1592
-1.21312 0.470268 2.1309
-1.1231 0.470536 2.16405
-1.11694 0.470938 2.15459
-1.2153 0.471212 2.09349
-1.1717 0.471484 2.10336
-1.12638 0.471884 2.11345
-1.06315 0.472179 2.133
-1.09104 0.47258 2.10645
-1.15534 0.472893 2.06211
-1.04242 0.473295 2.10592
-1.03681 0.473694 2.09608
-1.04738 0.474091 2.07813
-1.00323 0.474543 2.08725
-1.04937 0.474896 2.05171
-0.984047 0.475297 2.07165
-1.0042 0.475725 2.04868
-1.02752 0.476177 2.02398
-0.985855 0.476587 2.03198
-0.955434 0.476977 2.03444
-0.992408 0.477464 2.00268
-0.929048 0.477855 2.02157
-0.98405 0.478357 1.98068
-0.920428 0.478749 1.99965
-0.94458 0.479226 1.97427
-0.913433 0.479744 1.9763
-0.922948 0.480132 1.95867
-0.893655 0.480519 1.96043
-0.872219 0.481054 1.95745
-0.947569 0.481676 1.90558
-0.847328 0.482064 1.94275
-0.770128 0.48245 1.96839
-0.819598 0.483079 1.92934
-0.804015 0.483463 1.92415
-0.77158 0.484033 1.92634
-0.686106 0.484416 1.95605
-0.767754 0.485058 1.90075
-0.774338 0.485645 1.88325
-0.676943 0.486296 1.91736
-0.695786 0.486675 1.89485
-0.636878 0.487553 1.90837
-0.690465 0.488164 1.86713
-0.733493 0.488824 1.83086
-0.616159 0.489441 1.87499
-0.518189 0.490895 1.90456
-1.20429 0.489151 2.51198
-1.19262 0.48668 2.51668
-1.23001 0.485459 2.49209
-1.27258 0.484658 2.46331
-1.29014 0.483666 2.44783
-1.3208 0.482895 2.42496
-1.32701 0.482143 2.41427
-1.34229 0.481787 2.3975
-1.44094 0.481439 2.33902
-1.41877 0.480739 2.3424
-1.39967 0.480418 2.34272
-1.31144 0.480262 2.37696
-1.3786 0.480149 2.33332
-1.35599 0.479855 2.33533
-1.32082 0.479574 2.34357
-1.31709 0.479492 2.33527
-1.29863 0.479363 2.33454
-1.3494 0.479297 2.29893
-1.32915 0.479177 2.29907
-1.28728 0.479129 2.30971
-1.36478 0.479093 2.26062
-1.428 0.479167 2.2182
-1.31311 0.479147 2.26523
-1.31421 0.479229 2.25383
-1.27555 0.479227 2.26267
-1.28476 0.479408 2.24677
-1.21644 0.479501 2.27002
-1.28901 0.479695 2.22236
-1.28026 0.479796 2.21578
-1.24598 0.480005 2.22147
-1.15449 0.480113 2.25622
-1.21795 0.480338 2.21294
-1.20992 0.480455 2.20591
-1.26476 0.48085 2.16616
-1.26166 0.480974 2.1566
-1.28521 0.48138 2.13241
-1.26397 0.481512 2.13188
-1.19015 0.48193 2.15629
-1.17827 0.482214 2.15034
-1.10082 0.482638 2.1765
-1.17261 0.48293 2.12866
-1.18748 0.483353 2.10863
-1.13855 0.483662 2.12104
-1.17343 0.484085 2.09097
-1.09925 0.484411 2.11588
-1.18099 0.484835 2.06235
-1.09545 0.485256 2.09245
-1.08971 0.485604 2.08299
-1.06381 0.486088 2.08293
-1.13615 0.486512 2.03402
-1.04692 0.486934 2.06589
-1.03333 0.487434 2.05953
-1.08161 0.487856 2.0226
-1.0241 0.488369 2.0381
-0.993178 0.488792 2.04073
-0.967925 0.489214 2.04051
-0.952851 0.489733 2.0347
-0.998859 0.490147 1.99885
-0.867763 0.490681 2.05093
-0.953408 0.491191 1.99473
-0.94876 0.491738 1.98347
-0.918671 0.492152 1.98559
-0.951025 0.492801 1.95525
-0.875628 0.493214 1.97999
-0.78098 0.493787 2.0135
-0.743052 0.494452 2.01813
-0.861102 0.494866 1.94608
-0.750828 0.495277 1.98819
-0.875357 0.495949 1.91149
-0.801784 0.496554 1.93416
-0.732667 0.497238 1.95416
-0.798549 0.497648 1.90811
-0.742797 0.498335 1.92135
-0.739519 0.498963 1.90864
-0.71988 0.49989 1.90246
-0.746827 0.500591 1.87418
-0.67814 0.501539 1.89232
-0.692834 0.502497 1.86868
-1.20966 0.501685 2.52005
-1.2931 0.498725 2.47874
-1.30172 0.497473 2.46851
-1.36509 0.496239 2.43089
-1.35948 0.495224 2.42698
-1.37883 0.49444 2.40974
-1.30201 0.494067 2.43903
-1.25216 0.493316 2.45632
-1.31791 0.492966 2.41428
-1.34424 0.492626 2.39193
-1.37482 0.492296 2.36742
-1.39176 0.491933 2.34987
-1.34811 0.49167 2.36224
-1.2876 0.491375 2.38318
-1.36675 0.491094 2.33425
-1.33945 0.491152 2.33717
-1.31358 0.49089 2.34068
-1.35523 0.490764 2.30989
-1.33581 0.490712 2.30933
-1.33426 0.490672 2.2998
-1.25502 0.490643 2.32906
-1.35973 0.490627 2.26629
-1.31414 0.490714 2.27824
-1.36143 0.490716 2.24411
-1.35911 0.49081 2.23438
-1.33026 0.490907 2.23791
-1.27299 0.490934 2.25595
-1.27024 0.491146 2.24592
-1.2922 0.491256 2.22398
-1.22528 0.491484 2.24595
-1.24925 0.491601 2.22295
-1.32188 0.491886 2.17489
-1.27095 0.492133 2.18876
-1.27708 0.492391 2.17403
-1.25224 0.492524 2.17534
-1.24899 0.492956 2.16451
-1.30607 0.493251 2.12411
-1.18527 0.493541 2.17266
-1.19687 0.49384 2.15496
-1.30101 0.494287 2.0903
-1.22111 0.494598 2.11827
-1.22085 0.495044 2.10578
-1.16922 0.495371 2.1195
-1.18136 0.495816 2.10078
-1.15785 0.496161 2.10033
-1.09471 0.496607 2.11921
-1.15773 0.497101 2.07476
-1.11497 0.497546 2.08341
-1.14455 0.497926 2.05618
-1.09437 0.498497 2.06791
-1.11483 0.498895 2.04512
-1.02658 0.499429 2.07601
-1.03752 0.499902 2.05758
-0.904967 0.500438 2.11057
-1.01845 0.500987 2.04046
-0.998132 0.50143 2.03774
-1.02561 0.501981 2.01057
-1.04371 0.50242 1.98863
-0.933024 0.503088 2.02991
-0.909574 0.503664 2.02801
-0.958438 0.504104 1.99062
-0.916208 0.50479 1.99751
-0.988412 0.505229 1.9484
-0.918457 0.505922 1.96907
-0.825842 0.506535 2.00144
-0.967543 0.507243 1.91614
-0.817871 0.507683 1.97788
-0.802035 0.508397 1.97126
-0.837265 0.509039 1.93946
-0.775204 0.509766 1.95583
-0.736249 0.510496 1.9606
-0.827863 0.511229 1.90004
-0.788544 0.511898 1.90525
-0.72438 0.512945 1.92085
-0.648436 0.513939 1.94258
-0.634467 0.515525 1.93012
-1.19754 0.514852 2.53456
-1.22664 0.510739 2.52427
-1.27653 0.509456 2.4934
-1.27544 0.50819 2.488
-1.25955 0.507147 2.48922
-1.31071 0.506343 2.45607
-1.32214 0.505744 2.44205
-1.30191 0.50519 2.44372
-1.32731 0.504618 2.42266
-1.40035 0.50427 2.37695
-1.29268 0.503934 2.42157
-1.26367 0.503608 2.42683
-1.32292 0.503294 2.38793
-1.35516 0.502993 2.36249
-1.36657 0.502704 2.34744
-1.34395 0.50243 2.34935
-1.44614 0.502369 2.28803
-1.40875 0.502243 2.29676
-1.36111 0.5022 2.31029
-1.34642 0.502085 2.30763
-1.29919 0.50206 2.32088
-1.42192 0.502047 2.24911
-1.31097 0.50214 2.29374
-1.37108 0.502145 2.2532
-1.2958 0.502246 2.27997
-1.36819 0.50227 2.2332
-1.39799 0.502489 2.20692
-1.32819 0.502603 2.23088
-1.30201 0.502836 2.23251
-1.25014 0.502957 2.24746
-1.279 0.503206 2.22149
-1.36251 0.503335 2.1687
-1.22172 0.5036 2.22747
-1.27513 0.503878 2.18907
-1.3038 0.504185 2.1629
-1.31423 0.504478 2.14591
-1.23745 0.50479 2.17243
-1.25733 0.505099 2.15061
-1.24075 0.505415 2.14697
-1.2129 0.505885 2.14829
-1.19001 0.506214 2.14772
-1.16821 0.506683 2.14597
-1.16711 0.507029 2.13441
-1.20861 0.507498 2.10097
-1.12261 0.507862 2.13175
-1.18686 0.50838 2.08667
-1.10016 0.50885 2.11727
-1.11483 0.509381 2.09689
-1.05809 0.50985 2.11248
-1.11041 0.510393 2.07317
-1.14238 0.510862 2.04436
-1.04316 0.511419 2.08072
-1.09903 0.511988 2.03944
-1.03039 0.512474 2.0608
-1.0557 0.513045 2.03475
-1.16705 0.513625 1.96562
-0.951228 0.514209 2.06003
-1.00788 0.514672 2.01876
-1.02723 0.515379 1.99494
-0.979902 0.515988 2.00491
-0.940781 0.516712 2.01019
-0.94781 0.517177 1.99363
-0.964793 0.517908 1.97077
-0.913633 0.51855 1.98238
-0.868704 0.519297 1.99034
-0.810948 0.520049 2.00465
-0.840993 0.520515 1.97646
-0.803732 0.521273 1.98044
-0.874625 0.522255 1.92918
-0.724106 0.523029 1.98964
-0.809483 0.523805 1.93211
-0.75109 0.524828 1.94517
-0.689004 0.526192 1.95828
-0.679207 0.52758 1.94507
-1.31045 0.523167 2.49312
-1.30762 0.521406 2.49016
-1.3606 0.51988 2.45853
-1.39872 0.519039 2.43192
-1.35583 0.518214 2.4458
-1.37481 0.517599 2.428
-1.3745 0.516809 2.42052
-1.43701 0.516444 2.3801
-1.47395 0.515868 2.35326
-1.36419 0.515524 2.39892
-1.38768 0.515192 2.37793
-1.38266 0.514872 2.37117
-1.41396 0.514564 2.34621
-1.34525 0.514269 2.37122
-1.36782 0.513988 2.35055
-1.41254 0.513852 2.31826
-1.34626 0.513675 2.34163
-1.35102 0.513758 2.32848
-1.30188 0.513526 2.3435
-1.35534 0.51351 2.30639
-1.36265 0.513506 2.29231
-1.39179 0.513607 2.26689
-1.4201 0.513516 2.24265
-1.26096 0.513731 2.31091
-1.39532 0.513651 2.23361
-1.31552 0.513882 2.26212
-1.37923 0.513936 2.2196
-1.42427 0.514062 2.18611
-1.29395 0.51432 2.23975
-1.33318 0.514453 2.20913
-1.31976 0.514727 2.20423
-1.27537 0.515012 2.21477
-1.28622 0.515333 2.19752
-1.28878 0.515634 2.18449
-1.23513 0.515789 2.20017
-1.30575 0.516275 2.15231
-1.27309 0.516603 2.15674
-1.20605 0.516936 2.17831
-1.18839 0.51743 2.1745
-1.26598 0.517621 2.12435
-1.13019 0.518271 2.17889
-1.15641 0.518637 2.15364
-1.20137 0.519017 2.11894
-1.20783 0.519661 2.10231
-1.2032 0.520057 2.0923
-1.13442 0.52055 2.11392
-1.09279 0.521107 2.12165
-1.11517 0.521674 2.09731
-1.09353 0.522168 2.09529
-1.05154 0.522749 2.10302
-1.07067 0.523279 2.08041
-1.13702 0.523862 2.03392
-1.09067 0.524457 2.04371
-1.09517 0.52507 2.02796
-0.96414 0.525678 2.07998
-0.981121 0.526416 2.05736
-0.990137 0.526904 2.03986
-1.07353 0.527649 1.98394
-0.966292 0.528292 2.02379
-0.97058 0.529054 2.00729
-0.857238 0.529824 2.04954
-0.887161 0.530314 2.02145
-0.848247 0.53109 2.0264
-0.880176 0.532073 1.99489
-0.851805 0.53287 1.9944
-0.897612 0.533671 1.95676
-0.70361 0.534477 2.03897
-0.81173 0.535523 1.96891
-0.7291 0.536342 1.9953
-0.694965 0.537751 1.9945
-0.760468 0.53953 1.94198
-1.29903 0.535585 2.5096
-1.30193 0.53354 2.50458
-1.42656 0.531759 2.43786
-1.36671 0.530898 2.46023
-1.31195 0.529818 2.48086
-1.45057 0.528994 2.40393
-1.38824 0.528612 2.42595
-1.34065 0.528009 2.4414
-1.4155 0.527241 2.39624
-1.42866 0.526897 2.38043
-1.42123 0.526564 2.37489
-1.45145 0.526243 2.35049
-1.34512 0.525935 2.39433
-1.33063 0.525641 2.39221
-1.4677 0.525499 2.31376
-1.51963 0.525226 2.27838
-1.38472 0.525182 2.33556
-1.41464 0.525058 2.31064
-1.41671 0.525032 2.29927
-1.35509 0.524919 2.32008
-1.41616 0.524913 2.27914
-1.37398 0.524919 2.28978
-1.41669 0.524938 2.25792
-1.36224 0.524971 2.27459
-1.38098 0.525091 2.25432
-1.33265 0.525144 2.26784
-1.29654 0.525273 2.27495
-1.39978 0.525539 2.21184
-1.46613 0.525675 2.16768
-1.35179 0.525956 2.21328
-1.29153 0.526248 2.23178
-1.2881 0.526398 2.22243
-1.31151 0.526707 2.19901
-1.24766 0.526865 2.21982
-1.2756 0.527192 2.19404
-1.33958 0.527705 2.14945
-1.26976 0.527878 2.17316
-1.24801 0.528404 2.17136
-1.17695 0.528754 2.19492
-1.24967 0.529126 2.14649
-1.23176 0.529674 2.14261
-1.19962 0.530193 2.14595
-1.16999 0.530593 2.14852
-1.17473 0.531111 2.13339
-1.16611 0.531683 2.12468
-1.13614 0.532265 2.12658
-1.20996 0.532783 2.07685
-1.08777 0.533377 2.12476
-1.14717 0.533983 2.0818
-1.0392 0.534548 2.12268
-1.13155 0.535155 2.0632
-1.03013 0.535775 2.10052
-0.996217 0.536421 2.10394
-1.0779 0.537052 2.04961
-1.04717 0.537823 2.05083
-0.9347 0.538476 2.09342
-1.01145 0.539114 2.04144
-0.990208 0.540058 2.03704
-0.963964 0.540575 2.03706
-0.958036 0.541377 2.02558
-0.901614 0.542186 2.0393
-0.949802 0.543001 2.00064
-0.843496 0.543822 2.03917
-0.835227 0.544863 2.02762
-0.91447 0.545704 1.97321
-0.906553 0.546549 1.96233
-0.777659 0.547975 2.00915
-0.840118 0.549182 1.96128
-0.75966 0.550663 1.9835
-1.29045 0.547994 2.52469
-1.36856 0.545429 2.4836
-1.3432 0.543605 2.49186
-1.30358 0.542725 2.50411
-1.40932 0.541617 2.44449
-1.37315 0.540971 2.45427
-1.48092 0.540143 2.39275
-1.44483 0.539763 2.40162
-1.41783 0.538976 2.4074
-1.37982 0.538388 2.418
-1.38572 0.538049 2.40579
-1.48444 0.537723 2.34715
-1.42446 0.537409 2.36782
-1.38593 0.537108 2.37773
-1.37918 0.536822 2.37171
-1.40554 0.536685 2.34861
-1.37363 0.536643 2.35429
-1.44162 0.536393 2.3108
-1.43849 0.536274 2.30238
-1.44915 0.536265 2.28668
-1.41368 0.536268 2.29399
-1.41714 0.536168 2.28222
-1.40836 0.536192 2.2761
-1.36184 0.536314 2.2885
-1.29806 0.536357 2.30981
-1.35289 0.536414 2.27176
-1.37399 0.536688 2.24974
-1.39145 0.536828 2.23005
-1.3481 0.536919 2.24095
-1.34728 0.537069 2.23035
-1.41951 0.537376 2.1826
-1.36538 0.537694 2.19798
-1.40746 0.537857 2.16585
-1.3058 0.538192 2.2049
-1.24612 0.538724 2.22217
-1.19258 0.538901 2.23777
-1.33039 0.539444 2.15621
-1.26711 0.539807 2.1759
-1.26457 0.540185 2.16514
-1.13544 0.540725 2.21701
-1.33439 0.54112 2.10541
-1.1973 0.541529 2.16176
-1.22062 0.542117 2.13714
-1.20365 0.542659 2.13284
-1.22341 0.543258 2.10991
-1.1863 0.54371 2.11601
-1.17318 0.544408 2.10906
-1.11015 0.54503 2.12736
-1.16457 0.545662 2.08686
-1.13567 0.546307 2.08795
-1.07534 0.546995 2.10455
-1.05904 0.547651 2.09924
-1.14154 0.548332 2.04439
-1.07538 0.549135 2.06332
-1.09254 0.549813 2.0411
-1.05022 0.550484 2.04862
-0.970295 0.551461 2.07357
-0.95481 0.552295 2.0669
-0.955196 0.553137 2.05222
-0.933355 0.553679 2.04997
-0.946311 0.554528 2.02892
-0.944253 0.5557 2.01388
-0.828924 0.556567 2.05681
-0.907439 0.557665 2.00174
-0.815292 0.558891 2.03137
-0.740246 0.559785 2.05393
-0.857495 0.56165 1.97582
-0.706348 0.563564 2.0316
-1.32368 0.561096 2.51661
-1.26819 0.557285 2.54615
-1.45949 0.555891 2.4445
-1.45101 0.554732 2.44201
-1.43922 0.553383 2.44185
-1.405 0.552721 2.45067
-1.34907 0.551873 2.47099
-1.41955 0.551238 2.42742
-1.49739 0.550433 2.38077
-1.4054 0.550075 2.41754
-1.41676 0.549728 2.40261
-1.43983 0.549153 2.38262
-1.47126 0.548833 2.3576
-1.59141 0.548527 2.28817
-1.37703 0.548235 2.38597
-1.47916 0.547958 2.32548
-1.41189 0.548056 2.34836
-1.44873 0.5478 2.32045
-1.41222 0.547561 2.32916
-1.47921 0.547562 2.28527
-1.46386 0.547456 2.28293
-1.3684 0.547477 2.32019
-1.37893 0.547512 2.3044
-1.38536 0.547642 2.29032
-1.40928 0.54756 2.26826
-1.40773 0.547765 2.25788
-1.42669 0.54791 2.23746
-1.43615 0.547999 2.22199
-1.3827 0.548153 2.23773
-1.31844 0.548468 2.25826
-1.40066 0.548629 2.20612
-1.32817 0.54896 2.23068
-1.23044 0.549302 2.26781
-1.3199 0.549478 2.21197
-1.39022 0.549838 2.16498
-1.39168 0.55021 2.15235
-1.26874 0.550588 2.20189
-1.22197 0.550977 2.21328
-1.32463 0.551562 2.14918
-1.26167 0.551947 2.16865
-1.38394 0.552365 2.09536
-1.22716 0.552972 2.16082
-1.24979 0.553537 2.13672
-1.25316 0.554154 2.12202
-1.13869 0.554614 2.16686
-1.19453 0.555253 2.12579
-1.13561 0.555983 2.1417
-1.12601 0.556632 2.13326
-1.19654 0.557292 2.08468
-1.11529 0.557964 2.11192
-1.11984 0.558682 2.09604
-1.10202 0.559394 2.09135
-1.17888 0.560206 2.03886
-1.10548 0.560914 2.06191
-1.09249 0.561758 2.05415
-1.07225 0.56261 2.04995
-0.970775 0.563502 2.08616
-1.01708 0.56451 2.04794
-0.976337 0.565392 2.05377
-0.946472 0.56628 2.05409
-1.0676 0.567175 1.97885
-0.903091 0.568412 2.04489
-0.961266 0.569324 2.00098
-0.936815 0.570832 1.99569
-0.89593 0.572126 1.99952
-0.880529 0.573804 1.98884
-0.733017 0.576832 2.03808
-1.32836 0.573984 2.5236
-1.32357 0.569597 2.52927
-1.31655 0.568168 2.52676
-1.37484 0.566496 2.49244
-1.39391 0.565326 2.47616
-1.38977 0.564437 2.47062
-1.44851 0.56357 2.4336
-1.43861 0.562919 2.43023
-1.45985 0.562281 2.41126
-1.43701 0.561476 2.41491
-1.4636 0.561123 2.39237
-1.45744 0.560783 2.38617
-1.45459 0.560209 2.37913
-1.41056 0.559897 2.3918
-1.44408 0.5596 2.36565
-1.47056 0.559317 2.34299
-1.44692 0.559421 2.34406
-1.46421 0.559159 2.32594
-1.47174 0.558914 2.31264
-1.52687 0.558919 2.27468
-1.53588 0.558706 2.26055
-1.46119 0.558834 2.28706
-1.44175 0.558738 2.28675
-1.42857 0.558784 2.28279
-1.41454 0.558844 2.27922
-1.48278 0.558918 2.23445
-1.39273 0.559069 2.26854
-1.36323 0.559165 2.27256
-1.38965 0.559325 2.24838
-1.3909 0.559653 2.23615
-1.45489 0.559784 2.19327
-1.36518 0.559959 2.22708
-1.32879 0.560317 2.23353
-1.35531 0.560687 2.20847
-1.43477 0.561069 2.15688
-1.35823 0.561462 2.18324
-1.20461 0.561859 2.24809
-1.31599 0.562256 2.18045
-1.31846 0.562671 2.16717
-1.30229 0.563099 2.16314
-1.26913 0.563725 2.16682
-1.25553 0.564316 2.16084
-1.29367 0.564772 2.12949
-1.1978 0.565419 2.16437
-1.20188 0.566077 2.14922
-1.17157 0.566745 2.15119
-1.22225 0.567505 2.11228
-1.1211 0.568182 2.14959
-1.16885 0.56887 2.11237
