ply
format ascii 1.0
comment Created by Open3D
element vertex 1877
property double x
property double y
property double z
end_header
-3.06003 1.70883 0.881639
-3.06122 1.70776 0.874778
-3.06261 1.70665 0.867901
-3.06828 1.70448 0.8605
-3.06936 1.70344 0.853682
-3.07076 1.70232 0.846834
-3.07591 1.70028 0.83954
-3.07731 1.69917 0.832712
-3.08278 1.69706 0.825407
-3.08365 1.69608 0.818664
-3.08446 1.69511 0.811935
-3.08588 1.69399 0.805142
-3.0912 1.69192 0.797908
-3.09191 1.69098 0.791218
-3.09257 1.69006 0.784542
-3.09401 1.68894 0.777784
-3.09462 1.68803 0.771129
-3.09974 1.68602 0.76398
-3.10025 1.68513 0.757354
-3.1007 1.68426 0.75074
-3.10216 1.68315 0.744024
-3.10257 1.68229 0.73743
-3.10751 1.68033 0.730362
-3.10783 1.67949 0.723796
-3.1081 1.67867 0.71724
-3.10958 1.67756 0.710566
-3.1098 1.67675 0.704029
-3.10998 1.67595 0.697503
-3.11011 1.67517 0.690987
-3.1102 1.67439 0.684483
-3.11171 1.67328 0.677844
-3.11175 1.67252 0.671357
-3.11176 1.67176 0.664879
-3.11172 1.67102 0.658411
-3.11165 1.67029 0.651953
-3.11153 1.66957 0.645504
-3.11138 1.66886 0.639064
-3.11119 1.66816 0.632633
-3.11096 1.66747 0.626211
-3.1107 1.66679 0.619797
-3.10578 1.66724 0.613804
-3.10732 1.66612 0.607237
-3.10508 1.66592 0.601009
-3.10468 1.66527 0.594623
-3.09962 1.66575 0.58864
-3.09917 1.66512 0.582265
-3.09196 1.66611 0.576458
-3.09353 1.66499 0.56992
-3.09085 1.6649 0.563736
-3.08561 1.66542 0.55776
-3.08278 1.66536 0.551588
-3.07747 1.6659 0.545612
-3.06984 1.66699 0.539812
-3.06446 1.66754 0.533831
-3.05671 1.66867 0.528025
-3.0489 1.6698 0.522216
-3.03393 1.67266 0.516929
-3.00927 1.67783 0.51233
-2.67961 1.85356 1.2849
-2.71889 1.84276 1.27064
-2.74363 1.83564 1.25899
-2.75868 1.83098 1.24906
-2.78287 1.82402 1.23761
-2.79082 1.82116 1.22898
-2.80549 1.81661 1.21924
-2.81555 1.81323 1.21031
-2.82995 1.80876 1.20067
-2.83767 1.80597 1.19219
-2.85185 1.80157 1.18266
-2.85946 1.79881 1.17424
-2.86704 1.79607 1.16585
-2.8764 1.79289 1.1572
-2.88385 1.79018 1.14888
-2.89126 1.78749 1.14058
-2.89863 1.78482 1.13231
-2.90596 1.78215 1.12407
-2.91476 1.77912 1.11562
-2.92195 1.77649 1.10745
-2.92909 1.77388 1.09931
-2.93618 1.77129 1.09119
-2.94322 1.76871 1.0831
-2.94896 1.76646 1.07523
-2.95266 1.76472 1.06769
-2.95956 1.76218 1.05968
-2.9664 1.75966 1.05169
-2.97217 1.75741 1.04389
-2.97543 1.75578 1.03648
-2.98212 1.75331 1.02857
-2.98791 1.75106 1.02082
-2.99004 1.74972 1.01361
-2.99663 1.74728 1.00577
-3.00245 1.74503 0.998065
-3.00514 1.74355 0.990817
-3.01096 1.74131 0.98314
-3.01343 1.73989 0.975951
-3.01926 1.73765 0.968305
-3.02107 1.7364 0.961231
-3.02734 1.73405 0.953557
-3.0332 1.7318 0.945957
-3.03519 1.73052 0.938896
-3.04106 1.72827 0.931326
-3.04265 1.72709 0.924343
-3.04418 1.72592 0.917377
-3.05018 1.72365 0.909834
-3.05607 1.7214 0.902323
-3.05749 1.72026 0.895407
-3.05887 1.71914 0.888505
-3.06477 1.7169 0.881037
-3.06608 1.71579 0.874165
-3.07188 1.71358 0.866741
-3.07308 1.7125 0.859905
-3.07448 1.71138 0.853053
-3.08017 1.7092 0.845684
-3.08126 1.70815 0.838891
-3.08267 1.70703 0.832067
-3.08371 1.706 0.825296
-3.08925 1.70386 0.818001
-3.09473 1.70174 0.810729
-3.09561 1.70075 0.80401
-3.09643 1.69978 0.797305
-3.09787 1.69866 0.790536
-3.1032 1.69658 0.783334
-3.10392 1.69564 0.776668
-3.10459 1.69471 0.770015
-3.10605 1.69358 0.763282
-3.10666 1.69267 0.756649
-3.11181 1.69064 0.749532
-3.11232 1.68975 0.742929
-3.1138 1.68863 0.73623
-3.11427 1.68775 0.729647
-3.11469 1.68689 0.723075
-3.11965 1.68492 0.716038
-3.11538 1.68521 0.709967
-3.11688 1.68408 0.703306
-3.12175 1.68213 0.696311
-3.12198 1.68132 0.689797
-3.12217 1.68052 0.683293
-3.12232 1.67973 0.6768
-3.12242 1.67895 0.670317
-3.12394 1.67783 0.663704
-3.124 1.67706 0.657238
-3.12402 1.67631 0.650782
-3.12399 1.67556 0.644336
-3.12393 1.67483 0.6379
-3.12383 1.6741 0.631472
-3.12369 1.67339 0.625054
-3.12351 1.67268 0.618645
-3.1233 1.67199 0.612244
-3.11842 1.67243 0.606259
-3.11998 1.6713 0.59971
-3.1197 1.67063 0.593328
-3.11747 1.67042 0.587118
-3.11708 1.66977 0.580753
-3.11203 1.67025 0.574784
-3.11159 1.66961 0.568429
-3.11112 1.66898 0.562082
-3.10597 1.66949 0.556118
-3.10332 1.66939 0.54995
-3.09808 1.66991 0.543987
-3.09749 1.66932 0.537658
-3.0922 1.66985 0.531695
-3.08464 1.67094 0.525901
-3.07698 1.67205 0.520106
-3.06925 1.67317 0.514308
-3.06145 1.67431 0.508506
-3.05359 1.67546 0.5027
-3.03144 1.68006 0.497906
-2.99235 1.68874 0.494273
-2.71481 1.85284 1.26399
-2.74673 1.84386 1.25113
-2.76183 1.83917 1.24122
-2.77926 1.83389 1.23095
-2.79412 1.82927 1.22117
-2.80886 1.82468 1.21143
-2.81677 1.82183 1.20288
-2.83348 1.81675 1.19289
-2.84125 1.81394 1.18441
-2.85551 1.80948 1.17489
-2.86318 1.80671 1.16648
-2.87081 1.80394 1.15811
-2.88026 1.80072 1.14945
-2.88777 1.79799 1.14114
-2.89524 1.79527 1.13285
-2.90267 1.79256 1.1246
-2.91455 1.78874 1.11566
-2.92189 1.78606 1.10746
-2.9262 1.78415 1.09975
-2.9334 1.78151 1.09162
-2.94056 1.77889 1.08351
-2.94766 1.77628 1.07543
-2.95472 1.77369 1.06738
-2.96173 1.77111 1.05935
-2.96751 1.76884 1.05153
-2.9711 1.76712 1.04405
-2.97795 1.76459 1.0361
-2.98375 1.76232 1.02833
-2.99057 1.7598 1.02043
-2.99371 1.75821 1.01308
-2.99952 1.75594 1.00536
-3.00167 1.7546 0.998176
-3.00827 1.75214 0.990373
-3.01482 1.7497 0.982598
-3.0168 1.7484 0.97548
-3.02324 1.74599 0.967753
-3.0291 1.74373 0.960125
-3.03097 1.74247 0.953061
-3.03731 1.74009 0.945399
-3.03907 1.73885 0.938374
-3.04495 1.73659 0.930806
-3.04694 1.7353 0.923772
-3.05284 1.73304 0.916234
-3.05443 1.73185 0.909277
-3.05597 1.73068 0.902337
-3.06198 1.72839 0.894828
-3.06791 1.72613 0.887348
-3.06933 1.72499 0.880458
-3.07073 1.72386 0.87358
-3.07665 1.72161 0.866145
-3.07796 1.7205 0.859298
-3.08377 1.71827 0.851907
-3.08498 1.71719 0.845096
-3.0864 1.71606 0.838268
-3.0921 1.71387 0.830932
-3.0932 1.71282 0.824163
-3.09463 1.71169 0.817364
-3.09568 1.71065 0.810618
-3.10123 1.7085 0.803355
-3.10673 1.70637 0.796114
-3.10762 1.70538 0.789419
-3.10845 1.7044 0.782738
-3.1099 1.70327 0.775994
-3.11526 1.70118 0.768823
-3.11599 1.70023 0.762181
-3.11666 1.6993 0.755552
-3.11814 1.69817 0.748843
-3.12335 1.69612 0.74174
-3.12392 1.69521 0.735148
-3.12445 1.69432 0.728568
-3.12594 1.69319 0.721893
-3.12642 1.69231 0.715333
-3.12685 1.69144 0.708785
-3.12836 1.69031 0.702133
-3.12874 1.68946 0.695604
-3.12908 1.68862 0.689085
-3.13397 1.68666 0.682121
-3.13422 1.68584 0.675629
-3.13442 1.68503 0.669148
-3.13457 1.68424 0.662677
-3.13611 1.68311 0.656081
-3.13622 1.68233 0.649627
-3.13629 1.68156 0.643184
-3.13632 1.6808 0.63675
-3.13631 1.68005 0.630326
-3.13626 1.67931 0.623911
-3.13617 1.67858 0.617505
-3.13605 1.67786 0.611109
-3.13125 1.67828 0.605129
-3.13282 1.67715 0.598591
-3.13262 1.67645 0.592214
-3.13239 1.67576 0.585845
-3.13212 1.67508 0.579485
-3.13182 1.67441 0.573132
-3.12489 1.67535 0.567332
-3.12648 1.67422 0.56083
-3.12608 1.67357 0.554496
-3.12361 1.67343 0.548332
-3.11847 1.67393 0.54238
-3.11797 1.67331 0.536063
-3.11277 1.67383 0.530112
-3.11003 1.67375 0.52397
-3.10476 1.67429 0.518019
-3.0972 1.67538 0.512234
-3.08956 1.67649 0.506446
-3.08184 1.67762 0.500656
-3.07405 1.67877 0.494861
-3.06621 1.67992 0.489063
-3.0512 1.68282 0.483754
-3.02894 1.68746 0.478921
-2.73314 1.85633 1.24614
-2.75798 1.84913 1.23458
-2.77311 1.84441 1.22473
-2.79742 1.83735 1.21336
-2.81223 1.83273 1.20364
-2.82018 1.82985 1.1951
-2.83482 1.82527 1.18548
-2.84482 1.82188 1.17665
-2.85917 1.81739 1.16714
-2.86689 1.81458 1.15874
-2.87457 1.81179 1.15037
-2.88411 1.80853 1.14173
-2.89617 1.80463 1.13271
-2.90545 1.80144 1.12415
-2.91289 1.79872 1.11592
-2.92028 1.79602 1.10771
-2.92764 1.79333 1.09953
-2.93494 1.79065 1.09138
-2.9422 1.78798 1.08326
-2.94798 1.7857 1.07538
-2.95208 1.78384 1.06778
-2.9592 1.78122 1.05973
-2.96628 1.77861 1.05171
-2.9733 1.77602 1.04372
-2.98028 1.77344 1.03576
-2.98269 1.77202 1.02849
-2.98956 1.76947 1.02058
-2.99638 1.76694 1.01269
-3.00221 1.76466 1.00497
-3.00535 1.76306 0.99765
-3.01119 1.76078 0.989959
-3.01787 1.75829 0.982169
-3.02067 1.75678 0.974939
-3.02653 1.7545 0.967297
-3.02851 1.7532 0.960206
-3.03497 1.75078 0.952514
-3.04085 1.7485 0.944918
-3.04319 1.74712 0.937818
-3.04908 1.74484 0.930253
-3.05085 1.7436 0.923254
-3.05676 1.74132 0.915718
-3.05875 1.74003 0.908712
-3.06467 1.73776 0.901206
-3.06627 1.73656 0.894275
-3.06781 1.73539 0.887361
-3.07384 1.73309 0.879885
-3.07979 1.73081 0.872437
-3.08122 1.72967 0.865572
-3.08263 1.72853 0.858719
-3.08857 1.72626 0.851317
-3.08989 1.72515 0.844496
-3.09572 1.72291 0.837137
-3.09693 1.72183 0.830351
-3.09837 1.72069 0.823547
-3.10409 1.71848 0.816244
-3.1052 1.71743 0.8095
-3.10664 1.71629 0.802724
-3.1077 1.71525 0.796003
-3.11327 1.71309 0.788772
-3.11421 1.71208 0.782083
-3.11968 1.70995 0.774893
-3.12052 1.70897 0.768236
-3.12199 1.70783 0.761516
-3.12736 1.70573 0.754377
-3.1281 1.70478 0.747759
-3.12878 1.70384 0.741153
-3.13028 1.7027 0.734468
-3.1355 1.70064 0.727396
-3.1315 1.70087 0.72131
-3.133 1.69973 0.714648
-3.13813 1.6977 0.707621
-3.13862 1.69681 0.701084
-3.13906 1.69594 0.694558
-3.14059 1.6948 0.687931
-3.14098 1.69394 0.681425
-3.14133 1.6931 0.674929
-3.14624 1.69113 0.667996
-3.1465 1.69031 0.661526
-3.14671 1.6895 0.655067
-3.14688 1.6887 0.648619
-3.14843 1.68756 0.642047
-3.14855 1.68677 0.635616
-3.14864 1.686 0.629194
-3.14868 1.68523 0.622782
-3.14868 1.68448 0.61638
-3.14865 1.68374 0.609987
-3.14857 1.683 0.603603
-3.14382 1.68342 0.597632
-3.1454 1.68228 0.591112
-3.14525 1.68157 0.584748
-3.14506 1.68086 0.578393
-3.14484 1.68017 0.572045
-3.14459 1.67948 0.565706
-3.14431 1.6788 0.559375
-3.13933 1.67927 0.553427
-3.13898 1.67861 0.547106
-3.13861 1.67796 0.540793
-3.13615 1.67781 0.534647
-3.13102 1.67832 0.528707
-3.13053 1.6777 0.522411
-3.12534 1.67822 0.516473
-3.12481 1.67761 0.510185
-3.11735 1.67868 0.504409
-3.10981 1.67978 0.498632
-3.10917 1.67919 0.492353
-3.10382 1.67975 0.48641
-3.09612 1.68088 0.480627
-3.08127 1.68375 0.475327
-3.07342 1.68491 0.46953
-3.04164 1.6919 0.465325
-2.7122 1.87072 1.24239
-2.75152 1.85976 1.22838
-2.7763 1.85254 1.21692
-2.79139 1.84782 1.20713
-2.80876 1.84251 1.197
-2.82359 1.83786 1.18733
-2.8383 1.83324 1.17772
-2.84838 1.82982 1.1689
-2.86281 1.82528 1.15941
-2.87058 1.82245 1.15102
-2.87832 1.81963 1.14266
-2.89245 1.81518 1.1333
-2.90007 1.8124 1.12501
-2.90944 1.80917 1.11646
-2.91693 1.80643 1.10824
-2.92438 1.80369 1.10004
-2.93179 1.80098 1.09187
-2.93916 1.79827 1.08372
-2.94648 1.79558 1.07561
-2.9552 1.79253 1.0673
-2.96099 1.79024 1.05946
-2.96366 1.78874 1.0521
-2.97079 1.7861 1.0441
-2.97788 1.78348 1.03611
-2.98609 1.78058 1.02799
-2.99191 1.77828 1.02023
-2.99433 1.77686 1.01299
-3.00122 1.77429 1.00511
-3.00806 1.77175 0.997264
-3.01391 1.76945 0.989574
-3.01705 1.76785 0.982284
-3.02373 1.76535 0.974512
-3.0296 1.76306 0.966871
-3.0324 1.76155 0.959671
-3.03828 1.75925 0.95206
-3.04027 1.75795 0.944997
-3.04675 1.75551 0.937338
-3.05265 1.75322 0.929775
-3.05499 1.75183 0.922703
-3.06091 1.74954 0.91517
-3.06268 1.7483 0.908197
-3.06862 1.746 0.900693
-3.0706 1.74471 0.893716
-3.07655 1.74242 0.886242
-3.07815 1.74122 0.879337
-3.0797 1.74004 0.872448
-3.08575 1.73773 0.865006
-3.09172 1.73544 0.85759
-3.09316 1.73429 0.850751
-3.09459 1.73315 0.843921
-3.10054 1.73087 0.836553
-3.10187 1.72975 0.829757
-3.10772 1.7275 0.822431
-3.10894 1.72641 0.81567
-3.11039 1.72527 0.80889
-3.11613 1.72305 0.80162
-3.11724 1.72199 0.794901
-3.11871 1.72085 0.788149
-3.11977 1.7198 0.781452
-3.12536 1.71763 0.774254
-3.12631 1.71662 0.767589
-3.12779 1.71547 0.760874
-3.12869 1.71447 0.754231
-3.13413 1.71234 0.747102
-3.13493 1.71137 0.74049
-3.13643 1.71023 0.733811
-3.13717 1.70927 0.727219
-3.14247 1.70718 0.720158
-3.14311 1.70626 0.713596
-3.14463 1.70511 0.706952
-3.14523 1.7042 0.700409
-3.15038 1.70215 0.693413
-3.15088 1.70126 0.686899
-3.15133 1.70039 0.680397
-3.15287 1.69924 0.673794
-3.15327 1.69838 0.66731
-3.15363 1.69753 0.660838
-3.15856 1.69555 0.653934
-3.15883 1.69472 0.647488
-3.15443 1.69505 0.641484
-3.15599 1.69391 0.634926
-3.1608 1.69196 0.628077
-3.16094 1.69117 0.621668
-3.16103 1.69039 0.615269
-3.16109 1.68962 0.608879
-3.1611 1.68886 0.602499
-3.15644 1.68926 0.596532
-3.15803 1.68811 0.590023
-3.16261 1.68623 0.583267
-3.16251 1.6855 0.57692
-3.15773 1.68593 0.57097
-3.15756 1.68522 0.564636
-3.15735 1.68452 0.55831
-3.15711 1.68383 0.551992
-3.15684 1.68315 0.545682
-3.15654 1.68248 0.539379
-3.15154 1.68296 0.533448
-3.15118 1.6823 0.527156
-3.14612 1.68279 0.521226
-3.1457 1.68215 0.514944
-3.14314 1.68203 0.508824
-3.13796 1.68256 0.502899
-3.13745 1.68194 0.496632
-3.13222 1.68247 0.490706
-3.12473 1.68356 0.484935
-3.12412 1.68297 0.478677
-3.11651 1.68408 0.472906
-3.10882 1.68522 0.467131
-3.09398 1.6881 0.461825
-3.08615 1.68927 0.456036
-3.07113 1.69219 0.450705
-2.74754 1.86976 1.22176
-2.77949 1.86066 1.20912
-2.79464 1.8559 1.19935
-2.81209 1.85054 1.18924
-2.82699 1.84585 1.17958
-2.84178 1.8412 1.16998
-2.84973 1.8383 1.16153
-2.86432 1.8337 1.15203
-2.87426 1.8303 1.14331
-2.88205 1.82746 1.13496
-2.89627 1.82296 1.12561
-2.90394 1.82015 1.11733
-2.91341 1.81689 1.10879
-2.92096 1.81412 1.10057
-2.92846 1.81136 1.09238
-2.93593 1.80861 1.08422
-2.94336 1.80588 1.07609
-2.95074 1.80316 1.06798
-2.95956 1.80008 1.05968
-2.9668 1.7974 1.05164
-2.97399 1.79473 1.04362
-2.97982 1.79242 1.03583
-2.98244 1.79093 1.02852
-2.99075 1.78799 1.0204
-2.99775 1.78538 1.01249
-3.0036 1.78307 1.00477
-3.01056 1.78049 0.996907
-3.01293 1.77907 0.989713
-3.01978 1.77651 0.9819
-3.02566 1.7742 0.974241
-3.02879 1.77259 0.966983
-3.03549 1.77008 0.959245
-3.04139 1.76777 0.951636
-3.04418 1.76626 0.944466
-3.05009 1.76395 0.936887
-3.05209 1.76264 0.92985
-3.05858 1.76019 0.922227
-3.06451 1.75788 0.914695
-3.06684 1.75649 0.907653
-3.07279 1.75419 0.900151
-3.07456 1.75294 0.893205
-3.07629 1.7517 0.886276
-3.08251 1.74933 0.878784
-3.08848 1.74703 0.871342
-3.09009 1.74583 0.864463
-3.09165 1.74464 0.8576
-3.09771 1.74232 0.850191
-3.10371 1.74001 0.842807
-3.10516 1.73886 0.835993
-3.1066 1.73771 0.829188
-3.108 1.73657 0.822398
-3.11391 1.73429 0.815082
-3.11977 1.73203 0.807789
-3.12099 1.73094 0.801053
-3.12246 1.72979 0.794298
-3.12822 1.72756 0.78706
-3.12934 1.7265 0.780365
-3.13082 1.72534 0.773638
-3.13189 1.7243 0.766966
-3.13749 1.72211 0.7598
-3.13846 1.72109 0.75316
-3.13995 1.71994 0.746469
-3.14086 1.71894 0.73985
-3.14632 1.7168 0.732753
-3.14712 1.71582 0.726165
-3.14864 1.71467 0.71951
-3.1494 1.71371 0.712942
-3.15471 1.71161 0.705912
-3.15536 1.71068 0.699374
-3.15689 1.70953 0.692754
-3.1575 1.70861 0.686235
-3.16267 1.70655 0.67927
-3.16318 1.70566 0.672779
-3.16364 1.70478 0.6663
-3.1652 1.70363 0.659721
-3.16561 1.70276 0.65326
-3.16598 1.70191 0.646811
-3.1663 1.70106 0.640372
-3.16787 1.69991 0.633823
-3.16815 1.69908 0.627402
-3.17302 1.69711 0.62057
-3.17322 1.6963 0.614173
-3.17337 1.69551 0.607786
-3.17348 1.69473 0.601409
-3.1689 1.6951 0.595446
-3.1705 1.69395 0.588948
-3.17517 1.69204 0.582195
-3.17517 1.69129 0.575853
-3.17512 1.69054 0.569519
-3.17504 1.68981 0.563194
-3.17026 1.69024 0.557257
-3.17188 1.68909 0.550801
-3.16991 1.68882 0.54464
-3.16968 1.68813 0.538344
-3.16943 1.68744 0.532055
-3.16447 1.68792 0.526133
-3.16611 1.68676 0.519706
-3.1638 1.68658 0.513583
-3.16343 1.68593 0.507319
-3.15834 1.68643 0.501405
-3.15792 1.68579 0.49515
-3.15277 1.68631 0.489237
-3.15013 1.68622 0.483143
-3.14491 1.68675 0.47723
-3.14214 1.68669 0.471145
-3.13685 1.68724 0.46523
-3.12925 1.68837 0.459467
-3.1239 1.68893 0.453546
-3.11619 1.69008 0.447774
-3.10132 1.69298 0.442454
-3.09348 1.69416 0.436667
-3.05451 1.70297 0.432811
-2.7266 1.88415 1.21798
-2.76602 1.87307 1.20412
-2.79089 1.86577 1.19274
-2.80606 1.86098 1.18302
-2.83039 1.85383 1.17184
-2.83844 1.85089 1.16336
-2.85324 1.84621 1.15382
-2.86339 1.84274 1.14505
-2.87793 1.83814 1.13561
-2.88577 1.83527 1.12727
-2.90008 1.83073 1.11794
-2.90781 1.82789 1.10966
-2.91549 1.82507 1.10142
-2.92496 1.82179 1.09292
-2.93253 1.81901 1.08474
-2.94005 1.81623 1.07659
-2.94753 1.81347 1.06846
-2.95497 1.81073 1.06037
-2.96389 1.8076 1.05207
-2.97119 1.8049 1.04404
-2.97845 1.80221 1.03603
-2.98566 1.79953 1.02805
-2.99282 1.79687 1.0201
-2.99868 1.79454 1.01236
-3.00246 1.79275 1.00494
-3.00947 1.79014 0.997063
-3.01643 1.78753 0.989217
-3.02232 1.78521 0.981543
-3.02469 1.78379 0.974377
-3.03247 1.78098 0.966472
-3.03838 1.77866 0.958848
-3.04059 1.77728 0.951745
-3.0473 1.77476 0.944042
-3.05323 1.77243 0.936464
-3.05602 1.77091 0.929325
-3.06195 1.76859 0.921778
-3.06396 1.76728 0.914768
-3.07046 1.76481 0.907179
-3.07642 1.76249 0.899679
-3.07874 1.7611 0.892666
-3.08471 1.75878 0.885197
-3.0865 1.75753 0.878277
-3.08823 1.75629 0.871373
-3.09446 1.75391 0.863916
-3.10046 1.75159 0.856506
-3.10208 1.75038 0.849652
-3.10364 1.74919 0.842815
-3.10972 1.74686 0.83544
-3.11575 1.74454 0.828088
-3.1172 1.74338 0.8213
-3.11866 1.74222 0.814519
-3.12006 1.74107 0.807755
-3.12599 1.73879 0.800471
-3.12728 1.73767 0.793741
-3.1331 1.73542 0.786501
-3.13459 1.73426 0.77977
-3.14036 1.73202 0.772564
-3.14149 1.73095 0.765894
-3.14256 1.7299 0.759239
-3.14406 1.72874 0.752544
-3.14968 1.72654 0.74541
-3.15065 1.72552 0.738794
-3.15217 1.72436 0.732128
-3.15309 1.72335 0.725533
-3.15856 1.7212 0.718468
-3.15937 1.72022 0.711904
-3.1609 1.71906 0.705273
-3.16167 1.7181 0.698729
-3.167 1.71599 0.691731
-3.16766 1.71505 0.685216
-3.16921 1.71389 0.67862
-3.16983 1.71297 0.672125
-3.17502 1.7109 0.665191
-3.17554 1.71 0.658723
-3.17601 1.70912 0.652267
-3.17758 1.70796 0.645713
-3.178 1.70709 0.639275
-3.17838 1.70623 0.632848
-3.17997 1.70507 0.626317
-3.1803 1.70422 0.619908
-3.18059 1.70339 0.613509
-3.18548 1.70141 0.606707
-3.18569 1.7006 0.600333
-3.18585 1.6998 0.593968
-3.18132 1.70017 0.588014
-3.18293 1.69901 0.581534
-3.18301 1.69823 0.575191
-3.18771 1.69631 0.568468
-3.18771 1.69555 0.562148
-3.18768 1.6948 0.555836
-3.18295 1.69523 0.549909
-3.18458 1.69407 0.54347
-3.18447 1.69334 0.537178
-3.18433 1.69262 0.530894
-3.18231 1.69237 0.52476
-3.17739 1.69284 0.518848
-3.17904 1.69168 0.512439
-3.17877 1.691 0.506181
-3.17847 1.69032 0.49993
-3.17143 1.69132 0.494172
-3.17309 1.69016 0.487785
-3.16593 1.69118 0.482029
-3.15866 1.69223 0.476273
-3.15128 1.69331 0.470517
-3.14392 1.69438 0.464751
-3.13625 1.69552 0.458998
-3.13092 1.69609 0.453083
-3.12325 1.69723 0.447315
-3.11551 1.69839 0.441543
-3.10773 1.69956 0.435766
-3.09989 1.70075 0.429983
-3.09203 1.70193 0.424193
-3.08414 1.70313 0.418396
-2.74519 1.88743 1.20031
-2.78001 1.8775 1.18731
-2.80935 1.86901 1.17528
-2.82449 1.86421 1.16563
-2.84187 1.85883 1.15565
-2.85675 1.85411 1.14612
-2.86476 1.85118 1.13771
-2.88159 1.84596 1.12794
-2.88947 1.84306 1.11961
-2.90388 1.83848 1.11028
-2.91165 1.83562 1.10202
-2.91939 1.83277 1.09378
-2.92895 1.82946 1.08529
-2.93657 1.82664 1.07712
-2.94415 1.82384 1.06898
-2.95169 1.82106 1.06086
-2.95919 1.81828 1.05277
-2.96821 1.81512 1.04448
-2.97557 1.81239 1.03646
-2.98288 1.80967 1.02846
-2.99015 1.80696 1.02049
-2.99737 1.80428 1.01255
-3.00455 1.8016 1.00464
-3.01043 1.79926 0.996925
-3.01757 1.7966 0.989056
-3.02124 1.79483 0.981695
-3.02821 1.79222 0.973885
-3.03413 1.78988 0.966243
-3.03747 1.7882 0.958973
-3.04429 1.78564 0.951239
-3.05022 1.7833 0.943646
-3.05244 1.78191 0.93657
-3.05917 1.77938 0.928903
-3.06512 1.77704 0.921357
-3.0679 1.77552 0.914248
-3.07387 1.77318 0.906733
-3.07587 1.77186 0.89975
-3.08239 1.76939 0.892195
-3.08838 1.76705 0.884728
-3.0907 1.76565 0.877743
-3.0967 1.76332 0.870306
-3.09849 1.76206 0.863412
-3.10022 1.76082 0.856535
-3.10647 1.75842 0.849111
-3.11249 1.75609 0.841733
-3.11412 1.75488 0.834906
-3.11569 1.75368 0.828095
-3.12178 1.75134 0.820753
-3.12783 1.749 0.813433
-3.1293 1.74784 0.806671
-3.1307 1.74669 0.799923
-3.13218 1.74553 0.793175
-3.13813 1.74323 0.785925
-3.13942 1.74211 0.77922
-3.14526 1.73984 0.772012
-3.14676 1.73868 0.765306
-3.15255 1.73642 0.758133
-3.15369 1.73535 0.751488
-3.15477 1.73429 0.744857
-3.15629 1.73313 0.738187
-3.16192 1.73092 0.731085
-3.1629 1.72989 0.724493
-3.16443 1.72873 0.717851
-3.16536 1.72772 0.711281
-3.17085 1.72555 0.704248
-3.17167 1.72457 0.697707
-3.17322 1.7234 0.691101
-3.17399 1.72243 0.684581
-3.17934 1.72031 0.677614
-3.18001 1.71937 0.671123
-3.18158 1.7182 0.664552
-3.1822 1.71728 0.65808
-3.18741 1.7152 0.651177
-3.18331 1.71546 0.645171
-3.18489 1.71429 0.63863
-3.19001 1.71224 0.63177
-3.19044 1.71136 0.625355
-3.19083 1.7105 0.618951
-3.19243 1.70934 0.612444
-3.19278 1.70849 0.606058
-3.19308 1.70765 0.599681
-3.19799 1.70565 0.59291
-3.19355 1.706 0.586959
-3.19517 1.70484 0.580489
-3.19535 1.70403 0.57415
-3.19548 1.70324 0.56782
-3.20024 1.70129 0.561114
-3.20029 1.70052 0.554807
-3.19564 1.70093 0.548884
-3.19729 1.69976 0.542457
-3.19727 1.69901 0.53617
-3.19721 1.69827 0.529891
-3.19712 1.69754 0.52362
-3.19699 1.69682 0.517357
-3.19683 1.6961 0.511102
-3.19196 1.69657 0.505202
-3.18511 1.69752 0.499443
-3.17814 1.6985 0.493687
-3.16956 1.69989 0.488038
-3.16214 1.70098 0.482296
-2.88397 1.76939 0.495396
-3.14947 1.70262 0.470641
-3.1418 1.70378 0.464895
-3.13403 1.70495 0.459147
-3.12617 1.70615 0.453396
-3.11823 1.70737 0.447642
-3.11024 1.70859 0.441882
-3.10219 1.70984 0.436116
-3.09635 1.71053 0.430204
-3.08824 1.71178 0.424426
-3.08172 1.71264 0.418543
-3.07381 1.71385 0.412736
-3.06591 1.71504 0.40692
-2.77355 1.88809 1.18114
-2.80562 1.87885 1.1687
-2.82086 1.874 1.15904
-2.84531 1.86675 1.14795
-2.86025 1.86199 1.13843
-2.86831 1.85904 1.13004
-2.88307 1.85433 1.12061
-2.89317 1.85085 1.11195
-2.90766 1.84622 1.10264
-2.91549 1.84333 1.09439
-2.92328 1.84046 1.08616
-2.93292 1.83711 1.07768
-2.94059 1.83427 1.06952
-2.95452 1.82981 1.06044
-2.96207 1.82701 1.05234
-2.96958 1.82422 1.04428
-2.97704 1.82144 1.03624
-2.98291 1.81909 1.02846
-2.99034 1.81633 1.02046
-2.99462 1.81438 1.01295
-3.00191 1.81167 1.00501
-3.00914 1.80896 0.997109
-3.01633 1.80628 0.989231
-3.02348 1.8036 0.98138
-3.0294 1.80125 0.97372
-3.03306 1.79948 0.966391
-3.04005 1.79685 0.958617
-3.04599 1.7945 0.951007
-3.04932 1.79282 0.943768
-3.05616 1.79024 0.936069
-3.06212 1.78788 0.928508
-3.06435 1.7865 0.92146
-3.07109 1.78395 0.913828
-3.07707 1.78159 0.906314
-3.07984 1.78007 0.899235
-3.08583 1.77772 0.891752
-3.08784 1.77639 0.884796
-3.09438 1.77391 0.877276
-3.09628 1.77261 0.870358
-3.1027 1.77016 0.862885
-3.10873 1.76781 0.855479
-3.11052 1.76654 0.848612
-3.11226 1.7653 0.841762
-3.11853 1.76289 0.834372
-3.12458 1.76054 0.827026
-3.12621 1.75933 0.820224
-3.12779 1.75813 0.813439
-3.1339 1.75577 0.80613
-3.13538 1.75459 0.799378
-3.14144 1.75225 0.792106
-3.14286 1.7511 0.785383
-3.14435 1.74993 0.77866
-3.15031 1.74761 0.771443
-3.15162 1.74649 0.764763
-3.15313 1.74532 0.758069
-3.15898 1.74304 0.750906
-3.16018 1.74195 0.744268
-3.16593 1.7397 0.737146
-3.16702 1.73864 0.730539
-3.16856 1.73746 0.723894
-3.17421 1.73525 0.716824
-3.1752 1.73421 0.710257
-3.17675 1.73304 0.703639
-3.17768 1.73202 0.697093
-3.18319 1.72985 0.690092
-3.18402 1.72886 0.683576
-3.18558 1.72769 0.676994
-3.18637 1.72671 0.670497
-3.19173 1.72458 0.663562
-3.19241 1.72364 0.657094
-3.19399 1.72246 0.650548
-3.19463 1.72153 0.644099
-3.19521 1.72061 0.637662
-3.19681 1.71944 0.631139
-3.19735 1.71853 0.624721
-3.20249 1.71647 0.617891
-3.20293 1.71559 0.611499
-3.20333 1.71472 0.605118
-3.20495 1.71355 0.598636
-3.20531 1.71269 0.592272
-3.20562 1.71185 0.585919
-3.20589 1.71102 0.579575
-3.20752 1.70985 0.573123
-3.20775 1.70903 0.566796
-3.20794 1.70822 0.560479
-3.20808 1.70742 0.554171
-3.20819 1.70663 0.547872
-3.20984 1.70546 0.541456
-3.20991 1.70469 0.535173
-3.20994 1.70392 0.528899
-3.20993 1.70317 0.522633
-3.20346 1.70403 0.516865
-3.19866 1.70448 0.510965
-3.191 1.70564 0.505273
-3.182 1.70714 0.499671
-3.17483 1.70818 0.493926
-3.16546 1.70976 0.48833
-3.16038 1.71028 0.482421
-3.15496 1.71087 0.47653
-3.14526 1.71254 0.47093
-3.13753 1.71371 0.465184
-3.12971 1.71491 0.459436
-3.1218 1.71613 0.453684
-3.11383 1.71736 0.447928
-3.10579 1.7186 0.442167
-3.09996 1.7193 0.436257
-3.09186 1.72056 0.430484
-3.086 1.72126 0.424564
-3.07787 1.72252 0.418776
-3.072 1.72322 0.412844
-3.06389 1.72448 0.407039
-3.05802 1.72518 0.401095
-3.04776 1.72697 0.395395
-2.75266 1.90248 1.1773
-2.7922 1.89123 1.16367
-2.82419 1.88196 1.15134
-2.83941 1.87711 1.14176
-2.85688 1.87166 1.13185
-2.87185 1.86688 1.12238
-2.88669 1.86213 1.11297
-2.89686 1.85861 1.10432
-2.91143 1.85395 1.09501
-2.91931 1.85103 1.08677
-2.92715 1.84813 1.07856
-2.93496 1.84524 1.07037
-2.94915 1.84069 1.06124
-2.95863 1.83737 1.05286
-2.96623 1.83454 1.04477
-2.9738 1.83173 1.03672
-2.98132 1.82893 1.02869
-2.9888 1.82614 1.02069
-2.99624 1.82337 1.01271
-3.00363 1.82061 1.00477
-3.00642 1.81905 0.997498
-3.01372 1.81632 0.989602
-3.02097 1.8136 0.981733
-3.02817 1.8109 0.973891
-3.03533 1.80821 0.966076
-3.04128 1.80584 0.958448
-3.04493 1.80407 0.951151
-3.05194 1.80143 0.943413
-3.0579 1.79906 0.935835
-3.06123 1.79738 0.928627
-3.06809 1.79478 0.920963
-3.07407 1.79242 0.913435
-3.0763 1.79102 0.906414
-3.08306 1.78846 0.898817
-3.08906 1.78609 0.891335
-3.09183 1.78457 0.884286
-3.09785 1.7822 0.876835
-3.10039 1.78073 0.86984
-3.10641 1.77837 0.862421
-3.10832 1.77707 0.855529
-3.11476 1.7746 0.84809
-3.12081 1.77224 0.840717
-3.12261 1.77097 0.833877
-3.12436 1.76972 0.827052
-3.13064 1.7673 0.819696
-3.13672 1.76494 0.812382
-3.13836 1.76372 0.805607
-3.13994 1.76251 0.798847
-3.14603 1.76015 0.791576
-3.14756 1.75896 0.784844
-3.15364 1.75661 0.777605
-3.15506 1.75545 0.770909
-3.15657 1.75427 0.76421
-3.16255 1.75195 0.757026
-3.16386 1.75082 0.750371
-3.16539 1.74964 0.743701
-3.17126 1.74735 0.736571
-3.17247 1.74625 0.729958
-3.17401 1.74507 0.723316
-3.17516 1.74399 0.716724
-3.18088 1.74175 0.709665
-3.18193 1.7407 0.703105
-3.18755 1.73848 0.696085
-3.18911 1.7373 0.689492
-3.19005 1.73628 0.68297
-3.19095 1.73527 0.676461
-3.19252 1.73409 0.669892
-3.198 1.73192 0.662951
-3.19879 1.73094 0.656479
-3.19953 1.72998 0.650018
-3.20112 1.7288 0.643485
-3.20646 1.72667 0.636609
-3.2071 1.72573 0.630184
-3.2077 1.72481 0.62377
-3.20931 1.72363 0.617271
-3.20986 1.72272 0.610876
-3.21502 1.72064 0.604078
-3.21547 1.71976 0.597709
-3.21123 1.72007 0.591756
-3.21752 1.71771 0.584893
-3.21788 1.71685 0.578552
-3.21821 1.716 0.572221
-3.21849 1.71517 0.5659
-3.22014 1.71398 0.559472
-3.22038 1.71316 0.553168
-3.22058 1.71235 0.546873
-3.22073 1.71155 0.540587
-3.2224 1.71037 0.534189
-3.21625 1.71116 0.528408
-3.20753 1.7126 0.522819
-2.81074 1.81183 0.546731
-3.19588 1.71401 0.511174
-3.18704 1.71548 0.505567
-3.17799 1.71699 0.499965
-2.84293 1.80052 0.517945
-3.16571 1.71856 0.488313
-3.15832 1.71966 0.482566
-3.1487 1.72131 0.476967
-3.14102 1.72248 0.471222
-3.13324 1.72367 0.465475
-3.12804 1.72421 0.459547
-3.12014 1.72543 0.453794
-3.11437 1.72612 0.447893
-3.10635 1.72737 0.442131
-3.09828 1.72862 0.436363
-3.09018 1.72989 0.430588
-3.0815 1.7313 0.42484
-3.07338 1.73257 0.419048
-3.06751 1.73327 0.413112
-3.06165 1.73398 0.40717
-3.05356 1.73523 0.401352
-3.04537 1.73651 0.395531
-3.03994 1.73711 0.389546
-2.7883 1.90113 1.1571
-2.82048 1.89177 1.14478
-2.8358 1.88686 1.13519
-2.85342 1.88135 1.12528
-2.87538 1.87471 1.11474
-2.88349 1.87171 1.10639
-2.89835 1.86694 1.09703
-2.90852 1.86341 1.08843
-2.92311 1.85872 1.07917
-2.93101 1.85579 1.07097
-2.93886 1.85288 1.06279
-2.95315 1.84828 1.05368
-2.96272 1.84492 1.0453
-2.97038 1.84207 1.03722
-2.978 1.83922 1.02918
-2.98558 1.8364 1.02116
-2.99311 1.83358 1.01317
-3.00061 1.83078 1.0052
-3.00954 1.82761 0.997053
-3.01547 1.82522 0.989354
-3.02283 1.82246 0.981471
-3.02558 1.82091 0.974254
-3.03284 1.81818 0.966421
-3.04006 1.81547 0.958615
-3.04723 1.81277 0.950836
-3.04978 1.81128 0.943705
-3.05686 1.80861 0.935976
-3.06388 1.80595 0.928273
-3.06987 1.80357 0.920727
-3.07319 1.80188 0.91355
-3.08006 1.79928 0.905922
-3.08607 1.7969 0.898425
-3.08831 1.7955 0.891432
-3.09508 1.79292 0.88387
-3.09721 1.79155 0.876916
-3.10387 1.78901 0.869401
-3.10991 1.78663 0.861983
-3.11245 1.78516 0.855017
-3.1185 1.78278 0.84763
-3.12042 1.78148 0.840765
-3.12687 1.779 0.83336
-3.12868 1.77773 0.826533
-3.13475 1.77535 0.819205
-3.13651 1.77409 0.812407
-3.1428 1.77166 0.805085
-3.14445 1.77044 0.798322
-3.15055 1.76806 0.791054
-3.15214 1.76685 0.78432
-3.15367 1.76566 0.777602
-3.15979 1.76328 0.770375
-3.16128 1.7621 0.763685
-3.16731 1.75975 0.756498
-3.16884 1.75856 0.749824
-3.17483 1.75623 0.742673
-3.17615 1.7551 0.736044
-3.1777 1.75391 0.729398
-3.18359 1.75161 0.722301
-3.1848 1.75051 0.715712
-3.18636 1.74932 0.709095
-3.18752 1.74824 0.702528
-3.19326 1.74598 0.695502
-3.19431 1.74492 0.688966
-3.19589 1.74374 0.682385
-3.20152 1.74151 0.67541
-3.20248 1.74048 0.668912
-3.20338 1.73947 0.662427
-3.20497 1.73829 0.655882
-3.21046 1.7361 0.648974
-3.21126 1.73512 0.642525
-3.21201 1.73415 0.636088
-3.21362 1.73296 0.629579
-3.21897 1.73082 0.622735
-3.21963 1.72988 0.616333
-3.22023 1.72895 0.609943
-3.22186 1.72777 0.603468
-3.22242 1.72685 0.597097
-3.22293 1.72595 0.590736
-3.22457 1.72476 0.584284
-3.22504 1.72388 0.577941
-3.23013 1.72181 0.571215
-3.23051 1.72095 0.564897
-3.23085 1.7201 0.558588
-3.23251 1.71891 0.552178
-3.2328 1.71807 0.545887
-3.22837 1.71843 0.539978
-3.22033 1.71971 0.534352
-3.21209 1.72103 0.528732
-2.80458 1.82354 0.553834
-3.20062 1.72241 0.517081
-3.19195 1.72384 0.511469
-3.18307 1.72532 0.505862
-3.17606 1.72633 0.500107
-3.17094 1.72686 0.494207
-3.16163 1.72845 0.488604
-3.15418 1.72957 0.482858
-3.14448 1.73125 0.47726
-3.13933 1.73178 0.471337
-3.13372 1.73244 0.465443
-3.12588 1.73365 0.459692
-3.11795 1.73488 0.453938
-3.10995 1.73613 0.44818
-3.10413 1.73683 0.442274
-3.09604 1.7381 0.436505
-3.08794 1.73937 0.430728
-3.08207 1.74008 0.424805
-3.07113 1.74206 0.419183
-3.06527 1.74277 0.413245
-3.05719 1.74403 0.407432
-3.05135 1.74473 0.40148
-3.04058 1.74667 0.395803
-3.03478 1.74735 0.389835
-3.02984 1.74783 0.383814
-2.80706 1.90415 1.13975
-2.83212 1.89664 1.12864
-2.85445 1.88986 1.11801
-2.87202 1.88434 1.10818
-2.88706 1.8795 1.09878
-2.902 1.87469 1.08943
-2.91224 1.87112 1.08083
-2.92691 1.86639 1.07159
-2.93485 1.86344 1.0634
-2.94276 1.8605 1.05523
-2.95714 1.85585 1.04612
-2.96494 1.85295 1.03802
-2.9745 1.84958 1.02969
-2.98218 1.84671 1.02165
-2.98982 1.84385 1.01364
-2.99741 1.84101 1.00566
-3.00496 1.83818 0.997706
-3.01399 1.83497 0.989563
-3.02141 1.83218 0.981671
-3.02878 1.82941 0.973807
-3.03474 1.82701 0.966158
-3.03749 1.82545 0.95897
-3.04603 1.82238 0.951001
-3.05321 1.81967 0.94324
-3.05919 1.81727 0.935661
-3.06175 1.81577 0.928558
-3.06883 1.81309 0.920864
-3.07587 1.81042 0.913197
-3.08189 1.80803 0.905683
-3.08521 1.80634 0.898537
-3.09209 1.80372 0.890945
-3.09812 1.80132 0.883481
-3.10111 1.79972 0.876421
-3.10715 1.79733 0.868988
-3.10929 1.79596 0.862061
-3.11597 1.7934 0.854581
-3.12203 1.79101 0.847195
-3.12456 1.78953 0.840258
-3.13064 1.78714 0.832903
-3.13256 1.78583 0.826065
-3.13865 1.78344 0.81874
-3.14084 1.78206 0.811894
-3.14695 1.77967 0.804598
-3.1487 1.77841 0.797826
-3.15482 1.77602 0.79056
-3.15666 1.77474 0.783802
-3.16279 1.77235 0.776566
-3.16439 1.77113 0.769858
-3.16593 1.76993 0.763165
-3.17208 1.76754 0.755971
-3.17357 1.76636 0.749306
-3.17511 1.76517 0.742644
-3.18116 1.7628 0.735503
-3.18717 1.76046 0.728385
-3.1885 1.75932 0.721781
-3.19006 1.75813 0.71516
-3.19596 1.75581 0.708096
-3.19718 1.75471 0.701532
-3.19835 1.75362 0.694981
-3.19993 1.75242 0.688397
-3.20568 1.75016 0.681403
-3.20674 1.7491 0.674892
-3.20833 1.7479 0.668336
-3.21399 1.74566 0.661393
-3.21495 1.74463 0.654919
-3.21586 1.74362 0.648458
-3.21747 1.74242 0.641938
-3.22298 1.74023 0.635061
-3.22379 1.73924 0.628636
-3.22454 1.73827 0.622223
-3.22617 1.73708 0.615739
-3.23154 1.73492 0.608926
-3.22754 1.73517 0.602963
-3.22918 1.73398 0.596501
-3.23446 1.73185 0.589731
-3.23503 1.73093 0.583382
-3.23555 1.73003 0.577045
-3.23721 1.72883 0.570618
-3.23769 1.72794 0.564298
-3.2428 1.72587 0.557602
-3.23851 1.72619 0.551689
-3.23237 1.72699 0.545922
-3.22645 1.72773 0.540132
-3.21648 1.72951 0.534655
-2.79403 1.8364 0.561296
-3.2052 1.73084 0.522998
-3.19477 1.73273 0.517526
-3.18605 1.73418 0.511912
-3.18105 1.73469 0.506011
-3.17407 1.73569 0.500253
-3.1669 1.73674 0.4945
-3.15752 1.73836 0.488898
-3.15001 1.7395 0.483152
-3.14489 1.74003 0.477232
-3.13721 1.7412 0.471483
-3.12941 1.74241 0.465734
-3.12152 1.74364 0.459983
-3.11354 1.74489 0.454229
-3.10773 1.7456 0.448325
-3.09966 1.74687 0.44256
-3.09155 1.74815 0.436789
-3.08569 1.74886 0.430869
-3.07757 1.75014 0.425081
-3.0717 1.75085 0.419149
-3.06082 1.75283 0.41351
-3.05498 1.75353 0.407562
-3.04915 1.75423 0.401607
-3.03843 1.75617 0.395926
-3.03265 1.75685 0.389954
-3.02688 1.75753 0.383977
-3.01762 1.7591 0.378184
-2.81874 1.90899 1.1236
-2.85086 1.89958 1.11147
-2.86857 1.894 1.10163
-2.89063 1.88727 1.09117
-2.8988 1.88423 1.08288
-2.91375 1.8794 1.07358
-2.9307 1.87404 1.06402
-2.93869 1.87107 1.05584
-2.94664 1.8681 1.04768
-2.95654 1.86462 1.03926
-2.96896 1.86048 1.0305
-2.97862 1.85707 1.02217
-2.98635 1.85418 1.01414
-2.99404 1.85129 1.00614
-3.00169 1.84843 0.998173
-3.0093 1.84557 0.990228
-3.01842 1.84232 0.982091
-3.0259 1.8395 0.974209
-3.03333 1.8367 0.966354
-3.04071 1.83392 0.958526
-3.0467 1.8315 0.95091
-3.05076 1.8296 0.943573
-3.058 1.82686 0.935822
-3.06519 1.82413 0.928097
-3.0712 1.82172 0.92055
-3.07376 1.82022 0.913475
-3.08086 1.81752 0.905817
-3.08791 1.81484 0.898186
-3.09396 1.81243 0.890704
-3.09727 1.81074 0.883589
-3.10417 1.8081 0.876032
-3.11022 1.80569 0.8686
-3.11321 1.80409 0.861571
-3.11927 1.80168 0.85417
-3.12142 1.8003 0.84727
-3.12811 1.79774 0.839825
-3.1342 1.79533 0.832471
-3.13673 1.79385 0.825564
-3.14283 1.79145 0.818241
-3.14476 1.79013 0.81143
-3.15088 1.78773 0.804137
-3.15306 1.78635 0.797319
-3.15919 1.78394 0.790056
-3.16095 1.78267 0.783311
-3.1671 1.78027 0.776077
-3.16893 1.77898 0.769346
-3.17053 1.77776 0.762651
-3.17669 1.77536 0.75546
-3.17824 1.77416 0.748793
-3.18441 1.77175 0.741631
-3.18591 1.77057 0.734992
-3.18746 1.76936 0.728354
-3.19354 1.76699 0.721247
-3.19492 1.76583 0.714649
-3.20089 1.76349 0.707583
-3.20247 1.76229 0.700987
-3.20839 1.75996 0.693956
-3.20962 1.75886 0.687416
-3.21079 1.75776 0.680891
-3.21238 1.75656 0.674331
-3.21815 1.75428 0.667369
-3.21922 1.75322 0.660882
-3.22083 1.75201 0.654351
-3.2265 1.74976 0.64744
-3.22747 1.74873 0.640991
-3.22839 1.74771 0.634554
-3.23001 1.74651 0.628058
-3.23554 1.7443 0.621213
-3.2317 1.74451 0.615236
-3.23333 1.74331 0.608764
-3.23877 1.74113 0.601963
-3.23949 1.74017 0.595593
-3.24114 1.73897 0.589149
-3.24181 1.73802 0.582798
-3.24711 1.73588 0.576059
-3.24769 1.73496 0.569733
-3.24822 1.73405 0.563419
-3.24403 1.73436 0.557501
-3.23809 1.73511 0.551723
-3.23045 1.7363 0.546077
-3.22068 1.73803 0.540592
-2.78869 1.84796 0.568372
-3.20961 1.73932 0.528925
-3.19939 1.74116 0.523445
-3.19087 1.74257 0.517823
-3.18589 1.74307 0.511924
-3.17908 1.74404 0.506158
-3.17006 1.74557 0.500546
-3.16285 1.74664 0.494793
-3.15574 1.74768 0.489025
-3.15036 1.74828 0.483127
-3.14279 1.74944 0.477378
-3.13294 1.75118 0.471777
-3.12508 1.75241 0.466028
-3.11713 1.75366 0.460277
-3.11133 1.75436 0.454375
-3.10327 1.75564 0.448615
-3.09517 1.75692 0.442848
-3.08931 1.75764 0.436931
-3.08119 1.75893 0.431149
-3.07532 1.75964 0.425219
-3.06723 1.76092 0.419419
-3.05861 1.76234 0.413642
-3.05279 1.76304 0.40769
-3.04481 1.76429 0.401858
-3.03631 1.76566 0.396046
-3.03055 1.76635 0.390072
-3.0201 1.76822 0.384351
-3.01439 1.76889 0.378359
-3.0079 1.76976 0.372405
-2.81492 1.91882 1.11706
-2.8472 1.90932 1.10493
-2.86261 1.90433 1.09547
-2.88728 1.89687 1.08464
-2.90241 1.89197 1.0753
-2.91285 1.88831 1.06671
-2.92775 1.88348 1.05747
-2.94251 1.87868 1.0483
-2.95052 1.87569 1.04015
-2.95849 1.87271 1.03204
-2.97297 1.868 1.02299
-2.98271 1.86455 1.01467
-2.99049 1.86163 1.00665
-2.99824 1.85872 0.998665
-3.00595 1.85583 0.990703
-3.01361 1.85295 0.982768
-3.02283 1.84965 0.974637
-3.03037 1.84681 0.966764
-3.03786 1.84398 0.958919
-3.0453 1.84117 0.951101
-3.0527 1.83837 0.94331
-3.05871 1.83594 0.935726
-3.06276 1.83403 0.928422
-3.07002 1.83128 0.920707
-3.07723 1.82854 0.913018
-3.08326 1.82611 0.905503
-3.08583 1.8246 0.898456
-3.09294 1.8219 0.890834
-3.10001 1.8192 0.883239
-3.10242 1.81774 0.876254
-3.10939 1.81508 0.868706
-3.1163 1.81244 0.861184
-3.12238 1.81001 0.853785
-3.12536 1.80841 0.846785
-3.13145 1.80598 0.839417
-3.1336 1.8046 0.832544
-3.14031 1.80202 0.825134
-3.14642 1.7996 0.817813
-3.14847 1.79825 0.810991
-3.15046 1.79691 0.804186
-3.15701 1.79438 0.79686
-3.16315 1.79196 0.789599
-3.16533 1.79058 0.78281
-3.16686 1.78937 0.776104
-3.17325 1.78688 0.76886
-3.17497 1.78563 0.762155
-3.18114 1.78321 0.754967
-3.18286 1.78195 0.748286
-3.18904 1.77954 0.741127
-3.1906 1.77833 0.734485
-3.19679 1.77591 0.727357
-3.1983 1.77472 0.720743
-3.19987 1.77351 0.71413
-3.20596 1.77112 0.707056
-3.20735 1.76996 0.700483
-3.20894 1.76875 0.693899
-3.21493 1.7664 0.686878
-3.21622 1.76527 0.680346
-3.21782 1.76406 0.673791
-3.21906 1.76295 0.66728
-3.22489 1.76064 0.66033
-3.22602 1.75956 0.65385
-3.22764 1.75835 0.647331
-3.23338 1.75607 0.640432
-3.23441 1.75502 0.63399
-3.23604 1.75381 0.627499
-3.23702 1.75277 0.621078
-3.24261 1.75054 0.614244
-3.24349 1.74953 0.607851
-3.24514 1.74832 0.601396
-3.24596 1.74733 0.595023
-3.25141 1.74514 0.588253
-3.25214 1.74417 0.581907
-3.25381 1.74296 0.575487
-3.25449 1.74201 0.569159
-3.24936 1.74256 0.563324
-3.24165 1.74377 0.557697
-3.23422 1.74491 0.552038
-3.22467 1.7466 0.546543
-2.78485 1.85915 0.575345
-3.21382 1.74784 0.534865
-3.20383 1.74964 0.529375
-3.19552 1.751 0.523743
-3.19055 1.7515 0.517847
-3.18393 1.75242 0.512071
-3.17512 1.75391 0.506452
-3.16605 1.75546 0.500841
-3.161 1.75598 0.494927
-3.15369 1.75708 0.489172
-3.1462 1.75822 0.483421
-3.13856 1.7594 0.477672
-3.13079 1.76062 0.471925
-3.1229 1.76186 0.466176
-3.11492 1.76312 0.460425
-3.10966 1.76369 0.454485
-3.1016 1.76498 0.448723
-3.09293 1.76642 0.442992
-3.08481 1.76771 0.437215
-3.07895 1.76843 0.431289
-3.07086 1.76972 0.425494
-3.06502 1.77043 0.419553
-3.05425 1.77239 0.413902
-3.04846 1.77309 0.407944
-3.04268 1.77378 0.401981
-3.03422 1.77516 0.396165
-3.02645 1.77636 0.390301
-3.01811 1.7777 0.38446
-3.01243 1.77837 0.378465
-3.00358 1.77984 0.372634
-2.82669 1.92358 1.10099
-2.85898 1.91404 1.08895
-2.88384 1.9065 1.07811
-2.89909 1.90153 1.06878
-2.91424 1.89661 1.05949
-2.93148 1.89112 1.04993
-2.94633 1.88628 1.04077
-2.95438 1.88327 1.03264
-2.9624 1.88026 1.02453
-2.97697 1.87551 1.0155
-2.98679 1.87202 1.00719
-2.99463 1.86908 0.99918
-3.00243 1.86614 0.991201
-3.01019 1.86322 0.98325
-3.01791 1.86031 0.975325
-3.02723 1.85697 0.9672
-3.03481 1.85411 0.959338
-3.04236 1.85125 0.951503
-3.04986 1.84841 0.943694
-3.05732 1.84558 0.935913
-3.06474 1.84277 0.928158
-3.07077 1.84033 0.920606
-3.07482 1.83841 0.913335
-3.08209 1.83565 0.905656
-3.08931 1.8329 0.898004
-3.09538 1.83045 0.890521
-3.09901 1.82866 0.883367
-3.10608 1.82595 0.87579
-3.11216 1.82351 0.868357
-3.11458 1.82205 0.861399
-3.12155 1.81937 0.853887
-3.12848 1.81672 0.846401
-3.13459 1.81428 0.839034
-3.13756 1.81267 0.832065
-3.14368 1.81023 0.824729
-3.14583 1.80884 0.817883
-3.15255 1.80625 0.810508
-3.1546 1.80489 0.8037
-3.16074 1.80246 0.796424
-3.16274 1.80112 0.789646
-3.1693 1.79857 0.782354
-3.17119 1.79726 0.775612
-3.17736 1.79483 0.768397
-3.17942 1.79348 0.761658
-3.1856 1.79104 0.754473
-3.18733 1.78978 0.747795
-3.19352 1.78735 0.74064
-3.19519 1.7861 0.73399
-3.19681 1.78487 0.727355
-3.20302 1.78244 0.720242
-3.20459 1.78123 0.713634
-3.21074 1.77882 0.706558
-3.21233 1.7776 0.69997
-3.21843 1.7752 0.692929
-3.21983 1.77404 0.686382
-3.22144 1.77282 0.679823
-3.22744 1.77046 0.672835
-3.22874 1.76932 0.666328
-3.22998 1.76821 0.659834
-3.2316 1.76699 0.653312
-3.23745 1.76467 0.646394
-3.23859 1.76358 0.639939
-3.24022 1.76237 0.633445
-3.24598 1.76008 0.626577
-3.24701 1.75902 0.62016
-3.24866 1.75781 0.613694
-3.24965 1.75677 0.607297
-3.25526 1.75452 0.600495
-3.25614 1.75351 0.594126
-3.25781 1.75229 0.587696
-3.25864 1.75129 0.581346
-3.25943 1.75031 0.575008
-2.76102 1.87889 0.610797
-3.24691 1.752 0.563528
-3.2397 1.75309 0.557858
-3.23036 1.75473 0.552354
-3.22347 1.75573 0.546639
-3.2178 1.75642 0.540821
-3.20997 1.75767 0.535168
-3.19997 1.75947 0.529676
-3.19502 1.75997 0.523781
-3.18861 1.76085 0.517994
-3.18001 1.76229 0.512365
-3.17115 1.76379 0.506746
-3.16613 1.76431 0.500834
-3.15898 1.76537 0.495073
-3.14957 1.76702 0.489466
-3.14201 1.76818 0.483716
-3.1343 1.76939 0.477969
-3.12912 1.76994 0.472039
-3.12342 1.77062 0.466141
-3.11547 1.77189 0.460388
-3.10744 1.77317 0.454631
-3.09936 1.77447 0.448869
-3.0935 1.77519 0.442955
-3.08257 1.77721 0.437357
-3.07448 1.77851 0.431567
-3.06864 1.77922 0.42563
-3.06281 1.77993 0.419687
-3.05211 1.7819 0.414029
-3.04634 1.78259 0.408069
-3.04058 1.78328 0.402102
-3.03015 1.78517 0.396396
-3.02446 1.78584 0.390412
-3.01618 1.78717 0.384566
-3.01052 1.78784 0.378569
-3.00231 1.78915 0.372702
-2.99424 1.79043 0.366819
-2.84566 1.92636 1.0839
-2.87789 1.9168 1.07197
-2.90266 1.90925 1.06122
-2.91788 1.90428 1.05196
-2.92838 1.90058 1.04342
-2.94337 1.89569 1.03425
-2.95823 1.89083 1.02514
-2.9663 1.88779 1.01704
-2.97635 1.88423 1.00868
-2.98892 1.88 0.999994
-2.99875 1.8765 0.991723
-3.0066 1.87354 0.983755
-3.01441 1.87059 0.975813
-3.02219 1.86765 0.967899
-3.0316 1.86428 0.959781
-3.03924 1.86139 0.951929
-3.04685 1.8585 0.944104
-3.05441 1.85564 0.936305
-3.06193 1.85278 0.928534
-3.0694 1.84994 0.920789
-3.07683 1.84712 0.913071
-3.08289 1.84466 0.905552
-3.08693 1.84274 0.898313
-3.09422 1.83996 0.89067
-3.10145 1.8372 0.883054
-3.10754 1.83474 0.875604
-3.11116 1.83294 0.868482
-3.11825 1.83022 0.86094
-3.12436 1.82777 0.853539
-3.12678 1.8263 0.84661
-3.13377 1.82361 0.839133
-3.1399 1.82116 0.831781
-3.14298 1.81951 0.824813
-3.14981 1.81688 0.817409
-3.15133 1.81565 0.810653
-3.15812 1.81303 0.803287
-3.16428 1.81058 0.796013
-3.1669 1.80906 0.789165
-3.17307 1.80661 0.781922
-3.17547 1.80516 0.775126
-3.18165 1.80271 0.767913
-3.18355 1.8014 0.761198
-3.18974 1.79895 0.754015
-3.1918 1.79759 0.747305
-3.19336 1.79637 0.740657
-3.19973 1.79388 0.7335
-3.20595 1.79143 0.726377
-3.20763 1.79018 0.719753
-3.20925 1.78895 0.713144
-3.21549 1.7865 0.706063
-3.21706 1.78529 0.699482
-3.21866 1.78406 0.692906
-3.22484 1.78164 0.685876
-3.2263 1.78045 0.679335
-3.23236 1.77806 0.672346
-3.23398 1.77684 0.665812
-3.24 1.77446 0.658857
-3.2413 1.77332 0.652375
-3.24255 1.7722 0.645906
-3.24419 1.77098 0.639408
-3.25006 1.76865 0.632523
-3.2512 1.76756 0.626093
-3.25285 1.76633 0.619623
-3.25862 1.76403 0.612788
-3.25967 1.76297 0.606395
-3.26133 1.76175 0.599954
-3.26233 1.7607 0.593581
-3.26795 1.75845 0.586812
-3.26416 1.75865 0.58087
-2.75811 1.88993 0.617773
-3.25195 1.76027 0.569374
-3.24299 1.76182 0.563856
-3.23386 1.76342 0.55834
-2.77693 1.88167 0.58935
-3.22154 1.76506 0.546795
-3.21395 1.76625 0.541128
-3.2042 1.768 0.535623
-3.19925 1.7685 0.529732
-3.19309 1.76932 0.52393
-3.18279 1.77121 0.518437
-2.81217 1.86667 0.540001
-3.17109 1.77267 0.50675
-3.16214 1.77421 0.501127
-3.15492 1.7753 0.495367
-3.14543 1.77697 0.489762
-3.1403 1.77751 0.483837
-3.13475 1.77816 0.477937
-3.12696 1.77939 0.472187
-3.11905 1.78065 0.466437
-3.11104 1.78194 0.460684
-3.10297 1.78324 0.454926
-3.09711 1.78396 0.449015
-3.089 1.78527 0.443244
-3.08314 1.786 0.437321
-3.07227 1.78802 0.431705
-3.06644 1.78873 0.425765
-3.05848 1.79 0.419949
-3.05 1.79139 0.414155
-3.04425 1.79209 0.408191
-3.03387 1.79397 0.40249
-3.02819 1.79464 0.396508
-3.01994 1.79598 0.390665
-3.0143 1.79664 0.38467
-3.00612 1.79795 0.378807
-2.99628 1.79969 0.373023
-2.99072 1.80033 0.367003
-2.81777 1.94264 1.08102
-2.87429 1.92647 1.06547
-2.89222 1.92074 1.05577
-2.91457 1.91382 1.04546
-2.9298 1.90883 1.03624
-2.94714 1.90327 1.02675
-2.95531 1.9002 1.01863
-2.97019 1.89531 1.00957
-2.97827 1.89227 1.00151
-2.98833 1.88869 0.993198
-3.00285 1.88392 0.984282
-3.01075 1.88093 0.976324
-3.01862 1.87795 0.968394
-3.02645 1.87499 0.96049
-3.03595 1.87158 0.95238
-3.04365 1.86866 0.944538
-3.05131 1.86575 0.936723
-3.05893 1.86285 0.928935
-3.06651 1.85997 0.921173
-3.07404 1.8571 0.913438
-3.08153 1.85425 0.90573
-3.08897 1.85141 0.898048
-3.09506 1.84893 0.890562
-3.09909 1.84701 0.883356
-3.10639 1.84422 0.875749
-3.11364 1.84144 0.868169
-3.11976 1.83897 0.860751
-3.12337 1.83717 0.853661
-3.13048 1.83444 0.846155
-3.13661 1.83197 0.838787
-3.13904 1.83049 0.831885
-3.14604 1.82779 0.824444
-3.1522 1.82533 0.817124
-3.15527 1.82368 0.810187
-3.16143 1.82121 0.802898
-3.16365 1.8198 0.796086
-3.17045 1.81717 0.788756
-3.17256 1.81578 0.781981
-3.17926 1.81318 0.774696
-3.18545 1.81072 0.767485
-3.18746 1.80937 0.760761
-3.18941 1.80803 0.754052
-3.19595 1.80548 0.746849
-3.20217 1.80302 0.739698
-3.20402 1.80171 0.733038
-3.20581 1.80043 0.726393
-3.21219 1.79793 0.71927
-3.21387 1.79667 0.712659
-3.22012 1.79421 0.705582
-3.22175 1.79297 0.698999
-3.22801 1.79051 0.69195
-3.22959 1.78929 0.685395
-3.23121 1.78806 0.678843
-3.23739 1.78562 0.671846
-3.23886 1.78443 0.665332
-3.24049 1.7832 0.658809
-3.24658 1.7808 0.651866
-3.24794 1.77964 0.645391
-3.24925 1.7785 0.638929
-3.25518 1.77614 0.632043
-3.25683 1.77491 0.62557
-3.25804 1.7738 0.619147
-3.26387 1.77148 0.612312
-3.26554 1.77024 0.605867
-3.26664 1.76916 0.599482
-3.26832 1.76793 0.593054
-3.26937 1.76687 0.586688
-2.75542 1.90094 0.624742
-3.25676 1.7686 0.575235
-3.24798 1.77011 0.569709
-3.23905 1.77166 0.564184
-2.77313 1.89291 0.596359
-3.22695 1.77326 0.552632
-3.21767 1.7749 0.547108
-3.20817 1.77659 0.541589
-3.20322 1.77709 0.5357
-3.19733 1.77785 0.529881
-3.1873 1.77968 0.524376
-2.80854 1.87778 0.546898
-3.17587 1.78108 0.512677
-3.16715 1.78256 0.507043
-3.15812 1.78413 0.501421
-2.82782 1.86943 0.519039
-3.14575 1.78577 0.489739
-3.13821 1.78694 0.483985
-3.13049 1.78816 0.478234
-3.12262 1.78942 0.472486
-3.11464 1.7907 0.466736
-3.10659 1.79201 0.460982
-3.10073 1.79274 0.455074
-3.09262 1.79405 0.449307
-3.08676 1.79478 0.443388
-3.07868 1.79609 0.437603
-3.07008 1.79752 0.431841
-3.06212 1.79879 0.42603
-3.05635 1.7995 0.420078
-3.04793 1.80089 0.414279
-3.0422 1.80158 0.408311
-3.03194 1.80344 0.402602
-3.02629 1.80411 0.396616
-3.0181 1.80543 0.390769
-3.01249 1.80609 0.38477
-3.00269 1.80783 0.378993
-2.99466 1.80911 0.373109
-2.98667 1.81038 0.367215
-2.98132 1.81096 0.361176
-2.85381 1.94072 1.06147
-2.88622 1.93104 1.04964
-2.91118 1.92338 1.03897
-2.92652 1.91833 1.02975
-2.94404 1.9127 1.02026
-2.95912 1.90774 1.01116
-2.97407 1.90282 1.00211
-2.9822 1.89975 0.994066
-2.99234 1.89614 0.985761
-3.00694 1.89132 0.976857
-3.01489 1.8883 0.968911
-3.02281 1.8853 0.960991
-3.03069 1.88231 0.953098
-3.03854 1.87933 0.945232
-3.04804 1.87591 0.937164
-3.05576 1.87297 0.929359
-3.06344 1.87005 0.921581
-3.07107 1.86714 0.91383
-3.07866 1.86424 0.906105
-3.08621 1.86136 0.898407
-3.09371 1.8585 0.890736
-3.10116 1.85565 0.883091
-3.10395 1.85405 0.87606
-3.11131 1.85123 0.868464
-3.11862 1.84843 0.860893
-3.12589 1.84564 0.853349
-3.13203 1.84315 0.845964
-3.13564 1.84135 0.838905
-3.14275 1.8386 0.831435
-3.14427 1.83736 0.824657
-3.15134 1.83464 0.817226
-3.15836 1.83192 0.80982
-3.16069 1.83047 0.802984
-3.16761 1.82779 0.795625
-3.1738 1.82531 0.788369
-3.17664 1.82373 0.781514
-3.18284 1.82125 0.774289
-3.18495 1.81986 0.767542
-3.19117 1.81738 0.760346
-3.19367 1.81589 0.75358
-3.1999 1.81341 0.746416
-3.20185 1.81207 0.739733
-3.20841 1.80951 0.732565
-3.21025 1.8082 0.725917
-3.2165 1.80572 0.718813
-3.2183 1.80443 0.712194
-3.22457 1.80195 0.705119
-3.22638 1.80066 0.698521
-3.228 1.79942 0.691952
-3.23429 1.79694 0.684918
-3.24058 1.79447 0.677903
-3.24216 1.79324 0.671372
