ply
format ascii 1.0
comment Created by Open3D
element vertex 1865
property double x
property double y
property double z
end_header
-2.91526 1.83474 0.971742
-3.29927 1.83294 0.77443
-2.91749 1.83022 0.961318
-3.08019 1.82777 0.875623
-3.18011 1.8263 0.819947
-3.1903 1.82361 0.810868
-3.14955 1.82116 0.826954
-3.29277 1.81951 0.749917
-3.11051 1.81688 0.83706
-3.4036 1.81565 0.684519
-3.26783 1.81303 0.748431
-3.22497 1.81058 0.765666
-3.16172 1.80906 0.791755
-3.08549 1.80661 0.825714
-3.15051 1.80516 0.787609
-3.13681 1.80271 0.790336
-3.04562 1.8014 0.830159
-3.53358 1.79895 0.582095
-3.27866 1.79759 0.703872
-3.153 1.79637 0.760838
-2.99265 1.79388 0.837044
-3.10415 1.79143 0.777281
-3.22083 1.79018 0.713154
-3.3331 1.78895 0.651221
-3.12551 1.7865 0.751053
-3.31332 1.78529 0.65135
-3.35917 1.78406 0.622651
-3.31129 1.78164 0.642648
-3.20161 1.78045 0.691679
-3.23944 1.77806 0.668805
-3.25483 1.77684 0.65539
-3.10367 1.77446 0.727024
-3.11205 1.77332 0.717003
-3.23157 1.7722 0.651396
-3.29609 1.77098 0.613457
-3.2154 1.76865 0.649853
-3.24214 1.76756 0.630625
-3.30784 1.76633 0.592129
-3.38895 1.76403 0.547625
-3.20428 1.76297 0.634088
-3.40674 1.76175 0.52725
-3.12109 1.7607 0.664199
-3.12414 1.75845 0.658719
-3.37314 1.75865 0.52638
-2.63099 1.88993 0.681331
-3.0857 1.76027 0.6525
-3.24203 1.76182 0.564334
-3.30565 1.76342 0.522447
-2.92902 1.88167 0.513307
-3.29315 1.76506 0.510989
-3.29691 1.76625 0.499647
-3.08822 1.768 0.593615
-3.19456 1.7685 0.532077
-3.14774 1.76932 0.546602
-3.07531 1.77121 0.572174
-2.78916 1.86667 0.551505
-3.22064 1.77267 0.481977
-3.06431 1.77421 0.550038
-3.15599 1.7753 0.494832
-3.22752 1.77697 0.448712
-3.17052 1.77751 0.468726
-3.05899 1.77816 0.515819
-3.06773 1.77939 0.501804
-3.05561 1.78065 0.498157
-3.11283 1.78194 0.459789
-3.3056 1.78324 0.353613
-3.00197 1.78396 0.496588
-3.07109 1.78527 0.4522
-2.85189 1.786 0.552946
-3.04208 1.78802 0.446799
-3.08074 1.78873 0.418615
-3.09185 1.79 0.403264
-3.18091 1.79139 0.3487
-3.00658 1.79209 0.427025
-3.17021 1.79397 0.334321
-3.05333 1.79464 0.383938
-2.93577 1.79598 0.432754
-2.92474 1.79664 0.429451
-2.89113 1.79795 0.436303
-2.96084 1.79969 0.390746
-2.91774 1.80033 0.403495
-2.7535 1.94264 1.11315
-2.90491 1.92647 1.05015
-2.84887 1.92074 1.07744
-3.06468 1.91382 0.970401
-2.79802 1.90883 1.10213
-2.66214 1.90327 1.16925
-2.97663 1.9002 1.00797
-3.00206 1.89531 0.993632
-3.08394 1.89227 0.948679
-3.04932 1.88869 0.962706
-3.09138 1.88392 0.940017
-3.01636 1.88093 0.973523
-3.22496 1.87795 0.865222
-2.81499 1.87499 1.06622
-2.98444 1.87158 0.978133
-3.0819 1.86866 0.925413
-3.06581 1.86575 0.929477
-3.07067 1.86285 0.923064
-3.11078 1.85997 0.899037
-3.17786 1.8571 0.861529
-3.00364 1.85425 0.944672
-3.18553 1.85141 0.84977
-3.25064 1.84893 0.812774
-3.41985 1.84701 0.72298
-3.14664 1.84422 0.855624
-3.09425 1.84144 0.877867
-3.29436 1.83897 0.773452
-3.24527 1.83717 0.792712
-3.10559 1.83444 0.8586
-3.21989 1.83197 0.797145
-3.2108 1.83049 0.796004
-2.99028 1.82779 0.902326
-3.13593 1.82533 0.825258
-3.26767 1.82368 0.753987
-3.09203 1.82121 0.8376
-3.19659 1.8198 0.779614
-3.02268 1.81717 0.862643
-3.04362 1.81578 0.846451
-3.28953 1.81318 0.719558
-3.18152 1.81072 0.769451
-3.31003 1.80937 0.699474
-3.14252 1.80803 0.777497
-3.17309 1.80548 0.758278
-3.13302 1.80302 0.774277
-3.17921 1.80171 0.745442
-3.06006 1.80043 0.799265
-3.23656 1.79793 0.707084
-3.38938 1.79667 0.624905
-3.14104 1.79421 0.745122
-3.1826 1.79297 0.718573
-3.19575 1.79051 0.70808
-3.48462 1.78929 0.557881
-3.03505 1.78806 0.77692
-3.43594 1.78562 0.572575
-3.391 1.78443 0.589263
-3.22172 1.7832 0.668198
-3.24142 1.7808 0.654446
-3.00421 1.77964 0.767257
-3.28722 1.7785 0.619946
-3.45683 1.77614 0.531216
-3.30825 1.77491 0.59986
-3.24574 1.7738 0.625295
-3.36157 1.77148 0.563461
-3.37382 1.77024 0.551726
-3.31915 1.76916 0.573225
-3.46577 1.76793 0.494328
-3.39779 1.76687 0.522476
-2.82123 1.90094 0.591838
-2.97802 1.7686 0.714609
-3.30214 1.77011 0.542628
-3.1541 1.77166 0.606661
-2.96553 1.89291 0.500161
-3.35353 1.77326 0.489341
-3.08069 1.7749 0.615594
-3.19498 1.77659 0.548183
-3.40945 1.77709 0.432587
-3.24033 1.77785 0.508378
-3.29471 1.77968 0.47067
-2.83912 1.87778 0.531609
-3.39146 1.78108 0.404883
-3.17303 1.78256 0.504105
-3.36506 1.78413 0.397951
-2.87232 1.86943 0.496786
-2.96285 1.78577 0.581189
-3.19091 1.78694 0.45763
-3.17985 1.78816 0.453552
-3.16561 1.78942 0.45099
-3.14038 1.7907 0.453866
-3.24929 1.79201 0.389629
-3.04995 1.79274 0.480463
-3.19233 1.79405 0.399453
-2.89447 1.79478 0.539532
-3.19417 1.79609 0.379857
-3.12618 1.79752 0.403791
-3.11385 1.79879 0.400167
-3.01553 1.7995 0.440489
-3.13625 1.80089 0.370117
-3.1698 1.80158 0.344514
-3.05275 1.80344 0.392194
-3.13565 1.80411 0.341937
-2.83108 1.80543 0.48428
-3.16346 1.80609 0.309281
-2.93952 1.80783 0.410577
-3.01858 1.80911 0.361151
-2.77334 1.81038 0.473884
-2.95378 1.81096 0.374947
-2.95558 1.94072 1.01059
-2.75412 1.93104 1.11569
-2.85138 1.92338 1.06887
-2.9032 1.91833 1.04142
-3.02316 1.9127 0.980705
-2.83637 1.90774 1.07253
-2.93592 1.90282 1.02119
-2.84457 1.89975 1.06288
-2.95723 1.89614 1.00331
-2.84081 1.89132 1.05992
-3.04148 1.8883 0.955616
-3.16047 1.8853 0.892165
-2.81034 1.88231 1.06328
-2.9425 1.87933 0.993249
-3.01825 1.87591 0.952058
-2.85095 1.87297 1.03177
-3.09101 1.87005 0.907795
-3.17456 1.86714 0.862087
-2.90951 1.86424 0.990679
-3.0189 1.86136 0.932063
-3.2879 1.8585 0.793641
-3.11772 1.85565 0.874811
-3.16932 1.85405 0.843375
-2.99471 1.85123 0.92676
-2.96806 1.84843 0.936172
-3.05922 1.84564 0.886684
-2.97926 1.84315 0.922349
-3.29615 1.84135 0.758648
-3.26533 1.8386 0.770146
-3.27897 1.83736 0.757308
-3.18689 1.83464 0.799453
-3.21399 1.83192 0.782007
-3.15595 1.83047 0.805356
-3.34629 1.82779 0.706281
-3.2386 1.82531 0.755968
-3.42681 1.82373 0.656429
-2.97253 1.82125 0.879441
-3.12397 1.81986 0.798036
-3.20082 1.81738 0.755521
-3.03342 1.81589 0.833704
-3.09781 1.81341 0.797458
-3.23366 1.81207 0.72383
-3.13568 1.80951 0.768927
-3.07727 1.8082 0.792409
-3.29622 1.80572 0.678957
-3.13449 1.80443 0.754099
-3.22028 1.80195 0.707261
-3.33664 1.80066 0.64339
-3.30656 1.79942 0.652672
-3.30643 1.79694 0.648849
-3.1718 1.79447 0.712292
-3.06307 1.79324 0.760921
-3.40715 1.792 0.583171
-3.20011 1.78955 0.682828
-3.31286 1.78836 0.620701
-3.30134 1.78712 0.620788
-3.10796 1.78471 0.713618
-3.36775 1.78355 0.577959
-3.30755 1.7824 0.60228
-3.24348 1.78116 0.628688
-3.2958 1.77879 0.598662
-3.0462 1.77768 0.717668
-3.45131 1.77644 0.509521
-3.11614 1.77534 0.671309
-3.40995 1.77664 0.51487
-3.34324 1.77699 0.540162
-3.17598 1.77846 0.61395
-3.07901 1.77997 0.652531
-3.04202 1.78103 0.661831
-3.49548 1.78152 0.426791
-3.05218 1.78311 0.638381
-3.40966 1.78475 0.449486
-3.17011 1.78526 0.560895
-3.16556 1.78644 0.55372
-3.38077 1.7877 0.436533
-2.70372 1.88908 0.604148
-3.09162 1.78954 0.563011
-3.19327 1.79096 0.50232
-3.27872 1.79247 0.449577
-3.15395 1.79351 0.502684
-3.1952 1.79406 0.473574
-3.06382 1.79574 0.528929
-3.03035 1.79694 0.536101
-3.22772 1.79819 0.427762
-3.14967 1.79947 0.45707
-3.2398 1.80077 0.402237
-3.22709 1.80151 0.399761
-3.11347 1.80283 0.446754
-3.05971 1.80356 0.46479
-3.16995 1.80487 0.399849
-3.32492 1.8056 0.313518
-3.06159 1.80759 0.4342
-3.00835 1.80829 0.45199
-3.0463 1.80899 0.424191
-3.09533 1.81037 0.389687
-2.96942 1.81223 0.441832
-3.07418 1.8129 0.380654
-3.02162 1.81422 0.397014
-3.02997 1.81487 0.384047
-2.96161 1.81618 0.408323
-3.0913 1.81787 0.332889
-2.82677 1.81914 0.455286
-3.09491 1.81976 0.312438
-3.04355 1.82093 0.328406
-2.81146 1.94069 1.07873
-3.113 1.93488 0.92735
-2.83453 1.92595 1.07009
-2.77922 1.92216 1.0946
-2.77086 1.91527 1.09973
-2.95988 1.91216 1.00127
-2.90257 1.90721 1.02841
-2.95301 1.90356 0.999998
-2.90015 1.9005 1.02249
-3.35176 1.89566 0.795144
-2.97726 1.89263 0.97847
-3.07743 1.88962 0.924469
-2.96582 1.88661 0.976367
-3.10943 1.88315 0.9013
-2.95436 1.88019 0.974929
-3.03487 1.87724 0.930769
-3.00164 1.8743 0.943489
-3.16768 1.87138 0.856582
-3.39455 1.86847 0.739259
-3.11188 1.86557 0.876716
-3.12448 1.86233 0.867039
-3.18511 1.86108 0.830616
-3.05829 1.85823 0.890154
-3.22371 1.8554 0.803569
-2.9841 1.85258 0.919505
-2.96733 1.85008 0.923596
-3.07346 1.84824 0.865331
-3.10073 1.84547 0.847823
-3.25686 1.84297 0.765525
-3.39011 1.84122 0.693623
-3.33528 1.8385 0.717163
-3.00845 1.836 0.876401
-3.01464 1.83454 0.867666
-3.22829 1.83185 0.756983
-3.31379 1.83043 0.708578
-3.08211 1.82777 0.82055
-3.08745 1.82652 0.811994
-3.1393 1.82388 0.782217
-3.31892 1.82139 0.688364
-3.11577 1.8199 0.78445
-3.07358 1.8174 0.801539
-3.08546 1.81606 0.789922
-3.11642 1.81356 0.770472
-3.20306 1.81217 0.721581
-3.31 1.81093 0.662326
-3.20159 1.80838 0.712689
-3.18505 1.80589 0.717059
-3.21827 1.80461 0.694762
-3.3974 1.80335 0.59949
-3.29752 1.80086 0.645584
-3.27081 1.79961 0.65324
-3.06915 1.79837 0.74838
-3.51166 1.79589 0.523307
-3.2617 1.79468 0.642572
-3.30391 1.79223 0.617633
-3.38272 1.79099 0.572593
-3.50356 1.78981 0.506443
-3.20391 1.7874 0.65244
-3.40888 1.78625 0.544206
-3.17623 1.785 0.654933
-3.40442 1.78387 0.535086
-3.39812 1.78458 0.529624
-3.33078 1.78599 0.553585
-3.5061 1.78742 0.45617
-3.22159 1.78888 0.588614
-3.46864 1.78943 0.45671
-3.39566 1.79038 0.484168
-3.25175 1.79191 0.546173
-3.0511 1.90823 0.454892
-3.36564 1.79349 0.471637
-3.31244 1.79461 0.488914
-2.85706 1.79631 0.706345
-3.13676 1.79732 0.557306
-3.18361 1.79808 0.525113
-3.24925 1.79942 0.482559
-3.10854 1.80137 0.542196
-3.10935 1.80189 0.533375
-3.19407 1.80291 0.481773
-2.97484 1.80401 0.582018
-3.11263 1.80573 0.502736
-3.22361 1.80696 0.437636
-3.26012 1.80753 0.410846
-3.13697 1.80823 0.463654
-3.10063 1.80954 0.472066
-3.14884 1.81086 0.43816
-3.16979 1.81234 0.417625
-3.11558 1.81366 0.434913
-3.0597 1.81439 0.454014
-3.02468 1.81511 0.462682
-3.06513 1.81709 0.431515
-3.08911 1.81779 0.410706
-3.11671 1.81917 0.386937
-2.98852 1.82034 0.441391
-2.90304 1.82168 0.47422
-3.03401 1.82234 0.399951
-3.11894 1.82365 0.347594
-3.1089 1.82495 0.342737
-2.96928 1.82662 0.402013
-2.84268 1.82725 0.456548
-3.22984 1.82851 0.253129
-2.95843 1.82975 0.378997
-3.06016 1.83087 0.318505
-2.85997 1.94517 1.04473
-3.07845 1.93547 0.939976
-2.88732 1.93037 1.03411
-3.15152 1.92467 0.901391
-3.24067 1.91965 0.855363
-2.88079 1.91652 1.03139
-3.04026 1.91155 0.950204
-2.9866 1.90789 0.973888
-2.99711 1.90301 0.967144
-2.9378 1.89995 0.992912
-2.93353 1.89691 0.991171
-3.27061 1.89388 0.818757
-3.06682 1.89038 0.917442
-3.06613 1.88739 0.913917
-3.05288 1.88441 0.91668
-2.88536 1.88144 0.996585
-2.87935 1.87849 0.995736
-3.10964 1.87556 0.876748
-3.04165 1.87225 0.907433
-3.10217 1.86935 0.873321
-3.46695 1.86684 0.686579
-3.03806 1.86522 0.895451
-3.00095 1.86235 0.910175
-3.08071 1.85951 0.866464
-3.27886 1.85668 0.763562
-3.19834 1.85512 0.798234
-3.30781 1.85232 0.739671
-3.00518 1.84953 0.887157
-3.10384 1.84702 0.833641
-3.11223 1.84527 0.824195
-2.94079 1.84276 0.905761
-3.06933 1.84128 0.83589
-3.18286 1.83856 0.775308
-3.1532 1.83605 0.786044
-3.0536 1.83443 0.830492
-3.1419 1.83192 0.782285
-3.29439 1.8305 0.70042
-3.20925 1.82785 0.739181
-3.32863 1.82534 0.675492
-3.1283 1.82396 0.770033
-3.39639 1.82259 0.63035
-3.57521 1.81999 0.537133
-3.3505 1.81748 0.645561
-3.15362 1.81615 0.73836
-3.46138 1.81483 0.578824
-3.32888 1.81233 0.641205
-3.4093 1.811 0.595386
-3.40862 1.80849 0.591887
-3.00844 1.80722 0.786303
-3.16809 1.80472 0.702677
-3.08526 1.80347 0.738423
-3.05716 1.80221 0.74681
-3.31423 1.79973 0.614499
-3.45225 1.79851 0.539807
-3.32634 1.79726 0.597137
-3.3433 1.79605 0.582969
-3.19739 1.79362 0.652139
-3.31221 1.79245 0.589016
-3.41481 1.79313 0.529151
-3.32114 1.79451 0.566346
-3.30136 1.79591 0.566553
-2.69654 1.92593 0.659432
-3.30034 1.79734 0.5498
-3.23063 1.79879 0.57486
-3.44922 1.80027 0.455708
-2.69353 1.91808 0.641006
-3.03427 1.8018 0.645701
-3.3903 1.80337 0.457657
-3.14098 1.805 0.572189
-3.01374 1.91121 0.459665
-2.98559 1.80669 0.632074
-3.21349 1.80795 0.508541
-3.01074 1.80982 0.599355
-3.24141 1.81034 0.475619
-3.09812 1.81129 0.538157
-3.36332 1.81285 0.395444
-2.96732 1.81398 0.584026
-3.12066 1.81508 0.497984
-3.01293 1.81574 0.543175
-2.99584 1.817 0.542053
-2.74019 1.81831 0.660138
-2.92708 1.81963 0.556907
-2.89997 1.82038 0.561622
-3.05534 1.82171 0.474125
-2.87895 1.82317 0.552273
-3.07626 1.82446 0.443848
-3.25555 1.82517 0.345386
-2.82494 1.82657 0.550716
-2.83273 1.82727 0.538016
-2.94687 1.82912 0.470196
-2.98118 1.83045 0.443156
-3.03789 1.83111 0.406035
-3.09053 1.83241 0.369847
-3.1331 1.83306 0.339798
-2.85426 1.83434 0.469367
-2.8693 1.83598 0.451394
-3.03115 1.83723 0.360654
-2.81161 1.83847 0.460616
-2.97621 1.8397 0.368503
-2.96067 1.84032 0.367513
-3.01575 1.96143 0.949986
-2.8928 1.9496 1.01867
-3.14808 1.93986 0.895605
-3.1472 1.93409 0.895504
-2.97932 1.92901 0.978056
-2.93168 1.92397 1.00048
-2.75999 1.92023 1.08325
-3.10354 1.91526 0.910051
-3.06302 1.91216 0.926454
-3.13577 1.90726 0.888649
-3.18305 1.90419 0.861169
-3.00611 1.90113 0.945805
-3.07711 1.89759 0.907146
-3.04204 1.89457 0.920848
-2.99851 1.89157 0.938787
-3.22487 1.88858 0.821791
-3.05316 1.8856 0.903834
-3.0164 1.88263 0.918407
-3.2325 1.87928 0.807103
-3.06237 1.87636 0.888353
-3.09653 1.87346 0.867464
-3.22849 1.87219 0.795429
-3.28039 1.8693 0.765686
-3.23882 1.86642 0.782685
-3.18262 1.86325 0.807435
-3.12149 1.86072 0.833779
-3.13938 1.85916 0.819277
-3.09322 1.85634 0.838569
-3.26361 1.85355 0.749592
-3.25709 1.85203 0.747274
-3.21572 1.84927 0.764168
-2.95572 1.84674 0.890065
-3.03522 1.84526 0.844739
-3.00113 1.84252 0.858009
-3.25806 1.84 0.725498
-3.11214 1.83837 0.793134
-3.14319 1.83585 0.773598
-3.23702 1.83443 0.721093
-3.06308 1.8319 0.804086
-3.10577 1.83038 0.777335
-3.20476 1.82785 0.723902
-3.09613 1.82648 0.772613
-3.0361 1.82396 0.798725
-3.25504 1.82253 0.683765
-3.17906 1.82001 0.717891
-3.13237 1.81869 0.735606
-3.21582 1.81617 0.690056
-3.26483 1.81486 0.659925
-3.34713 1.81358 0.613139
-3.34352 1.81104 0.611186
-3.25659 1.80978 0.649001
-3.24817 1.80727 0.649464
-3.28501 1.80601 0.625418
-3.12075 1.80477 0.701901
-3.33844 1.80229 0.58931
-3.29122 1.80108 0.607248
-3.28936 1.80115 0.600569
-3.22564 1.8031 0.621933
-3.22286 1.80447 0.613701
-3.25349 1.80505 0.589967
-3.25938 1.80586 0.578254
-3.21692 1.80727 0.589771
-3.18373 1.80871 0.59659
-2.83911 1.92885 0.574114
-3.28372 1.81019 0.529213
-2.94386 1.8117 0.689228
-3.25175 1.81327 0.525276
-3.22938 1.81432 0.527236
-3.33319 1.81489 0.466885
-3.10519 1.81658 0.57064
-3.16136 1.81836 0.532163
-3.34847 1.81887 0.430211
-3.09837 1.81973 0.546314
-3.21042 1.82121 0.480331
-3.16479 1.82281 0.492989
-3.24148 1.82335 0.446181
-3.10745 1.82453 0.503694
-3.06954 1.82578 0.513033
-3.09304 1.82707 0.491568
-3.01033 1.8284 0.523149
-2.92519 1.82915 0.556883
-2.90596 1.83049 0.556687
-2.96632 1.83123 0.517673
-2.96955 1.83325 0.505105
-3.29115 1.83396 0.335491
-3.13967 1.83536 0.401278
-3.11785 1.83605 0.403397
-3.00437 1.83673 0.45135
-2.91052 1.83855 0.487604
-2.90372 1.83986 0.481156
-2.96584 1.84116 0.440263
-3.11695 1.8418 0.355958
-3.16884 1.84308 0.320188
-3.0099 1.8453 0.388233
-2.88252 1.84592 0.443184
-2.91565 1.84716 0.416835
-3.25181 1.84839 0.238972
-3.19529 1.849 0.258486
-2.92841 1.85023 0.382131
-3.06893 1.9592 0.922361
-3.08317 1.94937 0.919918
-2.75077 1.94419 1.08479
-2.90915 1.93649 1.00764
-3.03721 1.9333 0.939768
-3.21554 1.92823 0.849267
-3.20224 1.92448 0.85288
-3.04378 1.91949 0.930756
-3.01229 1.91637 0.942688
-2.91252 1.91145 0.991204
-3.04351 1.90837 0.921912
-3.18749 1.90479 0.846808
-3.08842 1.90175 0.892551
-3.19186 1.89871 0.837044
-2.96939 1.89569 0.9445
-3.2119 1.89269 0.819471
-3.08734 1.8897 0.877984
-3.26634 1.88631 0.785288
-3.14973 1.88336 0.839816
-2.83627 1.88042 0.992778
-2.98997 1.87788 0.911645
-3.29579 1.87623 0.753225
-3.08335 1.87298 0.856175
-2.9543 1.87011 0.916934
-2.80073 1.86757 0.989523
-3.03373 1.86598 0.8675
-3.18065 1.86314 0.790294
-3.32668 1.86032 0.713537
-3.00932 1.85777 0.868097
-3.13644 1.85598 0.799368
-3.16243 1.85321 0.782625
-3.27153 1.85194 0.722204
-2.97228 1.84918 0.868096
-3.30187 1.84664 0.699279
-3.06455 1.84498 0.81267
-3.08221 1.84244 0.799856
-3.39563 1.841 0.637588
-3.02652 1.8383 0.81842
-3.02715 1.83576 0.814176
-3.0196 1.83423 0.812568
-3.1195 1.83297 0.756871
-3.40107 1.83032 0.612362
-2.99959 1.82778 0.809252
-3.33281 1.82643 0.637067
-3.40034 1.82508 0.597712
-3.22995 1.82249 0.679188
-3.34181 1.82118 0.617645
-3.30575 1.81865 0.631909
-3.13312 1.81735 0.712619
-3.01101 1.81608 0.768052
-3.28119 1.81354 0.629247
-3.25672 1.81228 0.63586
-3.20515 1.81102 0.656049
-3.36905 1.80977 0.568473
-3.16277 1.81175 0.661099
-3.25679 1.81237 0.605633
-3.1502 1.81309 0.650301
-3.30997 1.81445 0.560817
-3.2635 1.81583 0.574407
-3.22729 1.81723 0.582823
-3.00273 1.81781 0.686673
-3.05876 1.81866 0.649796
-3.18589 1.82012 0.576417
-3.016 1.82217 0.650617
-3.34544 1.82272 0.477486
-3.40164 1.82371 0.440271
-3.20141 1.82479 0.531125
-3.25195 1.82647 0.495628
-3.19549 1.82699 0.515467
-3.18016 1.82826 0.513552
-3.32206 1.82964 0.432821
-3.15747 1.83115 0.505127
-3.23585 1.83168 0.457495
-3.06886 1.83279 0.531619
-3.21756 1.83456 0.446834
-3.27914 1.83584 0.406365
-3.30796 1.83717 0.382196
-3.22119 1.83792 0.416753
-3.0392 1.83926 0.497941
-2.94118 1.84001 0.538119
-2.96817 1.84074 0.515794
-3.20728 1.84274 0.385341
-2.92906 1.84344 0.515658
-2.94413 1.84482 0.49821
-3.19212 1.84551 0.365443
-3.07557 1.84729 0.41311
-3.11733 1.8486 0.382415
-3.01499 1.84924 0.424846
-3.14872 1.85052 0.348183
-3.00724 1.85179 0.409132
-3.03153 1.85305 0.387199
-3.10904 1.85368 0.339712
-3.05266 1.85582 0.356613
-3.01577 1.85705 0.365299
-2.89472 1.85766 0.41709
-3.15602 1.85888 0.276674
-2.80403 1.86009 0.442898
-2.86301 1.96354 1.01579
-2.95956 1.95367 0.972284
-3.1573 1.94588 0.875544
-2.90691 1.94074 0.999458
-2.90697 1.93753 0.995637
-2.88112 1.93184 1.00808
-2.99669 1.92681 0.948987
-2.93009 1.92367 0.978515
-2.91578 1.92054 0.981906
-3.26189 1.91559 0.807535
-3.07069 1.91198 0.900074
-2.88058 1.90891 0.991373
-3.11802 1.90585 0.868902
-3.19024 1.9028 0.829052
-2.95633 1.89977 0.94227
-3.24912 1.89631 0.792749
-2.89836 1.89332 0.964386
-3.21047 1.89034 0.804596
-3.19157 1.88738 0.810315
-3.10228 1.88481 0.850707
-3.20849 1.88278 0.792635
-3.0273 1.87986 0.879502
-3.38644 1.87696 0.696212
-3.05662 1.87407 0.857402
-3.2039 1.87279 0.777818
-3.04322 1.86993 0.854453
-3.34574 1.86707 0.699493
-3.30919 1.86423 0.714068
-3.14627 1.86269 0.79002
-3.23781 1.85988 0.740544
-3.15797 1.85733 0.776428
-3.09762 1.85582 0.801094
-3.47526 1.85305 0.608585
-3.34161 1.85157 0.669888
-3.29263 1.84883 0.690683
-3.13732 1.84627 0.764395
-3.19533 1.84483 0.729864
-3.31218 1.84212 0.667757
-3.35248 1.84071 0.64206
-3.18461 1.83816 0.722127
-3.36355 1.83676 0.627117
-3.16314 1.83411 0.723641
-3.12754 1.83274 0.735882
-3.18451 1.83019 0.703601
-3.31764 1.82884 0.631481
-3.50235 1.82751 0.53355
-3.07581 1.82493 0.743139
-3.3444 1.82363 0.60325
-3.42706 1.82108 0.558211
-3.24793 1.8198 0.642182
-3.13546 1.81852 0.692828
-3.4038 1.81984 0.549162
-3.26971 1.82048 0.607737
-3.10177 1.82179 0.682196
-3.33867 1.82312 0.554204
-3.28735 1.82446 0.570288
-3.3482 1.82583 0.530243
-3.49085 1.82643 0.450464
-3.20094 1.82721 0.586669
-3.12515 1.82921 0.61395
-3.08413 1.83064 0.624688
-3.1251 1.83121 0.595765
-3.2383 1.83212 0.530197
-3.11589 1.83364 0.581458
-3.4408 1.83523 0.408949
-3.00952 1.83576 0.616182
-3.22613 1.83691 0.498507
-3.09919 1.83817 0.552404
-2.8438 1.92781 0.530812
-3.19373 1.84009 0.486917
-2.97591 1.84164 0.585766
-3.03768 1.84279 0.545447
-3.21641 1.84461 0.445566
-3.03094 1.8452 0.529751
-3.2375 1.84669 0.416461
-3.09045 1.84804 0.480192
-3.12496 1.84879 0.454107
-3.16189 1.84952 0.426816
-2.95653 1.85081 0.519777
-2.97425 1.85222 0.500992
-3.11598 1.85291 0.42136
-3.12239 1.85427 0.408286
-2.93489 1.85602 0.491505
-2.91166 1.85731 0.493342
-3.36442 1.85795 0.258246
-3.06018 1.85922 0.400597
-2.89046 1.86048 0.475699
-2.99942 1.86173 0.411468
-2.94771 1.86235 0.428603
-3.0222 1.86445 0.380174
-3.1391 1.86567 0.311992
-2.99995 1.86689 0.37183
-2.74936 1.86749 0.488399
-2.98133 1.86871 0.362665
-3.17413 1.86992 0.256511
-2.9747 1.96316 0.956583
-3.07229 1.95791 0.906577
-3.01514 1.95009 0.937359
-3.12445 1.94493 0.881484
-3.11263 1.94109 0.884458
-3.09432 1.936 0.892378
-3.33431 1.93095 0.771139
-2.96944 1.92779 0.949846
-3.06205 1.92409 0.900553
-3.16405 1.91915 0.84827
-3.37424 1.91605 0.739452
-3.06978 1.91296 0.88797
-3.21542 1.90989 0.811446
-3.06377 1.90683 0.883574
-3.02837 1.90333 0.898199
-3.09506 1.90031 0.861155
-3.15302 1.89731 0.828479
-2.97406 1.89432 0.914268
-3.13222 1.89134 0.831501
-2.89995 1.88967 0.942177
-3.18905 1.88673 0.79394
-3.16548 1.8838 0.802046
-3.26465 1.88088 0.748776
-3.06139 1.87831 0.846278
-2.97578 1.8767 0.883627
-3.31807 1.87381 0.708822
-3.24622 1.87095 0.741086
-3.03568 1.86938 0.840884
-3.39389 1.86655 0.658116
-3.21406 1.86373 0.744371
-3.22046 1.86221 0.735675
-3.33323 1.85943 0.675622
-3.11574 1.85814 0.778574
-3.29482 1.85538 0.685383
-3.18153 1.85281 0.738109
-3.18614 1.85117 0.730555
-3.32315 1.84861 0.658171
-3.08474 1.84717 0.771868
-3.27346 1.84447 0.67386
-3.1939 1.84307 0.708114
-3.2342 1.8405 0.684155
-3.51701 1.83912 0.537224
-3.26834 1.83647 0.657917
-3.17718 1.83512 0.697954
-3.28145 1.83255 0.642082
-3.21382 1.83122 0.670354
-3.04198 1.82865 0.752579
-3.55802 1.82733 0.489018
-3.49019 1.82731 0.515453
-3.37648 1.82861 0.562856
-3.20277 1.83056 0.639266
-3.06616 1.83186 0.698079
-3.08986 1.83251 0.677729
-3.30748 1.83381 0.559408
-3.1409 1.83451 0.634104
-3.16521 1.83586 0.612352
-3.36677 1.83783 0.501011
-3.35983 1.83844 0.495994
-3.12345 1.83922 0.605442
-3.47176 1.84063 0.421544
-3.15687 1.84209 0.569176
-3.03527 1.84359 0.620074
-2.97495 1.84414 0.641803
-3.19549 1.84517 0.522361
-3.19929 1.84683 0.510285
-2.71703 1.93861 0.599819
-3.24864 1.84861 0.467636
-3.0102 1.85003 0.577021
-3.17526 1.85162 0.484374
-3.14671 1.85282 0.489142
-3.10455 1.85339 0.501705
-3.16349 1.85471 0.462529
-3.08295 1.85546 0.493981
-3.13076 1.85682 0.460281
-2.80073 1.8583 0.615282
-3.3029 1.85958 0.354501
-3.01108 1.86098 0.49052
-3.24368 1.86166 0.365472
-3.25906 1.86301 0.347947
-3.10762 1.86367 0.414937
-3.23278 1.866 0.340919
-3.13726 1.86663 0.37998
-3.12758 1.86789 0.375091
-3.09834 1.86913 0.379985
-3.07696 1.87038 0.380957
-2.9634 1.87099 0.429031
-3.11587 1.87223 0.343072
-3.17862 1.87486 0.299646
-2.96437 1.87546 0.398063
-2.69999 1.87667 0.520532
-2.81733 1.87788 0.452134
-2.89631 1.87848 0.403918
-2.81711 1.87969 0.433775
-2.94522 1.96737 0.962013
-2.6801 1.95947 1.09687
-2.83234 1.95425 1.01959
-3.00634 1.94906 0.931427
-3.07244 1.9433 0.898013
-3.1397 1.9401 0.860684
-3.06704 1.93502 0.895823
-3.01408 1.93129 0.919366
-2.88376 1.92814 0.980841
-3.0856 1.92318 0.878696
-3.29237 1.92007 0.771634
-3.14248 1.91697 0.842913
-3.17934 1.91388 0.820822
-3.23259 1.91034 0.791175
-3.03863 1.9073 0.884496
-2.89142 1.90426 0.954445
-3.08935 1.90125 0.851829
-3.31098 1.89865 0.736805
-3.2161 1.89655 0.779376
-3.15567 1.89358 0.805946
-3.27266 1.89062 0.743813
-3.00164 1.88768 0.875686
-3.11362 1.88509 0.81559
-3.2224 1.88345 0.755774
-2.99464 1.88024 0.866466
-3.14417 1.87736 0.788064
-3.21871 1.87606 0.744943
-3.32558 1.8732 0.687893
-3.03404 1.87035 0.830041
-3.17276 1.86777 0.756715
-3.37414 1.866 0.650908
-3.33136 1.86342 0.668371
-3.22634 1.86191 0.715423
-3.14635 1.85913 0.751806
-3.18905 1.85655 0.726585
-3.30289 1.85491 0.664442
-3.20729 1.85362 0.706535
-3.317 1.85089 0.648074
-3.41498 1.84831 0.595289
-3.02064 1.84677 0.787151
-3.18175 1.84419 0.702836
-3.2529 1.8428 0.661764
-3.51206 1.84022 0.528459
-3.28474 1.83878 0.636728
-3.56238 1.83749 0.492303
-3.23557 1.83615 0.650188
-3.38577 1.83744 0.565657
-3.40801 1.83873 0.545112
-2.87718 1.97137 0.604029
-3.12279 1.84068 0.669746
-3.32203 1.84197 0.560654
-3.45285 1.84328 0.485745
-3.0496 1.84459 0.677838
-2.82339 1.96382 0.602103
-3.26351 1.84656 0.552807
-3.36816 1.8479 0.490887
-3.45469 1.84926 0.43798
-3.16443 1.85065 0.573409
-3.4684 1.85125 0.412938
-2.90504 1.85209 0.685762
-3.12746 1.85357 0.564683
-3.1337 1.85512 0.551577
-3.2133 1.85621 0.502491
-3.25518 1.85676 0.473103
-3.22499 1.85854 0.47782
-3.21706 1.85998 0.471927
-3.20136 1.86105 0.470498
-3.18544 1.86163 0.469933
-3.15017 1.86289 0.477975
-3.07216 1.86422 0.507241
-2.99676 1.86559 0.53515
-3.13785 1.86634 0.455782
-2.98868 1.86835 0.519532
-2.98227 1.86904 0.513984
-3.2368 1.8704 0.376894
-3.21246 1.87173 0.379279
-3.05235 1.87239 0.450622
-3.05079 1.87464 0.440105
-3.23704 1.87526 0.338305
-3.03221 1.87651 0.431031
-3.13139 1.87774 0.371753
-3.11134 1.87898 0.372087
-3.02109 1.8802 0.407517
-2.90556 1.88082 0.456593
-3.03411 1.88204 0.382613
-2.83999 1.88326 0.469967
-2.99201 1.88519 0.383058
-3.06223 1.8864 0.338239
-3.00317 1.88761 0.35805
-2.9519 1.88881 0.373957
-2.89969 1.88942 0.391333
-3.0159 1.98358 0.909778
-2.86973 1.97153 0.990535
-3.13652 1.96359 0.85952
-2.77938 1.95835 1.03699
-3.16481 1.95252 0.84399
-3.11554 1.94736 0.867503
-3.19194 1.94414 0.825646
-3.08024 1.94036 0.878629
-3.08585 1.9353 0.87467
-2.76457 1.93214 1.03167
-3.05692 1.92899 0.881866
-2.87911 1.92403 0.969603
-3.21675 1.92092 0.797162
-3.13015 1.91734 0.837494
-3.09352 1.91427 0.852184
-2.94776 1.91121 0.921445
-3.01753 1.90816 0.882949
-3.01876 1.90643 0.876941
-2.95745 1.90342 0.903985
-3.17458 1.90041 0.791817
-3.28372 1.89743 0.733648
-3.22528 1.89446 0.759269
-3.42859 1.8915 0.654019
-3.32916 1.88986 0.698326
-3.29601 1.88694 0.711305
-3.40922 1.88403 0.651104
-3.14212 1.88143 0.780656
-3.45199 1.87984 0.620311
-3.29405 1.87696 0.695702
-3.2393 1.87436 0.719137
-3.04861 1.87256 0.809421
-3.31667 1.86973 0.671808
-3.37757 1.86843 0.635611
-3.25851 1.86562 0.691577
-3.26169 1.86302 0.686139
-3.17383 1.86135 0.724902
-3.36994 1.85876 0.623038
-3.28813 1.8573 0.658501
-3.33653 1.85455 0.630739
-3.23841 1.85313 0.67434
-3.25773 1.85053 0.660944
-3.2476 1.84912 0.660551
-3.19633 1.84643 0.682626
-3.37156 1.84505 0.589532
-3.50866 1.84635 0.51156
-3.23542 1.84706 0.639615
-3.21655 1.84761 0.640708
-3.47641 1.84889 0.50136
-3.34433 1.85085 0.556938
-3.2664 1.85213 0.586452
-3.22716 1.85282 0.597507
-3.48901 1.8541 0.457114
-3.11737 1.85472 0.634446
-3.20692 1.85669 0.579135
-3.23349 1.85801 0.55629
-3.31222 1.85866 0.508377
-3.01565 1.85998 0.647077
-3.29977 1.86071 0.496325
-3.34048 1.86212 0.466242
-3.3402 1.86415 0.455677
-3.36884 1.86473 0.43287
-3.19147 1.86565 0.512552
-3.04078 1.86725 0.577812
-3.39936 1.86849 0.389
-3.10461 1.86954 0.527131
-3.30427 1.8705 0.418198
-3.1954 1.87167 0.463172
-2.96524 1.87299 0.568564
-3.1886 1.87436 0.447099
-3.10969 1.87511 0.477737
-3.19336 1.8771 0.425129
-3.16773 1.87778 0.429219
-3.311 1.87912 0.347814
-2.89184 1.87977 0.548698
-3.0963 1.88107 0.436748
-3.07421 1.88234 0.43809
-3.22958 1.88384 0.350336
-2.96992 1.88507 0.470514
-3.04397 1.8863 0.423835
-3.01694 1.88752 0.427693
-2.89937 1.88874 0.476812
-3.35676 1.88996 0.238443
-3.04656 1.89057 0.384859
-2.8643 1.89179 0.466304
-3.18775 1.893 0.294889
-2.95793 1.89547 0.398033
-2.97819 1.89607 0.379191
-2.79187 1.89728 0.462641
-3.12871 1.89849 0.2845
-3.11045 1.89943 0.28434
-3.04435 1.98299 0.892509
-2.99435 1.97296 0.9226
-2.90403 1.96766 0.966712
-3.05238 1.96176 0.892337
-3.33294 1.95655 0.750998
-3.31956 1.95137 0.756624
-3.00753 1.94755 0.909812
-3.01856 1.94245 0.903202
-3.09495 1.93926 0.861405
-3.13156 1.93608 0.839506
-2.99357 1.93239 0.905619
-3.11482 1.92925 0.841407
-3.03969 1.92432 0.877825
-3.13304 1.92122 0.827568
-3.01091 1.91813 0.885051
-3.11879 1.91682 0.825136
-3.24058 1.91331 0.76128
-3.04544 1.91027 0.855283
-3.22214 1.90724 0.76337
-3.35737 1.90422 0.692197
-3.41926 1.90122 0.657693
-3.23814 1.89824 0.744701
-3.16831 1.89658 0.77424
-3.08222 1.89363 0.813731
-3.23517 1.89069 0.733703
-3.12798 1.88807 0.78332
-3.25426 1.88646 0.714806
-3.46016 1.88356 0.608323
-3.27498 1.88067 0.69738
-3.07096 1.87911 0.793998
-3.29083 1.87625 0.68052
-3.45749 1.87364 0.593333
-3.22369 1.87211 0.704842
-3.14612 1.86928 0.740104
-3.26824 1.86779 0.673631
-3.29386 1.865 0.65729
-3.31905 1.86369 0.63904
-3.35284 1.86092 0.618624
-3.25022 1.85831 0.666209
-3.4739 1.85673 0.549142
-3.39593 1.85543 0.582522
-3.3068 1.85401 0.621654
-3.50638 1.85532 0.512431
-3.49988 1.85657 0.506317
-3.30701 1.85783 0.593373
-2.96981 1.98708 0.562386
-3.23092 1.85981 0.613424
-3.18699 1.86107 0.625973
-3.2036 1.86234 0.608236
-3.29322 1.86361 0.553969
-2.88366 1.86559 0.748231
-3.30273 1.86629 0.53008
-3.36431 1.86687 0.490855
-3.00546 1.86817 0.660749
-3.28836 1.86949 0.509734
-3.22456 1.87082 0.532023
-3.08727 1.87212 0.591108
-3.38435 1.87281 0.433924
-2.92137 1.8742 0.655693
-2.88564 1.87566 0.66372
-3.2749 1.87722 0.45908
-3.19424 1.87777 0.490965
-2.98558 1.87897 0.585823
-2.96227 1.8805 0.58749
-3.06292 1.88176 0.527574
-3.26606 1.88313 0.416241
-2.9856 1.88389 0.547659
-3.1101 1.88514 0.475802
-3.16289 1.88649 0.439654
-3.15964 1.88779 0.431577
-2.969 1.88843 0.518241
-3.09809 1.88969 0.444031
-2.97747 1.89095 0.49469
-2.8745 1.89219 0.53653
-3.25213 1.89417 0.336888
-2.99325 1.89478 0.457677
-2.99858 1.89599 0.445381
-3.13681 1.89721 0.366626
-2.82146 1.89842 0.514652
-2.89108 1.89964 0.470182
-2.97354 1.90085 0.419282
-2.84033 1.90207 0.476211
-3.22708 1.90267 0.274146
-3.08244 1.90389 0.33677
-2.94981 1.90629 0.391437
-2.87785 1.90689 0.418698
-2.99011 1.9081 0.352848
-3.06692 1.90905 0.305154
-3.22305 1.98706 0.794051
-3.10545 1.97699 0.858031
-3.27274 1.97102 0.77426
-2.9033 1.96575 0.957984
-3.1408 1.96052 0.838235
-3.06968 1.95664 0.871029
-2.92278 1.95148 0.943457
-2.99133 1.94636 0.908145
-3.07273 1.94316 0.863885
-3.14368 1.93997 0.824864
-2.91616 1.93627 0.935791
-2.92513 1.93311 0.927762
-3.18239 1.92997 0.795596
-3.16003 1.92684 0.803246
-3.21033 1.92373 0.774572
-3.1585 1.92018 0.797582
-3.16091 1.91711 0.792848
-3.22983 1.91405 0.754862
-3.24877 1.91101 0.741876
-3.27725 1.90798 0.724118
-3.46889 1.90497 0.624786
-3.466 1.90329 0.620888
-3.13248 1.90031 0.784134
-3.31204 1.89734 0.690845
-3.49799 1.89471 0.593918
-3.19938 1.89307 0.737883
-3.24261 1.89014 0.712778
-3.36655 1.88722 0.647314
-3.3679 1.88564 0.641285
-3.49857 1.88275 0.572452
-3.5483 1.88012 0.54375
-2.94338 1.87857 0.840857
-3.25156 1.87572 0.683286
-3.26774 1.8742 0.669825
-3.34709 1.87139 0.626661
-3.20459 1.86876 0.694172
-3.1321 1.86727 0.725041
-3.17205 1.86449 0.701587
-3.33826 1.86304 0.61309
-3.20199 1.86436 0.671774
-3.20592 1.86513 0.661168
-3.21488 1.86637 0.647352
-3.17124 1.86685 0.660936
-3.33223 1.8681 0.571073
-3.2537 1.8701 0.599846
-3.35083 1.87135 0.541886
-3.10599 1.8721 0.655644
-3.37813 1.87335 0.510166
-3.13946 1.87387 0.621172
-3.2454 1.87586 0.557658
-3.07161 1.87712 0.635088
-3.15392 1.8784 0.584443
-3.17228 1.87911 0.566612
-3.18899 1.88038 0.54875
-3.31556 1.88167 0.475931
-3.44845 1.88298 0.399902
-2.77237 1.88432 0.728299
-2.99353 1.88572 0.607981
-3.0181 1.88633 0.587163
-3.24927 1.88722 0.462591
-3.0096 1.88894 0.572173
-3.18123 1.89054 0.476252
-3.13517 1.89113 0.490746
-3.24429 1.8919 0.427368
-3.17434 1.89384 0.451689
-3.08145 1.89512 0.488494
-2.97185 1.89638 0.533681
-2.96899 1.897 0.526489
-3.02975 1.89824 0.486512
-3.19068 1.89947 0.396444
-3.13419 1.9007 0.415085
-3.0336 1.90192 0.455768
-3.19602 1.90437 0.362989
-2.97353 1.90498 0.465589
-3.1302 1.90619 0.377628
-3.10914 1.90741 0.378519
-3.05274 1.90802 0.398049
-3.00517 1.90924 0.412178
-3.06721 1.91045 0.371493
-2.91376 1.91167 0.438542
-2.92018 1.91289 0.425648
-3.16246 1.9141 0.294813
-3.10031 1.91583 0.315343
-3.11829 1.91705 0.296638
-2.94289 1.91827 0.374609
-2.81825 1.98836 0.99099
-2.93705 1.98299 0.930666
-3.08984 1.97498 0.856847
-3.20464 1.96969 0.798508
-3.05013 1.96382 0.875641
-3.14524 1.95861 0.827117
-3.24845 1.95536 0.771982
-3.3006 1.95212 0.742392
-3.29139 1.94701 0.746022
-3.16852 1.94327 0.804675
-3.09144 1.94009 0.839707
-3.17767 1.93692 0.793095
-3.28185 1.93376 0.737509
-3.10794 1.93015 0.821623
-3.36631 1.92703 0.688944
-3.03681 1.92393 0.850204
-3.20325 1.92085 0.763503
-3.24843 1.91778 0.737434
-2.96578 1.91472 0.875279
-3.11756 1.91168 0.79592
-3.09377 1.90998 0.802507
-3.18726 1.90697 0.752289
-3.12843 1.90398 0.778237
-3.17761 1.901 0.750177
-3.37898 1.89967 0.643729
-3.16271 1.89671 0.748414
-3.30569 1.89348 0.673872
-3.24762 1.89216 0.697186
-3.1262 1.88925 0.754442
-3.22683 1.88635 0.700674
-3.23591 1.88479 0.690794
-3.30892 1.88193 0.650829
-3.26181 1.88061 0.668734
-3.30926 1.87776 0.641563
-3.31635 1.87512 0.634304
-3.44399 1.87344 0.565392
-3.27661 1.87212 0.643484
-3.36138 1.87348 0.591616
-3.47891 1.87472 0.523529
-3.35612 1.87595 0.575587
-3.1599 1.8772 0.664352
-3.10004 1.87798 0.685595
-3.36733 1.87922 0.542591
-3.37738 1.88046 0.528191
-3.31547 1.8817 0.549762
-3.21448 1.88295 0.590856
-2.90148 1.8842 0.737941
-3.11543 1.88497 0.622258
-3.40524 1.88621 0.467922
-3.00176 1.88746 0.660224
-3.50436 1.88871 0.399462
-3.16153 1.88998 0.561394
-3.09602 1.89198 0.583528
-3.33739 1.89274 0.454101
-3.16207 1.89325 0.533395
-3.3047 1.89453 0.452522
-3.09678 1.89586 0.546851
-3.261 1.89787 0.454048
-3.18141 1.89852 0.48523
-3.15289 1.89945 0.490443
-3.31192 1.90067 0.401419
-3.00793 1.9021 0.543559
-3.22168 1.90357 0.426778
-3.1201 1.90479 0.468027
-2.93751 1.90601 0.549768
-2.85959 1.90724 0.579164
-2.93509 1.90785 0.532804
-2.96906 1.90907 0.506239
-3.03552 1.91029 0.463419
-3.03559 1.91152 0.453788
-3.17646 1.91274 0.373743
-3.11054 1.91506 0.395331
-3.14076 1.91568 0.371558
-2.997 1.9169 0.433788
-3.02178 1.91813 0.411747
-3.08862 1.91936 0.368657
-2.76758 1.92058 0.519505
-3.05576 1.92181 0.365729
-3.12354 1.92242 0.323138
-2.82748 1.92365 0.461471
-2.9429 1.92654 0.391323
-2.8628 1.92716 0.422644
-2.88975 1.92814 0.399838
-3.00201 2.00943 0.875824
-3.06275 1.99232 0.859834
-2.94509 1.98423 0.921332
-3.20207 1.97889 0.791962
-2.90279 1.97294 0.941559
-3.13304 1.96768 0.825536
-3.12511 1.96245 0.828589
-2.98181 1.95919 0.896758
-3.08992 1.95537 0.839994
-3.25972 1.95025 0.754149
-3.28913 1.94704 0.73597
-3.15804 1.94385 0.798054
-2.97722 1.94067 0.885011
-3.25916 1.93701 0.741252
-3.25997 1.93387 0.737393
-3.28264 1.93074 0.722604
-3.27256 1.92763 0.724201
-3.07929 1.92453 0.817398
-3.16362 1.92145 0.771796
-3.15936 1.91971 0.768654
-3.08466 1.91666 0.802569
-3.22454 1.91362 0.729198
-3.18965 1.9106 0.743219
-3.3806 1.90759 0.644316
-3.08768 1.90593 0.785487
-3.37631 1.90296 0.637745
-3.17581 1.9 0.734564
-3.1222 1.89867 0.755664
-3.20576 1.89572 0.710477
-3.34158 1.8928 0.639156
-3.14969 1.89122 0.729794
-3.076 1.88833 0.763225
-3.12196 1.88567 0.736513
-3.31953 1.88412 0.632422
-3.32393 1.88126 0.626819
-3.20151 1.88184 0.679692
-3.4686 1.88308 0.536835
-3.44853 1.8839 0.538165
-3.02564 1.88513 0.740287
-3.28145 1.88637 0.603051
-3.42376 1.88761 0.522553
-3.22476 1.88885 0.612699
-2.97682 2.00631 0.556089
-3.15065 1.8909 0.631639
-3.3399 1.89214 0.527635
-3.10627 1.89337 0.635057
-3.08175 1.89461 0.63791
-3.29084 1.89667 0.522737
-3.38108 1.89751 0.46879
-3.26656 1.89874 0.516625
-2.95724 1.89914 0.663099
-3.17821 1.90038 0.543159
-3.10282 1.90243 0.570162
-3.07633 1.90329 0.574512
-3.2658 1.90452 0.47031
-3.02013 1.90575 0.583665
-3.2197 1.90698 0.474397
-3.21446 1.90821 0.467518
-3.21675 1.90936 0.456987
-2.93833 1.91005 0.587509
-2.75733 1.91128 0.668485
-3.04531 1.91344 0.513519
-3.15414 1.91473 0.449463
-2.95167 1.91599 0.541086
-3.24806 1.91662 0.384265
-2.93064 1.91787 0.53337
-3.21502 1.91911 0.381574
-3.18628 1.92035 0.386332
-2.97848 1.92159 0.480614
-2.90668 1.92282 0.506893
-2.95259 1.92344 0.475279
-3.0838 1.92567 0.398441
-2.6503 1.92692 0.605522
-2.94845 1.92816 0.446771
-3.10607 1.92878 0.359268
-2.84765 1.93002 0.47879
-2.92255 1.93126 0.43164
-2.992 1.9325 0.387209
-2.74341 1.93374 0.50179
-3.03856 1.93497 0.344496
-3.05738 1.9366 0.324723
-2.67947 1.9376 0.504305
-2.86973 2.00854 0.93935
-3.0708 1.99622 0.846994
-3.11827 1.9881 0.825999
-3.2429 1.98209 0.763725
-3.09372 1.97677 0.837476
-3.17377 1.97148 0.796609
-3.00982 1.96758 0.87594
-3.22488 1.96238 0.767541
-3.05298 1.95912 0.850053
-2.96141 1.95588 0.892415
-3.00123 1.95077 0.871619
-3.24533 1.94756 0.74615
-3.13209 1.94387 0.800034
-3.40477 1.9407 0.660274
-3.36227 1.93754 0.678113
-3.04471 1.9344 0.833488
-3.14851 1.93127 0.778188
-3.2891 1.9295 0.702654
-3.37877 1.92641 0.654421
-3.38306 1.92332 0.648884
-3.09114 1.92026 0.791456
-3.49032 1.91721 0.588479
-3.16355 1.91417 0.748479
-3.41024 1.91249 0.61988
-3.26782 1.90949 0.687703
-3.10144 1.9065 0.767507
-3.39161 1.90516 0.616737
-3.29052 1.90219 0.663913
-3.54788 1.89923 0.531865
-3.40499 1.89656 0.599568
-3.40318 1.89471 0.595572
-3.16011 1.89204 0.713406
-3.3695 1.89047 0.603438
-3.37817 1.89106 0.590745
-3.30622 1.8923 0.617422
-3.38429 1.89354 0.569077
-3.11214 1.89562 0.694599
-3.21907 1.89649 0.632342
-3.23448 1.89686 0.616561
-3.25658 1.8981 0.596163
-3.28492 1.89933 0.572641
-3.1491 1.90108 0.630436
-3.23444 1.90231 0.578394
-3.23434 1.90355 0.569064
-3.37976 1.9039 0.488265
-3.22465 1.90514 0.556415
-3.1829 1.90725 0.566574
-3.14851 1.90816 0.574825
-3.24083 1.9094 0.519227
-3.12308 1.91064 0.568655
-3.19062 1.91188 0.52543
-3.25573 1.91312 0.483402
-2.874 1.91414 0.665122
-3.26967 1.91542 0.45773
-3.2021 1.91675 0.481883
-3.07632 1.91812 0.53507
-2.80401 1.91943 0.661592
-3.24325 1.92029 0.433037
-2.83244 1.92102 0.629674
-2.97496 1.92297 0.54778
-2.91677 1.92439 0.567039
-3.0731 1.92574 0.479133
-3.08118 1.9264 0.466418
-2.94834 1.92771 0.523152
-3.225 1.92899 0.375152
-3.01255 1.93027 0.471718
-3.10585 1.9309 0.416402
-2.79411 1.93216 0.562615
-3.045 1.93342 0.427508
-3.09667 1.93558 0.390565
-2.97665 1.93685 0.440872
-3.06769 1.93749 0.38665
-2.99159 1.93875 0.41499
-3.17997 1.94001 0.311086
-2.88346 1.94126 0.449619
-2.9914 1.94252 0.385926
-3.15228 1.94377 0.295749
-2.73299 1.94502 0.495657
-2.92882 1.9466 0.387462
-2.93959 2.00759 0.90193
-3.19766 1.99734 0.77842
-2.94887 1.99192 0.902058
-3.14249 1.98388 0.807981
-3.21244 1.98054 0.769593
-2.97724 1.97523 0.88641
-3.13967 1.97132 0.802599
-2.9665 1.9661 0.888367
-3.06529 1.96283 0.835584
-3.29796 1.95957 0.715868
-3.14011 1.95579 0.792141
-3.2624 1.95071 0.730132
-3.19895 1.94751 0.75848
-3.08828 1.94433 0.81044
-3.01121 1.94298 0.843128
-3.06987 1.93935 0.811073
-3.54608 1.93621 0.569607
-3.11492 1.93309 0.78183
-3.17205 1.92998 0.749912
-3.22274 1.92688 0.721222
-3.43366 1.9238 0.612414
-3.26597 1.92111 0.692405
-3.44248 1.91904 0.59944
-3.0888 1.916 0.772934
-3.34857 1.91299 0.639709
-3.19019 1.91164 0.713228
-3.24936 1.90864 0.680317
-3.38685 1.90566 0.608248
-3.54214 1.90297 0.526888
-3.34943 1.90109 0.618392
-3.41097 1.89974 0.582025
-3.24098 1.90124 0.657356
-3.25468 1.90248 0.641209
-3.09219 1.90283 0.714423
-3.42073 1.90407 0.540839
-3.32002 1.90587 0.581057
-3.08639 1.90711 0.688535
-3.34228 1.90835 0.551241
-3.07531 1.90959 0.67537
-3.04603 1.91083 0.680639
-3.17207 1.91177 0.608684
-3.25867 1.91301 0.555993
-3.36985 1.91426 0.490998
-3.13664 1.9155 0.59819
-3.18186 1.91675 0.566157
-3.34415 1.918 0.475573
-3.03019 1.91901 0.623454
-3.12359 1.92028 0.567268
-2.99045 1.92156 0.624328
-3.05817 1.9227 0.581154
-2.962 1.92405 0.619601
-3.23364 1.92546 0.474043
-3.06576 1.92688 0.54821
-3.36844 1.92828 0.387129
-3.02232 1.92834 0.55246
-3.13515 1.93052 0.485095
-3.09691 1.93144 0.495169
-2.9208 1.93309 0.573051
-3.22529 1.93386 0.41198
-3.25777 1.93532 0.385843
-3.12904 1.93672 0.440393
-3.15723 1.9374 0.417579
-3.21133 1.93874 0.380778
-3.06466 1.94006 0.444387
-3.22025 1.94072 0.357897
-2.92088 1.94202 0.49787
-2.85179 1.94331 0.522708
-3.0418 1.94541 0.4167
-2.88158 1.94671 0.487067
-2.70193 1.94736 0.568166
-3.07942 1.94865 0.369679
-2.8847 1.94993 0.457294
-2.97975 1.95121 0.400017
-3.0688 1.95248 0.34574
-3.05421 1.95375 0.343279
-2.80318 1.95438 0.460049
-2.9734 1.95637 0.36401
-2.92416 2.01142 0.90094
-2.71394 2.00317 1.00898
-2.98294 1.993 0.880007
-3.00769 1.98962 0.864254
-3.06692 1.98425 0.833923
-3.11532 1.97832 0.809803
-3.2062 1.975 0.761004
-3.31406 1.97169 0.703729
-3.24168 1.96647 0.739166
-3.24232 1.96266 0.736241
-3.08304 1.95941 0.812543
-3.09475 1.95617 0.803358
-3.17769 1.95295 0.758561
-3.17379 1.94926 0.757851
-3.04185 1.94607 0.820495
-3.28594 1.94291 0.695128
-3.29145 1.93975 0.689057
-3.32713 1.93662 0.667907
-3.0514 1.93349 0.802459
-3.25474 1.93038 0.697487
-3.18176 1.92865 0.728791
-3.49886 1.92557 0.566939
-3.371 1.92251 0.627563
-3.30831 1.91946 0.655608
-3.45863 1.91811 0.574796
-3.20979 1.91508 0.695933
-3.31268 1.91207 0.641206
-3.14432 1.91042 0.720188
-3.22249 1.90907 0.675505
-3.27603 1.91064 0.638989
-3.34582 1.91188 0.594791
-3.24295 1.91313 0.636911
-3.23389 1.91438 0.632112
-3.20083 1.91563 0.639311
-3.26851 1.91658 0.596548
-3.24209 1.91783 0.6004
-3.46951 1.91908 0.477318
-3.32319 1.92034 0.541097
-3.24878 1.92159 0.568909
-3.06087 1.9226 0.653832
-3.21163 1.92386 0.569023
-3.2048 1.92513 0.562995
-3.0806 1.9264 0.615638
-3.31538 1.92768 0.488765
-3.31208 1.9288 0.481178
-3.25134 1.93012 0.501988
-3.2417 1.93146 0.497206
-2.98339 1.93274 0.616848
-3.34971 1.93419 0.423894
-3.19195 1.93428 0.495025
-2.98787 1.93572 0.587276
-2.98123 1.93713 0.580843
-3.00146 1.93843 0.561132
-2.98789 1.93954 0.558604
-3.24026 1.94148 0.421826
-2.93478 1.94236 0.56558
-3.06041 1.94399 0.492619
-3.30196 1.94476 0.363005
-3.00324 1.94625 0.502416
-3.2225 1.94697 0.38401
-2.76757 1.94838 0.601631
-3.26208 1.94976 0.34457
-2.78667 1.95111 0.572497
-3.11389 1.95178 0.400163
-2.82596 1.95311 0.534369
-3.04213 1.95517 0.415357
-3.1557 1.95651 0.348779
-2.92522 1.95717 0.455276
-3.08246 1.95848 0.366871
-3.00797 1.95979 0.394337
-3.04549 1.96109 0.365794
-2.96196 1.96239 0.397777
-3.03815 1.96304 0.350928
-3.14817 1.96432 0.286129
-3.17627 1.96567 0.262191
-3.15167 2.01241 0.782214
-3.10692 2.00622 0.804847
-2.83701 1.99872 0.941849
-2.96343 1.99266 0.87883
-3.07802 1.98729 0.820859
-3.13488 1.98196 0.791744
-3.04933 1.97863 0.831206
-3.10498 1.97473 0.800852
-3.24603 1.96951 0.729606
-3.08235 1.96623 0.808143
-3.29797 1.96297 0.697039
-3.37511 1.95972 0.655181
-3.15422 1.95599 0.763016
-3.09611 1.95278 0.788787
-3.21795 1.94959 0.724585
-3.19041 1.94641 0.735075
-3.18593 1.94324 0.734046
-3.22417 1.94009 0.711657
-3.47074 1.93832 0.58322
-3.29203 1.93519 0.669312
-3.40299 1.93209 0.610567
-3.27303 1.929 0.672284
-3.58889 1.92592 0.511099
-3.24732 1.92423 0.676715
-3.2793 1.92119 0.657463
-3.20757 1.91816 0.690067
-3.25968 1.91913 0.655118
-3.18416 1.92039 0.683578
-3.22896 1.92136 0.652274
-3.32165 1.92262 0.596606
-3.30267 1.92387 0.596757
-3.15174 1.92513 0.662878
-3.45084 1.9264 0.503968
-3.00736 1.9274 0.716705
-2.95113 1.92867 0.735433
-3.15287 1.92995 0.625159
-3.28179 1.93122 0.551284
-3.10983 1.93229 0.628134
-3.16283 1.93358 0.592175
-3.33368 1.93488 0.497264
-3.14497 1.9362 0.582107
-3.18532 1.93737 0.552613
-3.1294 1.93873 0.570972
-2.99136 1.94012 0.630341
-3.08047 1.94023 0.578007
-3.29407 1.94293 0.459581
-2.96626 1.94302 0.615749
-3.16164 1.9444 0.50837
-3.10537 1.94583 0.526748
-2.96809 1.94721 0.585682
-3.13459 1.94848 0.492878
-3.16437 1.94958 0.468704
-3.07503 1.95058 0.504208
-2.90119 1.95242 0.580686
-3.12568 1.95328 0.459482
-2.83304 1.95491 0.595659
-3.09165 1.95568 0.457498
-3.1861 1.95719 0.400294
-3.07759 1.95793 0.445751
-2.94505 1.95936 0.502126
-3.0476 1.96077 0.441003
-2.91785 1.96146 0.497119
-3.06194 1.96283 0.415254
-3.20774 1.96487 0.331488
-2.9806 1.96624 0.435214
-3.01261 1.96759 0.409379
-3.09025 1.96826 0.361791
-3.22727 1.9696 0.28346
-2.9922 1.97093 0.391178
-2.65347 1.97225 0.550729
-3.25239 1.97356 0.241455
-2.87625 1.97422 0.420751
-3.02645 2.01819 0.833587
-2.8701 2.00784 0.91753
-3.09988 2.00237 0.802047
-3.33092 1.99629 0.686779
-3.14582 1.9909 0.778711
-2.83333 1.98753 0.931687
-3.1483 1.98162 0.77436
-3.18384 1.97829 0.753324
-2.94911 1.97498 0.867434
-3.08807 1.97167 0.794707
-3.20917 1.96648 0.733489
-3.23717 1.96271 0.716931
-3.19542 1.95948 0.734561
-3.23237 1.95625 0.712841
-3.32367 1.95305 0.663954
-3.4091 1.94985 0.618005
-3.22516 1.94804 0.704862
-3.24139 1.94488 0.693518
-3.23441 1.94173 0.693779
-3.41418 1.93859 0.600673
-3.30765 1.93548 0.650717
-2.99687 1.93274 0.802382
-3.30484 1.93066 0.643772
-3.04852 1.92758 0.768714
-3.46002 1.92863 0.553975
-3.20045 1.9299 0.674449
-3.35844 1.93116 0.586131
-3.12039 1.93218 0.69618
-3.14883 1.93345 0.672609
-3.26584 1.93473 0.604741
-3.37866 1.936 0.538956
-3.22822 1.93706 0.605102
-3.23696 1.93836 0.591316
-3.53871 1.93965 0.431008
-3.43682 1.94095 0.4725
-3.16564 1.94209 0.598872
-3.08125 1.94342 0.631558
-3.05799 1.94476 0.63365
-3.11948 1.94612 0.593331
-3.24527 1.94738 0.520995
-3.07698 1.9488 0.595452
-3.36247 1.94891 0.444948
-3.09386 1.95026 0.56965
-3.16617 1.95168 0.523781
-3.18067 1.95316 0.506713
-3.31158 1.95459 0.431507
-2.8981 1.95608 0.628409
-3.27316 1.95734 0.431349
-3.14594 1.95856 0.485491
-3.17745 1.95856 0.462106
-3.24611 1.96062 0.417013
-3.13614 1.96158 0.462906
-2.87563 1.96337 0.582795
-3.01542 1.96421 0.503951
-2.86491 1.96584 0.569068
-2.95648 1.96662 0.514414
-3.03531 1.96815 0.464988
-3.04421 1.96889 0.451716
-3.02612 1.97035 0.450831
-2.99443 1.97178 0.456781
-3.16407 1.97249 0.363179
-2.81165 1.9745 0.528567
-3.16913 1.97591 0.339935
-2.74181 1.9773 0.543716
-3.22941 1.97868 0.290047
-2.9461 1.97936 0.422912
-2.70131 1.98072 0.535454
-3.08838 1.98206 0.332069
-3.11671 1.9834 0.308055
-3.10111 2.01906 0.791495
-3.16814 2.01352 0.757448
-3.18285 2.00531 0.753154
-2.71907 1.99986 0.984491
-3.21603 1.99583 0.733609
-3.47319 1.99046 0.604457
-3.19562 1.98513 0.742652
-2.99957 1.98179 0.837457
-3.09843 1.97846 0.784816
-2.97055 1.97461 0.846282
-3.12849 1.97132 0.764104
-3.03542 1.96804 0.807436
-3.22511 1.96478 0.709398
-3.21691 1.96105 0.710964
-3.48701 1.95783 0.572715
-3.50373 1.95462 0.56116
-3.29219 1.95143 0.663744
-3.28113 1.94825 0.66609
-3.41037 1.94509 0.598287
-3.26885 1.94194 0.665867
-3.31271 1.94019 0.638844
-3.35811 1.93707 0.612964
-3.44989 1.93819 0.557984
-3.36027 1.93947 0.593466
-3.17335 1.94075 0.677586
-3.44489 1.94181 0.532789
-3.15908 1.9431 0.666318
-3.13403 1.9444 0.669454
-3.1955 1.9457 0.629318
-3.20151 1.94681 0.617169
-3.14755 1.94813 0.634701
-3.35247 1.94945 0.522768
-3.02354 1.95079 0.677741
-3.26715 1.95199 0.546629
-3.26016 1.95336 0.540563
-3.28795 1.95349 0.51888
-3.21025 1.95487 0.548139
-3.10531 1.95616 0.591144
-3.11189 1.9576 0.578149
-3.26306 1.95898 0.492925
-3.34469 1.96034 0.442498
-3.21902 1.96184 0.495516
-3.1505 1.96336 0.519915
-3.04455 1.96486 0.563033
-3.19661 1.96493 0.479264
-3.51621 1.96622 0.309907
-2.98777 1.96749 0.5646
-3.10108 1.96973 0.496939
-3.11237 1.96967 0.483737
-3.0817 1.97164 0.488462
-3.08185 1.97256 0.479335
-3.01055 1.97432 0.504661
-3.18043 1.97516 0.410777
-2.98418 1.97679 0.498757
-2.87038 1.97758 0.546778
-3.09525 1.97912 0.424306
-2.87418 1.97987 0.526002
-2.95019 1.98135 0.478032
-2.9096 1.98335 0.487558
-2.97225 1.98481 0.446268
-2.9862 1.98553 0.430467
-3.12881 1.98696 0.349234
-2.95542 1.98837 0.426019
-2.75937 1.98907 0.515232
-2.77734 1.99046 0.496349
-3.07666 1.99183 0.336799
-3.16794 1.9932 0.281269
-2.98795 2.03315 0.833774
-2.92725 2.02265 0.870108
-3.06411 2.01435 0.804835
-3.10691 2.00885 0.782945
-3.05771 2.00477 0.805198
-3.39304 1.99733 0.639707
-3.13971 1.99394 0.763183
-3.51038 1.99057 0.574669
-3.12338 1.98663 0.765772
-3.25666 1.98135 0.698577
-3.17948 1.97803 0.733997
-3.02365 1.97473 0.808748
-3.03359 1.97143 0.800621
-3.29288 1.96767 0.668493
-3.26507 1.96442 0.679238
-3.22038 1.96118 0.698434
-3.40558 1.95796 0.602685
-2.97754 1.95476 0.813558
-3.31111 1.95157 0.643631
-3.33252 1.94978 0.627866
-3.33622 1.94662 0.62288
-3.31847 1.94782 0.622554
-3.32752 1.94911 0.608683
-3.06152 1.95042 0.732321
-3.27125 1.95151 0.61837
-3.44554 1.95283 0.521824
-3.25678 1.95415 0.606789
-3.16334 1.95547 0.644075
-3.17742 1.95664 0.627819
-3.19006 1.95799 0.612014
