ply
format ascii 1.0
comment Created by Open3D
element vertex 1688
property double x
property double y
property double z
end_header
-1.14482 -2.59978 -0.23477
-1.22626 -2.59648 -0.278745
-1.24286 -2.59317 -0.290249
-1.3054 -2.59217 -0.328855
-1.3158 -2.59016 -0.33957
-1.33675 -2.58784 -0.354995
-1.30357 -2.58584 -0.343908
-1.49254 -2.58484 -0.445715
-1.31616 -2.58287 -0.363056
-1.34471 -2.58189 -0.38466
-1.27334 -2.57995 -0.35455
-1.45102 -2.579 -0.450743
-1.29585 -2.57805 -0.380524
-1.31814 -2.57755 -0.399852
-1.3903 -2.57663 -0.443339
-1.3389 -2.57572 -0.425061
-1.22907 -2.57534 -0.378522
-1.2526 -2.57447 -0.397763
-1.33903 -2.57418 -0.449529
-1.3395 -2.57477 -0.45996
-1.11494 -2.57396 -0.355258
-1.2324 -2.57382 -0.42281
-1.18516 -2.5745 -0.409557
-1.16787 -2.57376 -0.408603
-1.2107 -2.57378 -0.439139
-1.11356 -2.57456 -0.401124
-1.22541 -2.5762 -0.469241
-1.35566 -2.57557 -0.542266
-1.16557 -2.57738 -0.459729
-1.37508 -2.57777 -0.574334
-1.29983 -2.57877 -0.547704
-1.32634 -2.58086 -0.574034
-0.928897 -2.72167 -0.191992
-0.84737 -2.70193 -0.126519
-0.896574 -2.68665 -0.134045
-0.977497 -2.67425 -0.162353
-1.12514 -2.6642 -0.228054
-1.10416 -2.65589 -0.212425
-1.16561 -2.64872 -0.239962
-1.08502 -2.64142 -0.196204
-1.18531 -2.63401 -0.242624
-1.22151 -2.62984 -0.262688
-1.02293 -2.62223 -0.159228
-1.1464 -2.61794 -0.222634
-1.37608 -2.6136 -0.339034
-1.31748 -2.61049 -0.31345
-1.10103 -2.60607 -0.206587
-1.19458 -2.60289 -0.256908
-1.23118 -2.59968 -0.278683
-1.20526 -2.59743 -0.270888
-1.17245 -2.59419 -0.257855
-1.13575 -2.59093 -0.24282
-1.31966 -2.58994 -0.342183
-1.09536 -2.58667 -0.233281
-1.36721 -2.58339 -0.372417
-1.33722 -2.58241 -0.364793
-1.19678 -2.58045 -0.30017
-1.34703 -2.57948 -0.382666
-1.35254 -2.57755 -0.391044
-1.43956 -2.5766 -0.441943
-1.3053 -2.57565 -0.382204
-1.42779 -2.57378 -0.44913
-1.25613 -2.57285 -0.37072
-1.31205 -2.57102 -0.404426
-1.3676 -2.57151 -0.442216
-1.17918 -2.56975 -0.353864
-1.39029 -2.56889 -0.466923
-1.28768 -2.56945 -0.425765
-1.46069 -2.56861 -0.519821
-1.20204 -2.56841 -0.399215
-1.32321 -2.56827 -0.468656
-1.23382 -2.56896 -0.434357
-1.32482 -2.56822 -0.487563
-1.23295 -2.56824 -0.450779
-1.16382 -2.56902 -0.42679
-1.18388 -2.56918 -0.446223
-1.22283 -2.57004 -0.476429
-1.26367 -2.57033 -0.506508
-1.07181 -2.57126 -0.421469
-1.04122 -2.57223 -0.417127
-1.35489 -2.57271 -0.584
-1.15472 -2.57483 -0.497092
-0.972394 -2.73212 -0.241927
-0.911024 -2.70666 -0.176567
-1.03268 -2.69028 -0.218394
-0.925297 -2.67754 -0.151981
-1.1192 -2.66639 -0.238879
-1.15313 -2.65758 -0.249847
-0.963771 -2.64797 -0.1477
-1.03356 -2.64078 -0.179337
-1.08372 -2.63551 -0.204474
-1.08305 -2.62812 -0.200429
-1.05605 -2.62398 -0.188924
-1.13659 -2.6164 -0.225049
-1.24152 -2.61213 -0.279217
-1.15866 -2.60909 -0.241654
-1.14504 -2.60474 -0.236344
-1.23676 -2.60035 -0.283595
-1.30778 -2.59721 -0.322716
-1.0823 -2.59498 -0.215208
-1.14214 -2.5918 -0.248625
-1.28197 -2.5886 -0.321974
-1.20651 -2.58538 -0.287625
-1.39549 -2.58311 -0.387196
-1.3505 -2.58118 -0.37039
-1.37067 -2.5789 -0.38551
-1.38464 -2.57698 -0.398165
-1.21172 -2.57602 -0.319131
-1.11621 -2.57278 -0.274604
-1.15964 -2.57184 -0.303738
-1.39213 -2.56996 -0.42568
-1.20371 -2.56903 -0.338904
-1.15855 -2.56719 -0.322079
-1.23022 -2.56766 -0.367917
-1.28976 -2.56588 -0.403531
-1.31683 -2.56501 -0.424571
-1.25851 -2.56414 -0.402931
-1.22808 -2.56385 -0.396302
-1.30192 -2.56302 -0.440799
-1.22068 -2.56283 -0.408936
-1.37804 -2.56347 -0.497952
-1.06791 -2.56194 -0.34914
-1.25636 -2.56265 -0.453818
-1.35549 -2.56193 -0.511136
-1.41486 -2.56268 -0.551369
-1.15122 -2.56279 -0.428875
-1.36111 -2.56362 -0.544521
-1.20296 -2.56386 -0.475027
-1.16239 -2.56477 -0.465596
-1.11113 -2.56514 -0.449814
-1.29283 -2.56714 -0.553615
-1.10289 -2.56819 -0.469782
-1.27723 -2.5688 -0.567274
-0.813475 -2.73948 -0.185446
-0.897235 -2.71089 -0.187149
-0.860809 -2.69288 -0.147069
-0.926739 -2.67943 -0.166061
-1.11216 -2.66842 -0.248992
-1.14335 -2.65724 -0.254412
-1.09738 -2.65032 -0.228706
-1.14642 -2.642 -0.247988
-1.01123 -2.63485 -0.177147
-0.890984 -2.62757 -0.113516
-1.24362 -2.62223 -0.289722
-1.14974 -2.61731 -0.243375
-1.11467 -2.61184 -0.225424
-1.30539 -2.60633 -0.320246
-1.10673 -2.60332 -0.224842
-0.931001 -2.599 -0.138515
-1.24462 -2.59464 -0.296756
-1.1557 -2.59153 -0.255965
-1.24089 -2.58932 -0.303825
-1.24995 -2.58618 -0.311914
-1.28825 -2.58301 -0.334557
-1.34795 -2.58077 -0.369561
-1.36035 -2.57758 -0.37917
-1.16817 -2.5757 -0.288858
-1.15348 -2.57344 -0.286578
-1.21765 -2.57156 -0.324422
-1.34512 -2.56929 -0.393174
-1.22939 -2.56743 -0.341069
-1.3518 -2.5665 -0.409748
-1.37021 -2.56467 -0.424745
-1.17956 -2.56377 -0.336908
-1.36411 -2.56198 -0.43503
-1.22147 -2.5611 -0.371226
-1.28835 -2.56022 -0.412192
-1.4469 -2.5599 -0.500009
-1.35578 -2.55905 -0.462026
-1.31043 -2.55822 -0.446942
-1.2728 -2.55801 -0.436876
-1.29288 -2.55722 -0.454566
-1.11303 -2.5571 -0.373565
-1.29316 -2.55635 -0.47135
-1.27444 -2.55634 -0.471111
-1.22772 -2.5571 -0.458321
-1.173 -2.55641 -0.438793
-1.17149 -2.55804 -0.45028
-1.28827 -2.5574 -0.516601
-1.34232 -2.55919 -0.556174
-1.24379 -2.55861 -0.514948
-1.2464 -2.56002 -0.528106
-1.19107 -2.56105 -0.511577
-1.30285 -2.56211 -0.578661
-1.35296 -2.56432 -0.617132
-0.968785 -2.71375 -0.238104
-0.927019 -2.69584 -0.195524
-0.900127 -2.68119 -0.165984
-0.824789 -2.66983 -0.117929
-1.00016 -2.65875 -0.195625
-0.95885 -2.64936 -0.167895
-1.02771 -2.64114 -0.197267
-1.08976 -2.63409 -0.225244
-1.1539 -2.62692 -0.254007
-1.20212 -2.62166 -0.278148
-1.13699 -2.61634 -0.245483
-1.26599 -2.61018 -0.308343
-1.14632 -2.60601 -0.250408
-1.03652 -2.60181 -0.19729
-1.26318 -2.59755 -0.312301
-1.2376 -2.59326 -0.301088
-1.07082 -2.58893 -0.219169
-1.13303 -2.58586 -0.254005
-1.14775 -2.58367 -0.266661
-1.32648 -2.58056 -0.359643
-1.24658 -2.57743 -0.323256
-1.15055 -2.57521 -0.280427
-1.14442 -2.57206 -0.280832
-1.3512 -2.56889 -0.387657
-1.16808 -2.56797 -0.303627
-1.19871 -2.56481 -0.322327
-1.26405 -2.56389 -0.362518
-1.22079 -2.56208 -0.346734
-1.20305 -2.56118 -0.345396
-1.30922 -2.55939 -0.404364
-1.20791 -2.55851 -0.361258
-1.24915 -2.55677 -0.387815
-1.13524 -2.55591 -0.338433
-1.1368 -2.55422 -0.345219
-1.10184 -2.55338 -0.335347
-1.20963 -2.55397 -0.399509
-1.39998 -2.55236 -0.500829
-1.20895 -2.55157 -0.412992
-1.31607 -2.55147 -0.475515
-1.06069 -2.55072 -0.355572
-1.21081 -2.55072 -0.439783
-1.16562 -2.55148 -0.427786
-1.12703 -2.5508 -0.416344
-1.11099 -2.55095 -0.417768
-1.116 -2.5518 -0.431056
-1.16607 -2.55207 -0.465782
-1.20197 -2.553 -0.494667
-1.10847 -2.55341 -0.457864
-1.10694 -2.55441 -0.468193
-1.22775 -2.55603 -0.540894
-1.12514 -2.55714 -0.500905
-1.26315 -2.55828 -0.581286
-0.946303 -2.71358 -0.236844
-0.678948 -2.69537 -0.0809083
-0.863535 -2.68161 -0.158671
-0.870414 -2.66989 -0.15107
-0.924615 -2.6602 -0.170643
-0.801194 -2.6496 -0.0997207
-0.978753 -2.64147 -0.183616
-1.00143 -2.63324 -0.18982
-0.928801 -2.62746 -0.152682
-1.16145 -2.62098 -0.266897
-1.05848 -2.61501 -0.214164
-1.0157 -2.60841 -0.190346
-1.15713 -2.60432 -0.263106
-1.11095 -2.60018 -0.241949
-1.08008 -2.596 -0.228338
-1.24858 -2.59178 -0.314307
-1.05141 -2.58752 -0.217338
-1.19094 -2.58322 -0.28862
-1.12814 -2.58019 -0.261012
-1.09366 -2.57801 -0.249102
-1.21419 -2.57494 -0.31305
-1.11473 -2.57054 -0.264535
-1.1338 -2.56875 -0.280064
-1.23483 -2.56653 -0.335754
-1.28509 -2.56341 -0.364384
-1.15709 -2.56252 -0.307975
-1.13933 -2.55939 -0.302544
-1.40096 -2.5585 -0.440937
-1.19925 -2.55673 -0.346026
-1.18216 -2.55449 -0.342527
-1.16185 -2.55274 -0.338331
-1.22248 -2.55188 -0.376234
-1.29835 -2.55018 -0.420178
-1.19407 -2.54934 -0.375654
-1.17014 -2.54908 -0.372406
-1.20348 -2.54827 -0.396741
-1.1911 -2.54747 -0.398225
-1.32755 -2.54668 -0.47414
-1.12372 -2.54656 -0.381183
-1.31997 -2.54581 -0.487058
-1.322 -2.54579 -0.49721
-1.09539 -2.54508 -0.391726
-1.22069 -2.54516 -0.4637
-1.18384 -2.54531 -0.454748
-1.09416 -2.54616 -0.420712
-1.16556 -2.54555 -0.464406
-1.2712 -2.54737 -0.529906
-1.31491 -2.5468 -0.559857
-1.18443 -2.54878 -0.5076
-1.12933 -2.54827 -0.488255
-1.04768 -2.55039 -0.460728
-1.21973 -2.55107 -0.557254
-1.11952 -2.5534 -0.520884
-0.750689 -2.71175 -0.146172
-0.780929 -2.69523 -0.141983
-0.754937 -2.68155 -0.114583
-0.975958 -2.66987 -0.214135
-0.850931 -2.65946 -0.142806
-0.969633 -2.64975 -0.194539
-0.9604 -2.64172 -0.185205
-1.11933 -2.63358 -0.259712
-1.30128 -2.62534 -0.345482
-0.97408 -2.62021 -0.182199
-1.04232 -2.61307 -0.21298
-1.14476 -2.60782 -0.264214
-1.13826 -2.60381 -0.263164
-1.09222 -2.59846 -0.23991
-1.1724 -2.59357 -0.280565
-1.05621 -2.5894 -0.2243
-1.2884 -2.58601 -0.3436
-1.06619 -2.58178 -0.234151
-1.19352 -2.57751 -0.299376
-1.23531 -2.57452 -0.324131
-1.13497 -2.57019 -0.275344
-1.10955 -2.56933 -0.27036
-1.14922 -2.56496 -0.291459
-1.18302 -2.56189 -0.311989
-1.41623 -2.56101 -0.436256
-1.21419 -2.55793 -0.338803
-1.17984 -2.55706 -0.329273
-1.16509 -2.55397 -0.325422
-1.28427 -2.5531 -0.392644
-1.39054 -2.55002 -0.449269
-1.12988 -2.54916 -0.32657
-1.24307 -2.54746 -0.389217
-1.15536 -2.54662 -0.353007
-1.21309 -2.54497 -0.387978
-1.14208 -2.54415 -0.360147
-1.02104 -2.54254 -0.305802
-1.10855 -2.54175 -0.357264
-1.10069 -2.54162 -0.362289
-1.14575 -2.54086 -0.392584
-1.12606 -2.54012 -0.39052
-1.17634 -2.5401 -0.424831
-1.21539 -2.5394 -0.452204
-1.20677 -2.53949 -0.457254
-1.2203 -2.54029 -0.474762
-1.05465 -2.53965 -0.399893
-1.13968 -2.53989 -0.452058
-1.18118 -2.5402 -0.482608
-0.927382 -2.54115 -0.366728
-1.08712 -2.54159 -0.456652
-1.21151 -2.54261 -0.530019
-1.01651 -2.54318 -0.442836
-1.00645 -2.54427 -0.449137
-1.12274 -2.54654 -0.520917
-1.05903 -2.54735 -0.499846
-0.701549 -2.71151 -0.13163
-0.670289 -2.69503 -0.0967402
-1.0677 -2.68142 -0.281148
-0.774292 -2.66939 -0.122842
-0.846818 -2.65854 -0.149534
-1.05546 -2.64935 -0.247137
-0.90641 -2.64059 -0.166609
-0.948065 -2.63254 -0.182649
-1.01918 -2.62569 -0.215486
-1.00237 -2.61872 -0.20412
-1.05675 -2.61231 -0.229281
-0.885021 -2.60713 -0.143577
-1.03072 -2.59991 -0.212866
-1.07857 -2.5959 -0.238986
-1.02496 -2.59055 -0.211918
-1.02408 -2.58646 -0.213446
-1.06572 -2.58232 -0.236126
-1.11551 -2.57814 -0.262785
-1.13807 -2.57392 -0.275727
-1.29995 -2.5718 -0.362134
-1.12191 -2.56884 -0.277038
-1.03852 -2.56454 -0.236777
-1.08453 -2.56239 -0.265126
-1.02382 -2.55937 -0.238518
-0.964954 -2.55634 -0.212783
-1.15134 -2.55549 -0.313694
-1.23461 -2.55245 -0.358967
-1.13094 -2.55025 -0.312324
-1.11306 -2.54855 -0.309488
-1.12999 -2.54687 -0.324076
-1.39542 -2.54467 -0.46192
-1.15001 -2.54383 -0.346903
-1.22222 -2.54218 -0.389153
-1.26981 -2.54137 -0.420654
-1.1298 -2.53976 -0.356852
-1.32058 -2.53896 -0.459971
-1.15608 -2.5374 -0.383994
-1.27238 -2.53663 -0.449909
-0.965557 -2.53513 -0.302854
-1.18338 -2.53582 -0.422309
-1.28547 -2.53439 -0.479835
-1.12563 -2.53514 -0.410568
-1.22949 -2.53378 -0.469116
-1.30052 -2.5346 -0.515396
-1.18013 -2.53395 -0.463182
-1.15078 -2.5342 -0.458186
-0.995047 -2.53451 -0.390147
-1.34239 -2.53546 -0.574857
-1.24523 -2.53491 -0.534437
-1.15414 -2.53692 -0.502003
-1.23136 -2.53643 -0.548876
-1.06641 -2.53858 -0.479822
-1.134 -2.53928 -0.524214
-1.12062 -2.54164 -0.531371
-1.264 -2.54411 -0.617137
-0.590751 -2.73852 -0.124494
-0.851204 -2.70665 -0.208396
-0.838728 -2.69017 -0.182858
-0.575231 -2.67824 -0.0397759
-0.764773 -2.66756 -0.125329
-1.06842 -2.6572 -0.268427
-0.932249 -2.64807 -0.193756
-0.780608 -2.63888 -0.111151
-0.927547 -2.63089 -0.179933
-0.987646 -2.62409 -0.207384
-1.0791 -2.6165 -0.249017
-1.03065 -2.61082 -0.224112
-1.00437 -2.6044 -0.208897
-0.960422 -2.59922 -0.187051
-0.984627 -2.59399 -0.199159
-1.07215 -2.59001 -0.245152
-0.943628 -2.58469 -0.180655
-1.07093 -2.58062 -0.246318
-1.08197 -2.57652 -0.253741
-1.07406 -2.57237 -0.251594
-1.22061 -2.56819 -0.326579
-1.09279 -2.56397 -0.264284
-1.22119 -2.56316 -0.336357
-1.208 -2.5589 -0.331248
-1.1664 -2.55594 -0.314307
-1.07145 -2.55378 -0.272167
-1.0554 -2.55079 -0.267912
-1.16147 -2.54779 -0.324676
-1.09051 -2.54697 -0.29695
-1.0578 -2.54396 -0.284277
-1.24022 -2.54314 -0.383231
-1.05278 -2.54013 -0.293157
-1.16984 -2.53932 -0.359425
-1.07252 -2.5377 -0.316994
-1.19199 -2.53551 -0.38187
-1.1305 -2.53393 -0.357376
-1.14634 -2.53314 -0.373066
-1.05326 -2.53237 -0.334305
-1.08706 -2.5316 -0.358988
-1.12777 -2.53152 -0.388425
-1.13647 -2.53006 -0.399227
-1.03197 -2.52934 -0.354845
-1.13621 -2.52939 -0.416302
-1.293 -2.52871 -0.502629
-1.06808 -2.52886 -0.399683
-1.12365 -2.52822 -0.435474
-1.19681 -2.52847 -0.481763
-1.03298 -2.52937 -0.410823
-1.21028 -2.5288 -0.507588
-1.07987 -2.5292 -0.452389
-1.14837 -2.5312 -0.499775
-1.0811 -2.53071 -0.474426
-1.05871 -2.53286 -0.476668
-1.23531 -2.53242 -0.573356
-0.902772 -2.53434 -0.420089
-1.03489 -2.53555 -0.497776
-1.01447 -2.53805 -0.501744
-0.648014 -2.72444 -0.138925
-0.48078 -2.70175 -0.0251086
-0.870784 -2.68824 -0.206051
-0.698881 -2.67467 -0.105828
-1.04639 -2.66569 -0.273388
-0.787474 -2.65495 -0.134519
-0.740718 -2.64584 -0.104572
-0.923998 -2.63713 -0.190295
-0.889557 -2.62969 -0.169381
-0.909376 -2.6217 -0.174543
-0.970726 -2.6149 -0.20257
-0.988961 -2.60859 -0.209872
-1.13175 -2.60292 -0.280557
-1.01463 -2.5965 -0.219882
-1.0702 -2.59132 -0.247771
-1.16831 -2.5861 -0.29681
-1.07334 -2.58212 -0.251549
-0.90267 -2.57681 -0.165959
-1.06797 -2.57275 -0.25062
-1.02474 -2.56866 -0.230916
-1.2292 -2.56583 -0.337371
-1.05717 -2.56244 -0.25451
-1.00257 -2.55826 -0.228874
-0.955118 -2.55537 -0.20917
-0.91565 -2.55325 -0.194877
-1.09255 -2.55033 -0.287257
-1.09027 -2.54739 -0.289994
-1.12565 -2.54524 -0.313018
-1.16345 -2.54228 -0.335722
-1.12129 -2.54148 -0.322455
-1.0464 -2.53851 -0.288764
-1.13399 -2.53635 -0.337791
-1.14939 -2.53475 -0.35178
-1.03999 -2.53396 -0.304881
-1.28131 -2.531 -0.429238
-1.17347 -2.53022 -0.383119
-1.0353 -2.52868 -0.320387
-1.13031 -2.52792 -0.375719
-1.11639 -2.52643 -0.375177
-0.887568 -2.52569 -0.268626
-1.21853 -2.52425 -0.440606
-1.24293 -2.52498 -0.463463
-1.20969 -2.52361 -0.453461
-1.14987 -2.52294 -0.431512
-1.26984 -2.52309 -0.501053
-1.24284 -2.52246 -0.495579
-1.21198 -2.52272 -0.489896
-1.01824 -2.52362 -0.404024
-1.10007 -2.52305 -0.453079
-1.17449 -2.52345 -0.500323
-1.16759 -2.52393 -0.507059
-1.15748 -2.52496 -0.513281
-1.09069 -2.52556 -0.490322
-1.20702 -2.52667 -0.559918
-1.12926 -2.5274 -0.531734
-1.12205 -2.52978 -0.542091
-1.12382 -2.53069 -0.554034
-0.887128 -2.53327 -0.450072
-0.752922 -2.71491 -0.185214
-0.736364 -2.69681 -0.154806
-0.623558 -2.68331 -0.0843269
-0.742421 -2.67142 -0.132454
-0.637571 -2.66247 -0.0738847
-0.647823 -2.65178 -0.0696809
-0.787883 -2.64314 -0.133977
-0.759981 -2.63534 -0.115736
-0.832668 -2.62745 -0.147591
-0.859405 -2.61999 -0.157171
-0.819451 -2.61326 -0.134672
-0.782949 -2.6057 -0.112346
-0.885044 -2.60068 -0.163882
-0.87797 -2.59502 -0.159617
-1.02884 -2.58989 -0.235263
-0.937191 -2.58342 -0.187157
-1.07435 -2.5795 -0.258078
-1.17873 -2.57424 -0.310114
-1.14608 -2.57024 -0.295913
-1.03826 -2.56692 -0.245355
-1.11161 -2.56285 -0.283987
-1.06861 -2.55876 -0.264349
-1.05844 -2.55462 -0.26103
-1.36429 -2.55311 -0.420553
-1.10745 -2.54969 -0.295176
-1.05742 -2.54549 -0.271713
-0.976646 -2.54471 -0.23925
-1.22018 -2.54047 -0.362458
-1.15766 -2.5389 -0.337616
-1.00713 -2.53677 -0.267691
-1.10253 -2.53384 -0.319231
-0.984902 -2.53306 -0.268279
-1.05597 -2.53014 -0.307615
-1.0899 -2.52937 -0.332433
-1.06942 -2.52645 -0.325971
-1.27621 -2.52569 -0.437222
-1.07103 -2.52418 -0.341068
-0.908957 -2.52344 -0.267908
-1.10175 -2.52197 -0.370801
-1.24877 -2.52125 -0.45222
-1.18862 -2.52054 -0.43006
-1.08229 -2.51915 -0.383493
-1.10691 -2.51846 -0.403765
-1.00638 -2.51779 -0.361473
-1.05881 -2.51793 -0.397233
-1.0183 -2.51729 -0.385016
-1.12248 -2.51753 -0.446832
-1.27494 -2.51693 -0.531167
-0.950582 -2.51726 -0.378908
-1.07969 -2.51767 -0.453526
-1.20077 -2.51815 -0.524279
-1.12171 -2.51918 -0.496044
-1.04071 -2.51871 -0.463888
-1.1266 -2.52047 -0.519569
-1.04261 -2.52162 -0.48912
-1.03541 -2.52242 -0.496396
-1.03816 -2.52364 -0.509471
-0.939972 -2.52616 -0.474666
-1.08143 -2.52853 -0.5594
-0.609949 -2.70695 -0.110379
-0.509028 -2.69182 -0.0430205
-0.759473 -2.67834 -0.154157
-0.632859 -2.66812 -0.0825101
-0.769464 -2.65754 -0.141729
-0.749641 -2.64856 -0.125555
-0.760499 -2.64085 -0.126908
-0.869762 -2.6322 -0.175725
-0.897828 -2.62482 -0.186186
-0.833924 -2.61694 -0.149694
-0.803837 -2.61078 -0.133161
-0.904083 -2.60405 -0.18072
-1.02212 -2.59779 -0.237969
-1.00621 -2.59277 -0.230479
-0.984988 -2.58712 -0.219129
-0.964664 -2.582 -0.209159
-1.0297 -2.57683 -0.241752
-1.18184 -2.57293 -0.320176
-1.01345 -2.56835 -0.237059
-0.867922 -2.56438 -0.166468
-1.0442 -2.56037 -0.256681
-1.16936 -2.55501 -0.318802
-0.951994 -2.55225 -0.214445
-0.961715 -2.5502 -0.224931
-1.07167 -2.54608 -0.281651
-1.22164 -2.54326 -0.360786
-1.09088 -2.53984 -0.298408
-1.05275 -2.53698 -0.283386
-1.01709 -2.53488 -0.270987
-1.10667 -2.53201 -0.31974
-1.1987 -2.53124 -0.373684
-1.01472 -2.52836 -0.285609
-1.04608 -2.52624 -0.306616
-1.06086 -2.52472 -0.32048
-1.06909 -2.52259 -0.329881
-1.27001 -2.5211 -0.436823
-1.16975 -2.52036 -0.394608
-1.20728 -2.5189 -0.419902
-1.0091 -2.51818 -0.328754
-1.01215 -2.51535 -0.334146
-1.1118 -2.51465 -0.391924
-1.14077 -2.5147 -0.41582
-1.17388 -2.51403 -0.440383
-1.13738 -2.51272 -0.428893
-1.15578 -2.51208 -0.446144
-1.22687 -2.5123 -0.491404
-1.19749 -2.51169 -0.484827
-0.969173 -2.51201 -0.380568
-1.04752 -2.51144 -0.427932
-1.24165 -2.51185 -0.535093
-1.01467 -2.51234 -0.431842
-1.04245 -2.51337 -0.457049
-0.98992 -2.5129 -0.439151
-1.13988 -2.51354 -0.524676
-1.02464 -2.5158 -0.480832
-1.13109 -2.51541 -0.54259
-0.953392 -2.51782 -0.467819
-1.06925 -2.51875 -0.536901
-0.995381 -2.52135 -0.51446
-1.04181 -2.52406 -0.552396
-0.507815 -2.71713 -0.0781785
-0.715806 -2.69732 -0.157003
-0.730961 -2.68384 -0.150567
-0.525866 -2.67332 -0.039208
-0.780431 -2.66313 -0.158164
-0.85045 -2.65423 -0.187098
-0.797569 -2.64492 -0.153782
-0.803415 -2.63762 -0.153383
-0.734491 -2.629 -0.113162
-0.826635 -2.62123 -0.154936
-0.750995 -2.61384 -0.113465
-0.762372 -2.60854 -0.119221
-0.82996 -2.60106 -0.149093
-0.803864 -2.59484 -0.134362
-0.977351 -2.58987 -0.221668
-0.754883 -2.58486 -0.110883
-1.06118 -2.57922 -0.263284
-0.804226 -2.57472 -0.136102
-0.972616 -2.56958 -0.220394
-0.901261 -2.5657 -0.187106
-0.953372 -2.56048 -0.213029
-1.06578 -2.55652 -0.271416
-0.845585 -2.55253 -0.163403
-1.01834 -2.54983 -0.254235
-1.04432 -2.54649 -0.270457
-1.19851 -2.54241 -0.349402
-0.949987 -2.54037 -0.230749
-1.03054 -2.53625 -0.27274
-1.19334 -2.53345 -0.358294
-1.07259 -2.53137 -0.303415
-1.09789 -2.52854 -0.320138
-1.10412 -2.52645 -0.328689
-1.113 -2.52361 -0.337134
-1.19111 -2.52287 -0.384163
-1.10089 -2.52003 -0.34302
-1.09988 -2.5193 -0.350478
-1.13634 -2.51646 -0.372651
-1.17146 -2.51574 -0.398178
-1.05841 -2.51292 -0.345578
-0.849937 -2.51221 -0.249318
-1.12009 -2.51081 -0.391045
-1.19005 -2.51013 -0.434027
-1.19245 -2.50878 -0.441947
-1.09629 -2.50812 -0.401907
-0.988258 -2.50747 -0.355943
-1.01339 -2.50765 -0.378172
-1.25186 -2.50642 -0.504335
-1.01658 -2.50582 -0.394839
-1.20456 -2.50614 -0.498767
-1.12318 -2.50559 -0.46629
-1.02047 -2.506 -0.42506
-1.1172 -2.50699 -0.484682
-1.08451 -2.50649 -0.476664
-1.01057 -2.50706 -0.450111
-1.07138 -2.50769 -0.491086
-0.992063 -2.50881 -0.462958
-0.973907 -2.50957 -0.464699
-1.0264 -2.51163 -0.504374
-0.98882 -2.51289 -0.497416
-1.08516 -2.51522 -0.559568
-0.962889 -2.51657 -0.510478
-0.821683 -2.51936 -0.454796
-0.603693 -2.70741 -0.119746
-0.429364 -2.69223 -0.0156096
-0.534203 -2.67876 -0.0540083
-0.67779 -2.66827 -0.117
-0.775533 -2.65809 -0.157564
-0.764828 -2.64921 -0.146161
-0.833924 -2.64161 -0.176889
-0.885507 -2.63265 -0.196369
-0.757004 -2.62536 -0.128734
-0.629097 -2.61803 -0.0613017
-0.868253 -2.61154 -0.17885
-0.731815 -2.60414 -0.106902
-0.896883 -2.598 -0.187955
-0.802657 -2.59262 -0.140692
-0.86496 -2.58691 -0.171056
-0.993311 -2.58141 -0.234779
-0.82396 -2.57639 -0.150502
-0.918083 -2.57133 -0.197847
-0.885865 -2.56682 -0.183013
-1.04598 -2.56169 -0.263158
-0.94291 -2.55783 -0.214017
-1.12246 -2.55262 -0.303651
-0.988201 -2.55 -0.241168
-0.960063 -2.5467 -0.230458
-1.08602 -2.54271 -0.295485
-1.12078 -2.53869 -0.314818
-1.00448 -2.53667 -0.262349
-0.988922 -2.5326 -0.256389
-1.04566 -2.52985 -0.289027
-1.06729 -2.5278 -0.305404
-1.13981 -2.52368 -0.343289
-1.15302 -2.52296 -0.357955
-1.01498 -2.52017 -0.29305
-1.08761 -2.51809 -0.334806
-1.12655 -2.51529 -0.358329
-1.0798 -2.51458 -0.34298
-1.1638 -2.51178 -0.389002
-1.00353 -2.51107 -0.31689
-0.990273 -2.50828 -0.314269
-1.17499 -2.50759 -0.414657
-1.05802 -2.50623 -0.362902
-1.11557 -2.50556 -0.399731
-0.909862 -2.50424 -0.303674
-1.04624 -2.5036 -0.379952
-1.06479 -2.50233 -0.396104
-1.11003 -2.50171 -0.426855
-1.02317 -2.5011 -0.391566
-1.15001 -2.50138 -0.464861
-1.12196 -2.50024 -0.457941
-0.909434 -2.50118 -0.362835
-1.06015 -2.50012 -0.445439
-0.980098 -2.50111 -0.41669
-0.971971 -2.50061 -0.420979
-1.13469 -2.50118 -0.512786
-0.788611 -2.50181 -0.350342
-1.04868 -2.50253 -0.491126
-0.960877 -2.50369 -0.458866
-0.937994 -2.50452 -0.45842
-0.964247 -2.5067 -0.485242
-1.04067 -2.508 -0.535403
-1.06058 -2.51067 -0.560066
-0.830222 -2.51324 -0.459424
-0.909766 -2.51469 -0.511472
-0.352086 -2.71293 -0.00459965
-0.56022 -2.69599 -0.0886316
-0.458715 -2.6825 -0.023861
-0.566097 -2.6707 -0.0664614
-0.694284 -2.66186 -0.124696
-0.703609 -2.65301 -0.12343
-0.779017 -2.64416 -0.155112
-0.86412 -2.63658 -0.193879
-0.741164 -2.62895 -0.128484
-0.820315 -2.62167 -0.164711
-0.659969 -2.61437 -0.0810943
-0.824301 -2.60705 -0.159715
-0.745619 -2.60099 -0.119084
-0.886588 -2.59489 -0.188171
-0.955511 -2.58958 -0.222613
-0.852495 -2.58339 -0.169446
-0.789113 -2.57846 -0.138367
-0.844261 -2.57219 -0.164041
-0.926107 -2.56848 -0.207755
-0.761418 -2.56343 -0.125686
-0.925878 -2.55893 -0.20917
-0.942726 -2.55381 -0.217671
-0.912689 -2.54996 -0.20506
-0.835095 -2.54608 -0.168576
-1.01795 -2.54281 -0.263423
-1.02274 -2.53888 -0.267975
-1.10674 -2.53491 -0.31204
-1.03802 -2.53291 -0.283427
-1.03824 -2.5289 -0.285462
-1.03235 -2.5262 -0.286898
-0.892664 -2.52418 -0.222685
-1.06753 -2.5201 -0.311851
-1.05939 -2.51806 -0.31334
-1.18187 -2.51531 -0.378786
-0.938911 -2.51462 -0.265409
-0.980123 -2.51186 -0.290177
-0.998245 -2.5098 -0.304694
-0.95863 -2.50704 -0.288997
-1.21401 -2.50635 -0.424765
-0.990739 -2.505 -0.319914
-1.02059 -2.50293 -0.340225
-1.05674 -2.5016 -0.365111
-1.06339 -2.50095 -0.376546
-1.00634 -2.49966 -0.354897
-1.09285 -2.49903 -0.406288
-1.11765 -2.49779 -0.425641
-0.979733 -2.49719 -0.364862
-0.960735 -2.496 -0.362405
-1.14202 -2.49543 -0.461268
-1.07833 -2.49486 -0.437661
-0.999085 -2.49524 -0.408132
-0.94555 -2.49471 -0.389669
-1.083 -2.49518 -0.468676
-1.01131 -2.49469 -0.44121
-1.09796 -2.49526 -0.495011
-0.814346 -2.4959 -0.363826
-1.01205 -2.49661 -0.473449
-1.04052 -2.49777 -0.499348
-0.955167 -2.4986 -0.467689
-0.826892 -2.50077 -0.417263
-1.14406 -2.50207 -0.587812
-0.959965 -2.50314 -0.507281
-0.846163 -2.50588 -0.46529
-1.09942 -2.50873 -0.607044
-0.971655 -2.51307 -0.56133
-0.404174 -2.6984 -0.0157849
-0.383242 -2.68486 0.00872764
-0.597283 -2.67273 -0.0866666
-0.685438 -2.6639 -0.124951
-0.697988 -2.65508 -0.125383
-0.607154 -2.64625 -0.0740498
-0.665554 -2.63871 -0.0995911
-0.776847 -2.6315 -0.152117
-0.774648 -2.62391 -0.147146
-0.66366 -2.61666 -0.0883423
-0.660581 -2.60978 -0.0841252
-0.667575 -2.60338 -0.0857543
-0.751395 -2.59734 -0.126424
-0.866296 -2.59127 -0.182528
-0.737116 -2.58517 -0.116481
-0.795918 -2.57903 -0.14431
-0.770118 -2.57415 -0.132114
-0.835385 -2.56923 -0.165344
-0.890252 -2.56427 -0.193264
-1.00365 -2.55927 -0.250336
-0.835114 -2.55554 -0.168764
-0.678678 -2.55104 -0.0917811
-0.933903 -2.54725 -0.221919
-0.781137 -2.54211 -0.145505
-0.826848 -2.53957 -0.173169
-0.930474 -2.53498 -0.225922
-0.844363 -2.53106 -0.185041
-0.950485 -2.5291 -0.243916
-0.89822 -2.52514 -0.219821
-1.0038 -2.52249 -0.277108
-0.86604 -2.52049 -0.213923
-1.07741 -2.51647 -0.321452
-1.06437 -2.51445 -0.320552
-1.07081 -2.51175 -0.328094
-1.14143 -2.50972 -0.368969
-0.965754 -2.50701 -0.285382
-0.985833 -2.50634 -0.303574
-1.057 -2.50363 -0.343375
-0.910265 -2.50158 -0.27548
-0.932166 -2.50026 -0.293302
-1.01002 -2.49821 -0.337669
-0.936857 -2.49691 -0.307982
-1.05546 -2.49628 -0.375444
-0.955608 -2.4936 -0.329699
-1.141 -2.49298 -0.430572
-0.942134 -2.49176 -0.338141
-0.844082 -2.49116 -0.297326
-1.00758 -2.49145 -0.389023
-1.30993 -2.49089 -0.548463
-1.07017 -2.48979 -0.435799
-1.02826 -2.48926 -0.42316
-1.01748 -2.48971 -0.428033
-0.982223 -2.48921 -0.41879
-0.956638 -2.48976 -0.416451
-0.868754 -2.4893 -0.38097
-1.12432 -2.48995 -0.519402
-0.961731 -2.49066 -0.448908
-1.14028 -2.49145 -0.549129
-1.07512 -2.49265 -0.528327
-0.924722 -2.49355 -0.464319
-1.01147 -2.49584 -0.521671
-1.00251 -2.49717 -0.529267
-0.975732 -2.49991 -0.530798
-0.736368 -2.50113 -0.422991
-0.940569 -2.50554 -0.543441
-0.912236 -2.5086 -0.544912
-0.452739 -2.6991 -0.0422284
-0.459148 -2.68684 -0.0337097
-0.334137 -2.67501 0.0398337
-0.567414 -2.66618 -0.0710639
-0.509076 -2.65738 -0.0361294
-0.479499 -2.64826 -0.0149356
-0.63368 -2.63945 -0.0861321
-0.734751 -2.63228 -0.133653
-0.690024 -2.62639 -0.110559
-0.635601 -2.61883 -0.0795265
-0.560536 -2.6116 -0.0387264
-0.766712 -2.60565 -0.140818
-0.720661 -2.59878 -0.11507
-0.666195 -2.59279 -0.0866733
-0.695036 -2.58762 -0.101413
-0.828387 -2.58155 -0.166689
-0.861242 -2.57674 -0.184001
-0.838305 -2.57059 -0.17091
-0.837694 -2.56571 -0.171273
-0.950982 -2.5613 -0.229426
-0.682886 -2.55504 -0.0934341
-0.918273 -2.55136 -0.213926
-0.888675 -2.54765 -0.201836
-0.950116 -2.54315 -0.233774
-0.90775 -2.53938 -0.215132
-0.915231 -2.53426 -0.218843
-0.956204 -2.53234 -0.245302
-0.978195 -2.52848 -0.258596
-0.911113 -2.5246 -0.227268
-0.96689 -2.52131 -0.258471
-0.836999 -2.51737 -0.19559
-0.931471 -2.51611 -0.249931
-0.958865 -2.51277 -0.266785
-0.802539 -2.51078 -0.194314
-0.905904 -2.50813 -0.250428
-0.856082 -2.50548 -0.229912
-0.966475 -2.50346 -0.290711
-0.82395 -2.50144 -0.225026
-1.13226 -2.49877 -0.383489
-1.04995 -2.49749 -0.349309
-1.04165 -2.49546 -0.350672
-1.11534 -2.49483 -0.395722
-1.03346 -2.49217 -0.359047
-0.984404 -2.49155 -0.342733
-1.06889 -2.48891 -0.389235
-1.21778 -2.4883 -0.471909
-1.14845 -2.48712 -0.444327
-0.982848 -2.48654 -0.369786
-0.808507 -2.4854 -0.289779
-1.07407 -2.48484 -0.430865
-1.01506 -2.4843 -0.409673
-1.00229 -2.48471 -0.41349
-0.960047 -2.4837 -0.399758
-0.913222 -2.48422 -0.386779
-0.907684 -2.48376 -0.392479
-0.945896 -2.48438 -0.42221
-1.02574 -2.48395 -0.470679
-0.990615 -2.48467 -0.463941
-0.945026 -2.48546 -0.452119
-0.975335 -2.48666 -0.47907
-0.923368 -2.48756 -0.4643
-1.04549 -2.48853 -0.536729
-1.00317 -2.49117 -0.530288
-0.971812 -2.4923 -0.526313
-0.892686 -2.49511 -0.501867
-0.838288 -2.49938 -0.492778
-0.885882 -2.50091 -0.529132
-0.841237 -2.50563 -0.525886
-0.489895 -2.70145 -0.0658941
-0.488625 -2.68744 -0.0504703
-0.490408 -2.6769 -0.0426773
-0.390313 -2.66676 0.0154148
-0.442098 -2.65764 -0.00418172
-0.53609 -2.64886 -0.0454411
-0.47853 -2.64172 -0.01381
-0.648577 -2.63425 -0.095326
-0.674252 -2.6271 -0.10519
-0.717856 -2.61959 -0.123315
-0.670661 -2.61371 -0.0989384
-0.762908 -2.60651 -0.141841
-0.743681 -2.60058 -0.131279
-0.792928 -2.59373 -0.153211
-0.708008 -2.58777 -0.109636
-0.971069 -2.58265 -0.241563
-0.893396 -2.57704 -0.202183
-0.825417 -2.57097 -0.166769
-0.823935 -2.56617 -0.166893
-0.999411 -2.56134 -0.255395
-0.851291 -2.55646 -0.181993
-0.927467 -2.55286 -0.22307
-0.85259 -2.54843 -0.187048
-0.90116 -2.54346 -0.211706
-0.87798 -2.53845 -0.200377
-0.747182 -2.53527 -0.138645
-0.767236 -2.53152 -0.151233
-0.849024 -2.52774 -0.1946
-0.820557 -2.52451 -0.183859
-0.885526 -2.52068 -0.218666
-0.817466 -2.51815 -0.189415
-0.856528 -2.51487 -0.21227
-1.06003 -2.51097 -0.316131
-1.10732 -2.50901 -0.345565
-0.925026 -2.50507 -0.256404
-0.96633 -2.50309 -0.282772
-0.989247 -2.50048 -0.298719
-1.02369 -2.49849 -0.321599
-1.08189 -2.49586 -0.355128
-0.896472 -2.49524 -0.270692
-1.0034 -2.49262 -0.328552
-1.06345 -2.49061 -0.364144
-0.959036 -2.48939 -0.319014
-1.07779 -2.48738 -0.383927
-1.01375 -2.48618 -0.359009
-0.949608 -2.48417 -0.332447
-1.21458 -2.48358 -0.473213
-0.910801 -2.48242 -0.328485
-0.988088 -2.48185 -0.37544
-1.19003 -2.48075 -0.483651
-1.09536 -2.48021 -0.444668
-1.03937 -2.47915 -0.424001
-0.955473 -2.47864 -0.390447
-0.94928 -2.47813 -0.39576
-0.922718 -2.47817 -0.39197
-0.907175 -2.47921 -0.395684
-0.957717 -2.47834 -0.428625
-1.00133 -2.47903 -0.461229
-0.908883 -2.47864 -0.423635
-0.881773 -2.47943 -0.42108
-1.00956 -2.48063 -0.496789
-0.966269 -2.48153 -0.486383
-1.12187 -2.4825 -0.575569
-0.891419 -2.48489 -0.474599
-0.954181 -2.48625 -0.518183
-0.926238 -2.48888 -0.51899
-0.82127 -2.49033 -0.478913
-0.886242 -2.49483 -0.530024
-0.94584 -2.49953 -0.578898
-0.871002 -2.5061 -0.564418
-0.478109 -2.70206 -0.062017
-0.499806 -2.68667 -0.0556375
-0.342437 -2.67611 0.0317349
-0.460633 -2.66693 -0.0210821
-0.471253 -2.65814 -0.0207426
-0.377899 -2.64938 0.0315977
-0.632067 -2.64226 -0.0927168
-0.439531 -2.63482 0.00696091
-0.658803 -2.6277 -0.0998048
-0.698357 -2.62024 -0.116036
-0.642324 -2.6144 -0.087358
-0.489631 -2.60725 -0.00792205
-0.649357 -2.60137 -0.0869717
-0.670306 -2.59548 -0.0965502
-0.689754 -2.58865 -0.103617
-0.700644 -2.58361 -0.109655
-0.728063 -2.57804 -0.122934
-0.780743 -2.57204 -0.148017
-0.72372 -2.56731 -0.12054
-0.895337 -2.56254 -0.207288
-0.695722 -2.55774 -0.108321
-0.820875 -2.55208 -0.170085
-0.817638 -2.54722 -0.169117
-0.712752 -2.54362 -0.119666
-0.734531 -2.54 -0.133463
-0.857465 -2.53556 -0.196254
-0.871631 -2.53057 -0.203604
-0.783706 -2.5274 -0.163311
-0.936094 -2.52367 -0.242088
-1.02861 -2.51991 -0.290844
-0.752582 -2.51669 -0.156325
-0.941667 -2.51288 -0.253218
-0.742941 -2.51096 -0.159788
-0.978052 -2.50712 -0.279566
-1.0773 -2.50518 -0.33505
-0.795779 -2.50129 -0.196386
-0.864777 -2.49934 -0.236672
-0.938893 -2.49678 -0.278332
-0.998664 -2.49482 -0.313946
-1.05136 -2.49224 -0.344835
-1.01955 -2.49027 -0.334604
-0.963717 -2.48768 -0.311172
-1.05368 -2.48709 -0.364483
-0.86032 -2.48451 -0.272263
-1.02635 -2.48252 -0.360869
-0.877992 -2.48135 -0.293878
-1.097 -2.48078 -0.411723
-1.12109 -2.47823 -0.42821
-1.00336 -2.47767 -0.377698
-1.14556 -2.47657 -0.456091
-1.08604 -2.47604 -0.434721
-0.72892 -2.47499 -0.263535
-0.810901 -2.47449 -0.312954
-0.96354 -2.47349 -0.396741
-1.06185 -2.47301 -0.45437
-1.03808 -2.47254 -0.450976
-1.04367 -2.47312 -0.464362
-1.01302 -2.47269 -0.457599
-0.939425 -2.47296 -0.43078
-0.899563 -2.4741 -0.422564
-0.859144 -2.47372 -0.411045
-0.940346 -2.47456 -0.462762
-0.809114 -2.47546 -0.408408
-0.929419 -2.47643 -0.479971
-0.825724 -2.47881 -0.442396
-0.898045 -2.48017 -0.490777
-0.71341 -2.48137 -0.410349
-0.70852 -2.48571 -0.426227
-0.750648 -2.48862 -0.46273
-0.878063 -2.49175 -0.542341
-0.75257 -2.49827 -0.502474
-0.654728 -2.50512 -0.477157
-0.345383 -2.69787 0.0109133
-0.278644 -2.68378 0.0591451
-0.485985 -2.67323 -0.0358875
-0.40683 -2.66441 0.0092961
-0.51712 -2.65693 -0.0425798
-0.441121 -2.64819 0.00101091
-0.403232 -2.64109 0.0226476
-0.456054 -2.63367 -0.000437532
-0.447735 -2.62658 0.00650077
-0.557137 -2.62078 -0.0477033
-0.611578 -2.61369 -0.0720282
-0.646845 -2.60787 -0.0890436
-0.670415 -2.60204 -0.100143
-0.538007 -2.59526 -0.0314647
-0.831689 -2.5894 -0.177475
-0.740853 -2.58352 -0.131142
-0.597717 -2.57852 -0.0602438
-0.789632 -2.57297 -0.155809
-0.815421 -2.5679 -0.169155
-0.790668 -2.56231 -0.15623
-0.776536 -2.55758 -0.150171
-0.85647 -2.55325 -0.191867
-1.01088 -2.54717 -0.267476
-0.608694 -2.54365 -0.0695491
-0.66522 -2.53927 -0.0993343
-0.716738 -2.53439 -0.125644
-0.799677 -2.53078 -0.170029
-0.744239 -2.52766 -0.146098
-0.719958 -2.52269 -0.134234
-0.754311 -2.52032 -0.156593
-0.971394 -2.51582 -0.266234
-0.739605 -2.51208 -0.152866
-0.760713 -2.50887 -0.166919
-0.90243 -2.50509 -0.24016
-0.938911 -2.50319 -0.264356
-0.831515 -2.49937 -0.212915
-0.994568 -2.49745 -0.300324
-0.784511 -2.49495 -0.200046
-0.784609 -2.49302 -0.205919
-0.906514 -2.48913 -0.268908
-0.941797 -2.48855 -0.294965
-0.959089 -2.48465 -0.305557
-0.991832 -2.48407 -0.330325
-0.947036 -2.48154 -0.312502
-0.785853 -2.47957 -0.237579
-0.938244 -2.47844 -0.321059
-0.729079 -2.47647 -0.222113
-0.958832 -2.47537 -0.344301
-0.889332 -2.4734 -0.315161
-1.02308 -2.47286 -0.390441
-1.02815 -2.4718 -0.400348
-1.01788 -2.47128 -0.403653
-0.962012 -2.47026 -0.383172
-0.908646 -2.46976 -0.364967
-0.822933 -2.4688 -0.329652
-0.841645 -2.46833 -0.347531
-0.95606 -2.46742 -0.412378
-0.986119 -2.46698 -0.435979
-1.11209 -2.46764 -0.509724
-0.942763 -2.46723 -0.433704
-0.873029 -2.46761 -0.40905
-0.711447 -2.46878 -0.340084
-0.963688 -2.46845 -0.474978
-0.929627 -2.46935 -0.469237
-1.03748 -2.47032 -0.534597
-0.868037 -2.47136 -0.461457
-0.82639 -2.47405 -0.455584
-1.00471 -2.47524 -0.556652
-1.0154 -2.47944 -0.580065
-0.802899 -2.48094 -0.486397
-0.750724 -2.48559 -0.479346
-0.690579 -2.49207 -0.472143
-0.743983 -2.50064 -0.526044
-0.220408 -2.69357 0.0801364
-0.230089 -2.6795 0.0901217
-0.483264 -2.67191 -0.0331718
-0.363018 -2.6631 0.0325077
-0.571961 -2.65434 -0.0664342
-0.515145 -2.6469 -0.0348164
-0.53699 -2.63982 -0.0431275
-0.348097 -2.63404 0.051645
-0.710024 -2.62698 -0.126635
-0.544611 -2.6196 -0.0405998
-0.499859 -2.61382 -0.017767
-0.556816 -2.60676 -0.0433909
-0.717886 -2.60096 -0.123345
-0.576448 -2.59516 -0.0519768
-0.80859 -2.58933 -0.167324
-0.658221 -2.58384 -0.0919859
-0.614725 -2.57835 -0.0700302
-0.673715 -2.57248 -0.098578
-0.910496 -2.56786 -0.218315
-0.622628 -2.56284 -0.0749216
-0.682392 -2.55727 -0.104297
-0.73157 -2.55299 -0.13073
-0.806043 -2.54827 -0.168972
-0.809313 -2.54352 -0.171516
-0.841145 -2.53919 -0.189076
-0.788209 -2.53438 -0.16334
-0.773489 -2.53085 -0.159074
-0.791145 -2.52646 -0.169337
-0.915093 -2.52156 -0.231764
-0.761072 -2.51927 -0.160101
-0.84728 -2.51481 -0.204427
-0.837136 -2.51115 -0.202056
-0.88342 -2.50798 -0.228814
-0.922516 -2.50427 -0.25092
-0.929272 -2.5024 -0.260362
-0.918781 -2.49866 -0.25755
-0.987081 -2.49677 -0.297691
-0.86489 -2.49299 -0.238907
-0.926686 -2.49109 -0.275726
-0.951875 -2.48727 -0.290514
-0.854996 -2.48535 -0.247927
-0.839095 -2.48287 -0.244724
-0.863965 -2.48094 -0.262957
-0.929715 -2.47901 -0.301607
-0.959128 -2.47652 -0.32098
-0.942793 -2.47542 -0.320196
-0.843113 -2.47348 -0.27607
-1.01543 -2.47153 -0.367921
-0.87952 -2.47046 -0.307364
-0.961482 -2.46851 -0.35401
-0.94013 -2.46747 -0.350767
-0.96231 -2.46696 -0.370338
-0.879811 -2.46596 -0.336593
-1.04391 -2.46402 -0.424279
-0.921025 -2.46305 -0.370397
-0.883659 -2.46259 -0.360255
-0.98169 -2.46213 -0.417827
-1.06602 -2.46271 -0.470643
-0.864115 -2.46187 -0.377472
-0.984828 -2.46146 -0.446482
-0.882584 -2.46218 -0.40629
-0.908203 -2.46181 -0.427825
-0.956996 -2.46229 -0.462666
-0.841622 -2.4635 -0.416913
-0.879361 -2.4632 -0.444641
-0.928258 -2.46417 -0.480549
-0.879796 -2.46521 -0.467924
-0.855038 -2.46769 -0.470094
-0.865096 -2.46908 -0.487468
-0.829097 -2.47179 -0.484524
-0.798337 -2.47476 -0.484765
-0.913494 -2.47775 -0.55803
-0.784484 -2.48419 -0.516339
-0.832097 -2.49095 -0.563676
-0.388028 -2.68746 0.00631143
-0.275949 -2.67849 0.0680133
-0.197816 -2.66754 0.116359
-0.532041 -2.66041 -0.0482337
-0.45172 -2.65293 -0.00489899
-0.45569 -2.64424 -0.00143582
-0.378141 -2.63846 0.0375692
-0.379375 -2.63142 0.0395122
-0.437055 -2.62406 0.0138658
-0.41532 -2.61832 0.0250533
-0.457778 -2.61257 0.00418685
-0.643501 -2.60715 -0.0888557
-0.606973 -2.59979 -0.0671911
-0.546133 -2.59402 -0.0362331
-0.565733 -2.58858 -0.0460404
-0.556299 -2.58313 -0.0412776
-0.492796 -2.57826 -0.0105185
-0.565751 -2.57278 -0.0468189
-0.552587 -2.5673 -0.0400026
-0.557052 -2.56235 -0.0429632
-0.618235 -2.55683 -0.0731706
-0.666126 -2.5522 -0.0983536
-0.728195 -2.54793 -0.131278
-0.733117 -2.54326 -0.134818
-0.601531 -2.53855 -0.0700094
-0.737175 -2.53423 -0.139521
-0.672587 -2.52947 -0.108038
-0.776589 -2.52598 -0.163218
-0.604738 -2.5216 -0.0787739
-0.805289 -2.51806 -0.182078
-0.892969 -2.51365 -0.227265
-0.831475 -2.51006 -0.199392
-0.893003 -2.50694 -0.233888
-0.812206 -2.5033 -0.196223
-0.909423 -2.50014 -0.248454
-0.839866 -2.49646 -0.216269
-0.888752 -2.49461 -0.246801
-0.887362 -2.49089 -0.248577
-0.872926 -2.48903 -0.247377
-0.824655 -2.48527 -0.225593
-1.01201 -2.48339 -0.325219
-0.929832 -2.48097 -0.289023
-0.914831 -2.47907 -0.287416
-1.09974 -2.47664 -0.384706
-0.908308 -2.47473 -0.294832
-0.869916 -2.47282 -0.281454
-1.0417 -2.47037 -0.372104
-0.96506 -2.46845 -0.339558
-0.993388 -2.46601 -0.358443
-0.98106 -2.46549 -0.360792
-1.06323 -2.46306 -0.406592
-0.800046 -2.46255 -0.283523
-0.83034 -2.46157 -0.306232
-1.00205 -2.46109 -0.400644
-0.932016 -2.45917 -0.371316
-0.950337 -2.45823 -0.388115
-0.876772 -2.45778 -0.359925
-0.88082 -2.4569 -0.369676
-0.885334 -2.45647 -0.380569
-1.02196 -2.45712 -0.459701
-0.814389 -2.45634 -0.363837
-0.840917 -2.45597 -0.385838
-0.984138 -2.45676 -0.468547
-0.629468 -2.45642 -0.30002
-0.922219 -2.4573 -0.457686
-1.02416 -2.45798 -0.519528
-0.8008 -2.45926 -0.419977
-0.859632 -2.46034 -0.461107
-0.700562 -2.46149 -0.393431
-0.801884 -2.46413 -0.459023
-0.970608 -2.46557 -0.555888
-0.951903 -2.46844 -0.561966
-0.747411 -2.47152 -0.475618
-0.772752 -2.47793 -0.511097
-0.826089 -2.48638 -0.564869
-0.206154 -2.70132 0.0820323
-0.36808 -2.68124 0.0264513
-0.373188 -2.67359 0.0271764
-0.376517 -2.66308 0.0339781
-0.395589 -2.65724 0.0246038
-0.453897 -2.64853 0.00082936
-0.320373 -2.64275 0.0677429
-0.363618 -2.63572 0.0485713
-0.536225 -2.62838 -0.0346454
-0.464886 -2.62265 0.00122456
-0.340734 -2.61693 0.0635319
-0.583206 -2.60995 -0.0551225
-0.660035 -2.60423 -0.0932179
-0.424496 -2.59852 0.0249207
-0.497527 -2.59279 -0.0111682
-0.615352 -2.58738 -0.0701861
-0.574841 -2.58291 -0.0517301
-0.591477 -2.57715 -0.0594303
-0.575005 -2.5717 -0.0511194
-0.465409 -2.56625 0.00381169
-0.688068 -2.56172 -0.109056
-0.695044 -2.55717 -0.114009
-0.659311 -2.55167 -0.0958066
-0.732651 -2.54708 -0.133787
-0.684038 -2.54246 -0.110705
-0.695849 -2.5382 -0.118478
-0.799534 -2.53353 -0.171383
-0.607874 -2.52924 -0.0772913
-0.76511 -2.52582 -0.159262
-0.789759 -2.52149 -0.173197
-0.827098 -2.51672 -0.192593
-0.869552 -2.51366 -0.21778
-0.679205 -2.50883 -0.123161
-0.795477 -2.50661 -0.186786
-0.913538 -2.50218 -0.247082
-0.875486 -2.49992 -0.233433
-0.653484 -2.49546 -0.123565
-0.969749 -2.49316 -0.286963
-0.71727 -2.48866 -0.16172
-0.919641 -2.48683 -0.269022
-0.900991 -2.48314 -0.262208
-1.02062 -2.48129 -0.328071
-0.891762 -2.47893 -0.268678
-0.790702 -2.4757 -0.221484
-0.922858 -2.47468 -0.295195
-0.794756 -2.47143 -0.234394
-0.90672 -2.46955 -0.296278
-0.859888 -2.46715 -0.277739
-0.95486 -2.46526 -0.331077
-0.931128 -2.46286 -0.324046
-0.878318 -2.46236 -0.306217
-1.03745 -2.45996 -0.390605
-0.977917 -2.45948 -0.369423
-0.758374 -2.45757 -0.265423
-0.766398 -2.45662 -0.27708
-0.901687 -2.4557 -0.352419
-1.00683 -2.4538 -0.410737
-1.09789 -2.45335 -0.464895
-1.03182 -2.45248 -0.439636
-0.842925 -2.45206 -0.35386
-0.940315 -2.45124 -0.410422
-0.917977 -2.45045 -0.407187
-0.919071 -2.45156 -0.4195
-0.898301 -2.45085 -0.417182
-0.930574 -2.4505 -0.442137
-0.76834 -2.45136 -0.372288
-0.828365 -2.45106 -0.411193
-1.06502 -2.45201 -0.540981
-0.789545 -2.45302 -0.414841
-0.877013 -2.4541 -0.470314
-0.873893 -2.45525 -0.480636
-0.69933 -2.45788 -0.408306
-0.888586 -2.46079 -0.518474
-0.649275 -2.46217 -0.411242
-0.882045 -2.4668 -0.546775
-0.896564 -2.46999 -0.57021
-0.687095 -2.47666 -0.48894
-0.263182 -2.68608 0.0797713
-0.324973 -2.67491 0.058352
-0.27394 -2.66731 0.0870484
-0.418862 -2.66019 0.016959
-0.301538 -2.65107 0.0816538
-0.396947 -2.64529 0.0340186
-0.249896 -2.63828 0.109882
-0.527274 -2.63255 -0.0287224
-0.392367 -2.62683 0.0388291
-0.472482 -2.61987 0.00117453
-0.379682 -2.61418 0.0477235
-0.651699 -2.6085 -0.088104
-0.559095 -2.60282 -0.0415829
-0.688659 -2.59713 -0.106101
-0.691687 -2.59176 -0.107879
-0.547574 -2.58607 -0.0354509
-0.597814 -2.58069 -0.0607236
-0.482421 -2.57624 -0.00487961
-0.664712 -2.57052 -0.0954665
-0.596338 -2.5651 -0.0612511
-0.671661 -2.56062 -0.100577
-0.685915 -2.55518 -0.107548
-0.82026 -2.55066 -0.176247
-0.646228 -2.54612 -0.0906811
-0.620611 -2.54192 -0.0799139
-0.802782 -2.53734 -0.172301
-0.634738 -2.5331 -0.0901978
-0.567842 -2.52847 -0.0578936
-0.559042 -2.5242 -0.055283
-0.64877 -2.52082 -0.103586
-0.888324 -2.51652 -0.225025
-0.657745 -2.51179 -0.110548
-0.961831 -2.50876 -0.266606
-0.808882 -2.50529 -0.193285
-0.812144 -2.50092 -0.19631
-0.82045 -2.4974 -0.203466
-0.768954 -2.49431 -0.181516
-0.826899 -2.49208 -0.215919
-0.705729 -2.48763 -0.156462
-0.852487 -2.48536 -0.235163
-0.766305 -2.48221 -0.195664
-0.893488 -2.47992 -0.264491
-0.793705 -2.47675 -0.218093
-0.710938 -2.47492 -0.182797
-0.878658 -2.47124 -0.269119
-0.954631 -2.46939 -0.313127
-0.987967 -2.46705 -0.334842
-1.03001 -2.46519 -0.361833
-0.932388 -2.46333 -0.31897
-0.888689 -2.46098 -0.302093
-0.886067 -2.45911 -0.306682
-1.06098 -2.45676 -0.399074
-0.893769 -2.45629 -0.324114
-1.11523 -2.45395 -0.439768
-0.942557 -2.45207 -0.359261
-0.878651 -2.45161 -0.335962
-0.981753 -2.45072 -0.395289
-0.921723 -2.44884 -0.371075
-0.860997 -2.44798 -0.348539
-0.969189 -2.44757 -0.411343
-0.78322 -2.44675 -0.326271
-0.836203 -2.44598 -0.360739
-0.928675 -2.4456 -0.415757
-0.884182 -2.44488 -0.401586
-0.924619 -2.44603 -0.433677
-0.866789 -2.44538 -0.412972
-0.694458 -2.44506 -0.335709
-0.816595 -2.44599 -0.408213
-0.837118 -2.44698 -0.430046
-0.866642 -2.44673 -0.45384
-0.931266 -2.44781 -0.497919
-0.840551 -2.44896 -0.464469
-0.990638 -2.45158 -0.554485
-0.714286 -2.45437 -0.431631
-0.896537 -2.45587 -0.535431
-0.720891 -2.46044 -0.46668
-0.806094 -2.46528 -0.528944
-0.74585 -2.472 -0.522444
-0.235388 -2.68915 0.0978236
-0.202173 -2.67786 0.124032
-0.194322 -2.66849 0.134204
-0.198552 -2.66093 0.13516
-0.376948 -2.65511 0.0459851
-0.221986 -2.64644 0.128666
-0.242637 -2.64069 0.118332
-0.376365 -2.63496 0.0514593
-0.541975 -2.62802 -0.0290932
-0.278558 -2.62233 0.10263
-0.315894 -2.61666 0.0839935
-0.362997 -2.61101 0.0604961
-0.393298 -2.60568 0.0448428
-0.58347 -2.60003 -0.0501157
-0.463646 -2.59438 0.00996279
-0.680761 -2.58874 -0.0983826
-0.542984 -2.58465 -0.0321171
-0.548453 -2.579 -0.0345382
-0.511138 -2.57364 -0.0160773
-0.456243 -2.56922 0.00946505
-0.693698 -2.56385 -0.109343
-0.698261 -2.55941 -0.113413
-0.597409 -2.55401 -0.0629422
-0.697843 -2.54954 -0.114818
-0.724979 -2.54506 -0.129976
-0.653192 -2.54089 -0.0962295
-0.591164 -2.53543 -0.0649012
-0.525054 -2.53217 -0.0356371
-0.722511 -2.52667 -0.133908
-0.668562 -2.52337 -0.11059
-0.8699 -2.51913 -0.213102
-0.708116 -2.51449 -0.133271
-0.704287 -2.51152 -0.135538
-0.695924 -2.50683 -0.132258
-0.654982 -2.50382 -0.115859
-0.92166 -2.5004 -0.252447
-0.864009 -2.49605 -0.225069
-0.762456 -2.4939 -0.179934
-0.653598 -2.48951 -0.126822
-0.931078 -2.48643 -0.269372
-0.78956 -2.4829 -0.201523
-0.668057 -2.48113 -0.147061
-0.841037 -2.47757 -0.236345
-0.932866 -2.47443 -0.285865
-0.899104 -2.47218 -0.274282
-0.90281 -2.46902 -0.279644
-0.995123 -2.4672 -0.331919
-0.916496 -2.46356 -0.295117
-0.81175 -2.46173 -0.248799
-0.821894 -2.45943 -0.258988
-0.836293 -2.45759 -0.272192
-0.821109 -2.45575 -0.270583
-0.87623 -2.45344 -0.303191
-0.900323 -2.45298 -0.323949
-0.751718 -2.45068 -0.254681
-0.940988 -2.44883 -0.355223
-0.99928 -2.44795 -0.392213
-0.868358 -2.4461 -0.332633
-1.09036 -2.44525 -0.45152
-0.811979 -2.4434 -0.318189
-0.805671 -2.44299 -0.323783
-0.960434 -2.44219 -0.409127
-0.927606 -2.44143 -0.400736
-0.809737 -2.44106 -0.350618
-0.881049 -2.44034 -0.39439
-0.793319 -2.44 -0.359389
-0.943459 -2.43966 -0.44334
-0.849544 -2.44022 -0.407083
-0.766017 -2.43993 -0.374287
-0.674818 -2.4409 -0.340237
-0.95088 -2.44064 -0.487308
-0.888014 -2.4417 -0.467614
-0.86758 -2.44282 -0.469273
-0.886777 -2.444 -0.490886
-0.875831 -2.44525 -0.497568
-0.748646 -2.44803 -0.449318
-0.719665 -2.45103 -0.450658
-0.813847 -2.45407 -0.51369
-0.773638 -2.45889 -0.513252
-0.711701 -2.46731 -0.509491
-0.177692 -2.69822 0.120275
-0.27985 -2.67721 0.0959672
-0.137798 -2.66954 0.170129
-0.205061 -2.66196 0.139539
-0.158693 -2.65613 0.162684
-0.336917 -2.64868 0.0764856
-0.181966 -2.64294 0.153871
-0.330953 -2.63599 0.0815023
-0.562442 -2.6303 -0.0343344
-0.338391 -2.62463 0.0776022
-0.467475 -2.61898 0.0129797
-0.369369 -2.61368 0.0613527
-0.400844 -2.60806 0.0455855
-0.43387 -2.60244 0.0290664
-0.559498 -2.59683 -0.0337234
-0.370514 -2.59122 0.0608287
-0.432782 -2.58717 0.0269412
-0.546454 -2.58156 -0.0297476
-0.521411 -2.57625 -0.0175809
-0.559859 -2.57189 -0.0388684
-0.595308 -2.56626 -0.056279
-0.575386 -2.56217 -0.0488383
-0.410698 -2.55682 0.0333822
-0.543427 -2.55242 -0.0348288
-0.64316 -2.54736 -0.0852747
-0.615515 -2.54292 -0.073174
-0.571814 -2.53847 -0.0529792
-0.573431 -2.53433 -0.0559824
-0.4551 -2.52984 0.00166459
-0.588697 -2.52567 -0.0672087
-0.819193 -2.52149 -0.184477
-0.68257 -2.51694 -0.117464
-0.645165 -2.51366 -0.102428
-0.819914 -2.50942 -0.191627
-0.577343 -2.50517 -0.0721057
-0.70225 -2.50183 -0.138026
-0.87048 -2.49754 -0.223774
-0.608608 -2.49547 -0.0986816
-0.77738 -2.49114 -0.184573
-0.700408 -2.48812 -0.150063
-0.729054 -2.48468 -0.167528
-0.827207 -2.48163 -0.220476
-0.773105 -2.47815 -0.196439
-0.878569 -2.47507 -0.252936
-0.7852 -2.47288 -0.211743
-0.803835 -2.46978 -0.224729
-0.806629 -2.46666 -0.229747
-0.792739 -2.46444 -0.228165
-0.851785 -2.4613 -0.261213
-0.875636 -2.4595 -0.27929
-0.887574 -2.45726 -0.290519
-0.822684 -2.45545 -0.264175
-0.790761 -2.4532 -0.253427
-0.77069 -2.45138 -0.249445
-0.815054 -2.44913 -0.276798
-1.01099 -2.44731 -0.380775
-0.827297 -2.44548 -0.294915
-0.858447 -2.44322 -0.315606
-0.94723 -2.4428 -0.368777
-0.603761 -2.44056 -0.202156
-0.861396 -2.44016 -0.339768
-0.868728 -2.43937 -0.351453
-0.726064 -2.43754 -0.286036
-1.03302 -2.43679 -0.447587
-0.770724 -2.43642 -0.325292
-0.82855 -2.43572 -0.362366
-0.840009 -2.43538 -0.376994
-0.76865 -2.43473 -0.349571
-0.847455 -2.43441 -0.39792
-0.792618 -2.43411 -0.379464
-0.738297 -2.43477 -0.36323
-0.893217 -2.43451 -0.449741
-0.866047 -2.43554 -0.447871
-0.838817 -2.43664 -0.446106
-0.736746 -2.43644 -0.40425
-0.729512 -2.43762 -0.412675
-0.709165 -2.44029 -0.417647
-0.71599 -2.44164 -0.433456
-0.554221 -2.4461 -0.371486
-0.716939 -2.44766 -0.465733
-0.655166 -2.45248 -0.454549
-0.659969 -2.4592 -0.480677
-0.239335 -2.69201 0.110297
-0.224625 -2.67817 0.131594
-0.244974 -2.66873 0.127625
-0.177279 -2.66115 0.164441
-0.235633 -2.65533 0.135136
-0.34287 -2.64789 0.0843443
-0.352792 -2.64216 0.0791952
-0.231544 -2.63687 0.138889
-0.439965 -2.63119 0.0345019
-0.272246 -2.62553 0.118181
-0.380519 -2.6199 0.063866
-0.339511 -2.61428 0.0841973
-0.249008 -2.60869 0.129288
-0.496525 -2.60344 0.00478942
-0.432408 -2.59909 0.0344921
-0.419628 -2.59384 0.0402237
-0.553569 -2.58827 -0.0267852
-0.459637 -2.58424 0.0173418
-0.405117 -2.57868 0.0446425
-0.371347 -2.57311 0.0616162
-0.406306 -2.56907 0.041427
-0.704445 -2.56378 -0.107993
-0.559069 -2.55944 -0.0373751
-0.588274 -2.5551 -0.0540026
-0.505544 -2.55007 -0.0133601
-0.500089 -2.5457 -0.0125424
-0.455957 -2.54132 0.00767094
-0.435798 -2.53692 0.0159597
-0.659944 -2.53185 -0.0965962
-0.532518 -2.52773 -0.0351277
-0.700957 -2.52424 -0.122751
-0.735801 -2.51913 -0.140482
-0.445549 -2.51593 0.000769685
-0.68562 -2.51175 -0.121273
-0.686962 -2.50851 -0.1257
-0.536674 -2.5043 -0.0524397
-0.626554 -2.50008 -0.0992026
-0.699362 -2.49678 -0.139168
-0.561465 -2.49252 -0.0719119
-0.580785 -2.48919 -0.0849981
-0.728938 -2.4862 -0.163156
-0.619886 -2.48282 -0.111934
-0.696576 -2.47981 -0.154258
-0.749679 -2.47678 -0.184743
-0.616065 -2.47335 -0.121055
-0.886751 -2.4703 -0.260226
-0.892827 -2.46723 -0.267046
-0.881127 -2.46509 -0.266752
-0.725161 -2.462 -0.192454
-0.817379 -2.45983 -0.244043
