ply
format ascii 1.0
comment Created by Open3D
element vertex 1670
property double x
property double y
property double z
end_header
-1.06273 -2.50424 -0.380108
-1.00455 -2.5036 -0.359104
-1.06491 -2.50233 -0.396165
-1.03794 -2.50171 -0.390811
-1.04663 -2.5011 -0.403295
-1.05821 -2.50138 -0.418962
-1.07089 -2.50024 -0.432402
-1.07065 -2.50118 -0.443443
-1.05005 -2.50012 -0.440386
-1.03183 -2.50111 -0.442558
-1.1055 -2.50061 -0.487743
-1.02993 -2.50118 -0.460408
-1.00164 -2.50181 -0.456856
-1.04006 -2.50253 -0.486813
-0.963745 -2.50369 -0.4603
-1.02604 -2.50452 -0.502442
-0.912983 -2.5067 -0.45961
-1.0503 -2.508 -0.540216
-1.02725 -2.51067 -0.543401
-0.989771 -2.51324 -0.539199
-0.981526 -2.51469 -0.547352
-0.423661 -2.71293 -0.040387
-0.545078 -2.69599 -0.0810607
-0.618683 -2.6825 -0.103845
-0.6011 -2.6707 -0.0839628
-0.650906 -2.66186 -0.103007
-0.529911 -2.65301 -0.036581
-0.705445 -2.64416 -0.118326
-0.713205 -2.63658 -0.118421
-0.736422 -2.62895 -0.126113
-0.793802 -2.62167 -0.151454
-0.839618 -2.61437 -0.170919
-0.769214 -2.60705 -0.132171
-0.71413 -2.60099 -0.103339
-0.761061 -2.59489 -0.125407
-0.89321 -2.58958 -0.191462
-0.860931 -2.58339 -0.173663
-0.980972 -2.57846 -0.234297
-0.882074 -2.57219 -0.182948
-0.920476 -2.56848 -0.20494
-0.958852 -2.56343 -0.224403
-0.94983 -2.55893 -0.221146
-0.976092 -2.55381 -0.234355
-0.95195 -2.54996 -0.22469
-1.01517 -2.54608 -0.258616
-0.955316 -2.54281 -0.232108
-1.01984 -2.53888 -0.266525
-0.989177 -2.53491 -0.253259
-1.06274 -2.53291 -0.295783
-1.02425 -2.5289 -0.278471
-0.998109 -2.5262 -0.269779
-1.02753 -2.52418 -0.290117
-0.993499 -2.5201 -0.274837
-1.03264 -2.51806 -0.299962
-1.09071 -2.51531 -0.333203
-0.987717 -2.51462 -0.289812
-1.01167 -2.51186 -0.305951
-1.07657 -2.5098 -0.343857
-1.1841 -2.50704 -0.401733
-1.09124 -2.50635 -0.36338
-1.06639 -2.505 -0.357739
-1.07878 -2.50293 -0.369323
-1.05135 -2.5016 -0.362418
-1.0437 -2.50095 -0.366698
-1.14966 -2.49966 -0.426557
-1.06251 -2.49903 -0.391118
-1.06503 -2.49779 -0.399331
-1.04579 -2.49719 -0.397889
-1.06958 -2.496 -0.416829
-1.12456 -2.49543 -0.45254
-1.06153 -2.49486 -0.42926
-1.05319 -2.49524 -0.435184
-1.0913 -2.49471 -0.462544
-1.07774 -2.49518 -0.466047
-1.04569 -2.49469 -0.458398
-0.985891 -2.49526 -0.438976
-1.09445 -2.4959 -0.503877
-0.995453 -2.49661 -0.465152
-0.978934 -2.49777 -0.468556
-0.977432 -2.4986 -0.478822
-0.978491 -2.50077 -0.493063
-0.952212 -2.50207 -0.491887
-0.874471 -2.50314 -0.464534
-0.935946 -2.50588 -0.510181
-0.977364 -2.50873 -0.546018
-0.897453 -2.51307 -0.524229
-0.583414 -2.6984 -0.105405
-0.506602 -2.68486 -0.0529524
-0.474775 -2.67273 -0.0254128
-0.562623 -2.6639 -0.0635437
-0.673446 -2.65508 -0.113112
-0.79567 -2.64625 -0.168308
-0.707802 -2.63871 -0.120715
-0.666781 -2.6315 -0.0970839
-0.743199 -2.62391 -0.131422
-0.753724 -2.61666 -0.133375
-0.779894 -2.60978 -0.143782
-0.785476 -2.60338 -0.144705
-0.768912 -2.59734 -0.135182
-0.728258 -2.59127 -0.113509
-0.861375 -2.58517 -0.17861
-0.874081 -2.57903 -0.183391
-0.841104 -2.57415 -0.167607
-0.834678 -2.56923 -0.16499
-0.85596 -2.56427 -0.176118
-0.9031 -2.55927 -0.200062
-0.898424 -2.55554 -0.20042
-0.843397 -2.55104 -0.174141
-0.927933 -2.54725 -0.218934
-0.985671 -2.54211 -0.247772
-1.00366 -2.53957 -0.261574
-0.951512 -2.53498 -0.236441
-0.875496 -2.53106 -0.200608
-1.00486 -2.5291 -0.271105
-0.952286 -2.52514 -0.246854
-0.981736 -2.52249 -0.266073
-0.979008 -2.52049 -0.270407
-0.99886 -2.51647 -0.282175
-1.09818 -2.51445 -0.337458
-1.02382 -2.51175 -0.304596
-0.926523 -2.50972 -0.261514
-0.977483 -2.50701 -0.291246
-1.00561 -2.50634 -0.313462
-0.99994 -2.50363 -0.314846
-1.11769 -2.50158 -0.379192
-1.0419 -2.50026 -0.348171
-1.02726 -2.49821 -0.346289
-0.980235 -2.49691 -0.32967
-1.06921 -2.49628 -0.382317
-1.1038 -2.4936 -0.403797
-1.0363 -2.49298 -0.378219
-1.03067 -2.49176 -0.382411
-0.982487 -2.49116 -0.366528
-1.05025 -2.49145 -0.410358
-0.952143 -2.49089 -0.369571
-1.02897 -2.48979 -0.415198
-0.968755 -2.48926 -0.393406
-1.04181 -2.48971 -0.440196
-1.02688 -2.48921 -0.441119
-0.962952 -2.48976 -0.419608
-1.03818 -2.4893 -0.465681
-0.978561 -2.48995 -0.446525
-0.947128 -2.49066 -0.441607
-0.998272 -2.49145 -0.478126
-0.982129 -2.49265 -0.481831
-1.03418 -2.49355 -0.519051
-0.908717 -2.49584 -0.470293
-1.05179 -2.49717 -0.553903
-0.926186 -2.49991 -0.506025
-0.971027 -2.50113 -0.54032
-0.957865 -2.50554 -0.552089
-0.892133 -2.5086 -0.53486
-0.474715 -2.6991 -0.0532162
-0.508999 -2.68684 -0.0586347
-0.464006 -2.67501 -0.0251005
-0.494029 -2.66618 -0.034371
-0.584125 -2.65738 -0.0736538
-0.529316 -2.64826 -0.0398444
-0.601205 -2.63945 -0.0698943
-0.614533 -2.63228 -0.0735445
-0.666601 -2.62639 -0.0988474
-0.647295 -2.61883 -0.0853731
-0.694497 -2.6116 -0.105707
-0.677974 -2.60565 -0.0964491
-0.692401 -2.59878 -0.100941
-0.762762 -2.59279 -0.134956
-0.756083 -2.58762 -0.131937
-0.76701 -2.58155 -0.136001
-0.763968 -2.57674 -0.135365
-0.808892 -2.57059 -0.156203
-0.884041 -2.56571 -0.194446
-0.774424 -2.5613 -0.141147
-0.787243 -2.55504 -0.145613
-0.92371 -2.55136 -0.216645
-0.87172 -2.54765 -0.193359
-0.911388 -2.54315 -0.21441
-0.94003 -2.53938 -0.231272
-0.948563 -2.53426 -0.23551
-0.951723 -2.53234 -0.243062
-0.985646 -2.52848 -0.262322
-0.989586 -2.5246 -0.266504
-0.957889 -2.52131 -0.25397
-0.993018 -2.51737 -0.273599
-0.959648 -2.51611 -0.264019
-0.940568 -2.51277 -0.257636
-1.05911 -2.51078 -0.322602
-1.05733 -2.50813 -0.326141
-0.96366 -2.50548 -0.283702
-0.996732 -2.50346 -0.30584
-0.927723 -2.50144 -0.276913
-1.0431 -2.49877 -0.338908
-1.01482 -2.49749 -0.33174
-1.02836 -2.49546 -0.344023
-1.0139 -2.49483 -0.345003
-1.08005 -2.49217 -0.382345
-1.05359 -2.49155 -0.377326
-1.01811 -2.48891 -0.363847
-1.03508 -2.4883 -0.38056
-1.02015 -2.48712 -0.380176
-0.999407 -2.48654 -0.378066
-1.01221 -2.4854 -0.391631
-1.01915 -2.48484 -0.403404
-1.02592 -2.4843 -0.415105
-0.894328 -2.48471 -0.359511
-1.03793 -2.4837 -0.438701
-1.04571 -2.48422 -0.453025
-1.06184 -2.48376 -0.469556
-1.03915 -2.48438 -0.468835
-0.954705 -2.48395 -0.435159
-0.925018 -2.48467 -0.431142
-0.898746 -2.48546 -0.428979
-0.931308 -2.48666 -0.457056
-0.940844 -2.48756 -0.473038
-0.930255 -2.48853 -0.47911
-0.921674 -2.49117 -0.48954
-0.972314 -2.4923 -0.526564
-0.893938 -2.49511 -0.502494
-0.867659 -2.49938 -0.507464
-0.841395 -2.50091 -0.506889
-0.880893 -2.50563 -0.545714
-0.396712 -2.70145 -0.0193022
-0.503483 -2.68744 -0.057899
-0.440975 -2.6769 -0.0179606
-0.497701 -2.66676 -0.0382793
-0.565 -2.65764 -0.0656324
-0.557684 -2.64886 -0.0562381
-0.535385 -2.64172 -0.0422374
-0.666131 -2.63425 -0.104103
-0.578432 -2.6271 -0.0572808
-0.601319 -2.61959 -0.0650468
-0.661139 -2.61371 -0.0941773
-0.587799 -2.60651 -0.0542858
-0.656158 -2.60058 -0.0875177
-0.646547 -2.59373 -0.0800204
-0.757188 -2.58777 -0.134226
-0.775464 -2.58265 -0.143761
-0.756345 -2.57704 -0.133658
-0.795691 -2.57097 -0.151906
-0.74636 -2.56617 -0.128106
-0.908391 -2.56134 -0.209885
-0.89636 -2.55646 -0.204528
-0.858788 -2.55286 -0.18873
-0.890075 -2.54843 -0.205791
-0.870979 -2.54346 -0.196615
-0.862309 -2.53845 -0.192541
-0.911635 -2.53527 -0.220872
-0.899614 -2.53152 -0.217422
-0.891355 -2.52774 -0.215766
-0.905526 -2.52451 -0.226343
-0.964786 -2.52068 -0.258296
-0.920969 -2.51815 -0.241166
-0.85638 -2.51487 -0.212196
-0.95543 -2.51097 -0.263831
-1.09083 -2.50901 -0.337317
-0.949531 -2.50507 -0.268656
-0.993235 -2.50309 -0.296225
-0.940564 -2.50048 -0.274378
-0.967765 -2.49849 -0.293638
-0.998698 -2.49586 -0.313531
-0.981603 -2.49524 -0.313257
-0.992372 -2.49262 -0.323037
-0.976153 -2.49061 -0.320496
-0.983919 -2.48939 -0.331455
-1.00013 -2.48738 -0.345099
-0.949602 -2.48618 -0.326936
-1.01078 -2.48417 -0.363032
-0.951898 -2.48358 -0.341871
-1.05072 -2.48242 -0.398446
-1.01549 -2.48185 -0.389143
-0.988361 -2.48075 -0.382816
-1.03037 -2.48021 -0.412174
-0.977409 -2.47915 -0.39302
-0.924864 -2.47864 -0.375143
-0.92544 -2.47813 -0.383841
-1.06286 -2.47817 -0.462043
-0.97432 -2.47921 -0.429256
-0.954299 -2.47834 -0.426916
-0.850466 -2.47903 -0.385799
-0.994621 -2.47864 -0.466504
-0.932977 -2.47943 -0.446682
-0.951889 -2.48063 -0.467955
-1.03897 -2.48153 -0.522732
-0.931811 -2.4825 -0.480541
-0.974403 -2.48489 -0.516091
-0.933692 -2.48625 -0.507938
-0.870397 -2.48888 -0.491069
-0.773861 -2.49033 -0.455209
-0.906791 -2.49483 -0.540299
-0.935438 -2.49953 -0.573696
-0.819944 -2.5061 -0.538889
-0.350795 -2.70206 0.00164001
-0.386409 -2.68667 0.00106125
-0.490307 -2.67611 -0.0421999
-0.486303 -2.66693 -0.033917
-0.492014 -2.65814 -0.0311233
-0.530478 -2.64938 -0.0446919
-0.644423 -2.64226 -0.0988946
-0.552105 -2.63482 -0.0493261
-0.583716 -2.6277 -0.0622617
-0.62506 -2.62024 -0.0793872
-0.716307 -2.6144 -0.124349
-0.597069 -2.60725 -0.0616409
-0.631272 -2.60137 -0.0779294
-0.673046 -2.59548 -0.0979206
-0.737115 -2.58865 -0.127298
-0.660958 -2.58361 -0.089812
-0.706475 -2.57804 -0.11214
-0.76296 -2.57204 -0.139125
-0.834517 -2.56731 -0.175939
-0.752481 -2.56254 -0.13586
-0.747697 -2.55774 -0.134309
-0.847899 -2.55208 -0.183597
-0.790446 -2.54722 -0.155521
-0.796316 -2.54362 -0.161448
-0.853624 -2.54 -0.19301
-0.857251 -2.53556 -0.196148
-0.903838 -2.53057 -0.219708
-0.887445 -2.5274 -0.21518
-0.92418 -2.52367 -0.236131
-0.949423 -2.51991 -0.251251
-0.883991 -2.51669 -0.222029
-0.925831 -2.51288 -0.2453
-0.918751 -2.51096 -0.247693
-0.948686 -2.50712 -0.264883
-0.896615 -2.50518 -0.244706
-0.902458 -2.50129 -0.249725
-0.933343 -2.49934 -0.270954
-0.99718 -2.49678 -0.307475
-0.964262 -2.49482 -0.296745
-0.963431 -2.49224 -0.300869
-0.914601 -2.49027 -0.282129
-0.974389 -2.48768 -0.316508
-0.953912 -2.48709 -0.314597
-0.987899 -2.48451 -0.336052
-1.01847 -2.48252 -0.356929
-0.952018 -2.48135 -0.33089
-0.939285 -2.48078 -0.332863
-1.00276 -2.47823 -0.369043
-0.952726 -2.47767 -0.352382
-0.935241 -2.47657 -0.350932
-0.915835 -2.47604 -0.349617
-0.983057 -2.47499 -0.390603
-0.993239 -2.47449 -0.404123
-0.923774 -2.47349 -0.376858
-0.96968 -2.47301 -0.408286
-0.915442 -2.47254 -0.389658
-1.0479 -2.47312 -0.466479
-0.958031 -2.47269 -0.430103
-0.957397 -2.47296 -0.439766
-0.996055 -2.4741 -0.47081
-0.90089 -2.47372 -0.431918
-0.935735 -2.47456 -0.460457
-0.916857 -2.47546 -0.46228
-0.918845 -2.47643 -0.474684
-0.942494 -2.47881 -0.500781
-0.895535 -2.48017 -0.489522
-0.961926 -2.48137 -0.534607
-0.890282 -2.48571 -0.517108
-0.896705 -2.48862 -0.535759
-0.815885 -2.49175 -0.511251
-0.817868 -2.49827 -0.535122
-0.843647 -2.50512 -0.571617
-0.40461 -2.69787 -0.0187003
-0.506099 -2.68378 -0.0545824
-0.408712 -2.67323 0.00274887
-0.462531 -2.66441 -0.0185541
-0.488335 -2.65693 -0.0281873
-0.566523 -2.64819 -0.0616899
-0.594109 -2.64109 -0.0727912
-0.5166 -2.63367 -0.0307106
-0.606767 -2.62658 -0.0730153
-0.58338 -2.62078 -0.0608253
-0.538476 -2.61369 -0.0354769
-0.64073 -2.60787 -0.085986
-0.661621 -2.60204 -0.0957455
-0.66321 -2.59526 -0.0940661
-0.658852 -2.5894 -0.0910565
-0.729464 -2.58352 -0.125447
-0.63471 -2.57852 -0.07874
-0.66661 -2.57297 -0.0942982
-0.674902 -2.5679 -0.0988955
-0.847382 -2.56231 -0.184587
-0.67634 -2.55758 -0.100073
-0.745618 -2.55325 -0.136441
-0.801579 -2.54717 -0.162827
-0.799475 -2.54365 -0.16494
-0.833262 -2.53927 -0.183356
-0.852202 -2.53439 -0.193376
-0.849167 -2.53078 -0.194774
-0.865693 -2.52766 -0.206826
-0.91291 -2.52269 -0.23071
-0.868346 -2.52032 -0.213611
-0.888795 -2.51582 -0.224934
-0.920384 -2.51208 -0.243255
-0.889007 -2.50887 -0.231066
-0.952569 -2.50509 -0.265229
-0.908008 -2.50319 -0.248905
-0.900652 -2.49937 -0.247483
-0.883216 -2.49745 -0.244649
-0.841117 -2.49495 -0.228349
-0.96704 -2.49302 -0.297134
-0.908514 -2.48913 -0.269909
-0.882738 -2.48855 -0.265436
-0.993658 -2.48465 -0.322842
-1.05147 -2.48407 -0.360142
-0.926856 -2.48154 -0.302412
-0.928575 -2.47957 -0.30894
-0.91307 -2.47844 -0.308472
-0.864688 -2.47647 -0.289918
-0.944792 -2.47537 -0.337282
-0.885681 -2.4734 -0.313336
-1.01661 -2.47286 -0.387207
-0.954919 -2.4718 -0.363734
-0.998759 -2.47128 -0.394094
-0.972652 -2.47026 -0.388492
-0.92612 -2.46976 -0.373704
-0.918401 -2.4688 -0.377386
-0.945182 -2.46833 -0.399299
-0.949954 -2.46742 -0.409325
-0.912103 -2.46698 -0.398972
-0.972122 -2.46764 -0.439742
-0.964583 -2.46723 -0.444614
-0.96334 -2.46761 -0.454205
-0.932174 -2.46878 -0.450447
-0.948072 -2.46845 -0.467171
-0.988307 -2.46935 -0.498576
-0.901092 -2.47032 -0.466403
-0.889439 -2.47136 -0.472159
-0.852617 -2.47405 -0.468697
-0.813663 -2.47524 -0.461128
-0.88696 -2.47944 -0.515848
-0.876431 -2.48094 -0.523163
-0.869227 -2.48559 -0.538598
-0.832405 -2.49207 -0.543056
-0.737644 -2.50064 -0.522875
-0.301798 -2.69357 0.0394416
-0.43105 -2.6795 -0.0103589
-0.363896 -2.67191 0.0265122
-0.461416 -2.6631 -0.016691
-0.38816 -2.65434 0.0254663
-0.472385 -2.6469 -0.0134366
-0.454095 -2.63982 -0.00167994
-0.460389 -2.63404 -0.00450095
-0.480755 -2.62698 -0.0120004
-0.539633 -2.6196 -0.0381109
-0.483011 -2.61382 -0.00934322
-0.545195 -2.60676 -0.0375806
-0.660995 -2.60096 -0.0949
-0.659187 -2.59516 -0.0933465
-0.675379 -2.58933 -0.100718
-0.658377 -2.58384 -0.0920637
-0.720511 -2.57835 -0.122924
-0.675336 -2.57248 -0.0993886
-0.706613 -2.56786 -0.116374
-0.738766 -2.56284 -0.13299
-0.704466 -2.55727 -0.115334
-0.749804 -2.55299 -0.139847
-0.72098 -2.54827 -0.126441
-0.734581 -2.54352 -0.13415
-0.710017 -2.53919 -0.123512
-0.831077 -2.53438 -0.184774
-0.807464 -2.53085 -0.176062
-0.821945 -2.52646 -0.184737
-0.820529 -2.52156 -0.184483
-0.824518 -2.51927 -0.191824
-0.896247 -2.51481 -0.22891
-0.781649 -2.51115 -0.174313
-0.875589 -2.50798 -0.224898
-0.938385 -2.50427 -0.258854
-0.796306 -2.5024 -0.193879
-0.883139 -2.49866 -0.239729
-0.854981 -2.49677 -0.231641
-0.908624 -2.49299 -0.260774
-0.929226 -2.49109 -0.276996
-0.93414 -2.48727 -0.281646
-0.916236 -2.48535 -0.278547
-0.916107 -2.48287 -0.28323
-0.929937 -2.48094 -0.295943
-0.963474 -2.47901 -0.318487
-0.928556 -2.47652 -0.305694
-0.889739 -2.47542 -0.293669
-0.994662 -2.47348 -0.351845
-0.917651 -2.47153 -0.319032
-0.889774 -2.47046 -0.312491
-1.01698 -2.46851 -0.38176
-0.832132 -2.46747 -0.296768
-0.882239 -2.46696 -0.330303
-0.996521 -2.46596 -0.394949
-0.964313 -2.46402 -0.38448
-0.89342 -2.46305 -0.356594
-0.918398 -2.46259 -0.377625
-0.934194 -2.46213 -0.394079
-0.951549 -2.46271 -0.413407
-1.02332 -2.46187 -0.457076
-0.902563 -2.46146 -0.40535
-0.897307 -2.46218 -0.413651
-0.949335 -2.46181 -0.448391
-0.908242 -2.46229 -0.438289
-0.85249 -2.4635 -0.422347
-0.854853 -2.4632 -0.432387
-0.8713 -2.46417 -0.45207
-0.967154 -2.46521 -0.511602
-0.875255 -2.46769 -0.480202
-0.953218 -2.46908 -0.531529
-0.88018 -2.47179 -0.510066
-0.770982 -2.47476 -0.471087
-0.777505 -2.47775 -0.490036
-0.754096 -2.48419 -0.501145
-0.677477 -2.49095 -0.486366
-0.258964 -2.68746 0.0708434
-0.376864 -2.67849 0.0175556
-0.358634 -2.66754 0.0359498
-0.475813 -2.66041 -0.0201197
-0.460397 -2.65293 -0.00923762
-0.471863 -2.64424 -0.0095224
-0.439019 -2.63846 0.00713024
-0.504064 -2.63142 -0.022832
-0.476118 -2.62406 -0.00566527
-0.570806 -2.61832 -0.0526895
-0.525622 -2.61257 -0.0297351
-0.450282 -2.60715 0.00775355
-0.581076 -2.59979 -0.0542427
-0.611058 -2.59402 -0.0686955
-0.576215 -2.58858 -0.0512811
-0.597793 -2.58313 -0.0620247
-0.607081 -2.57826 -0.0676606
-0.639258 -2.57278 -0.0835727
-0.704858 -2.5673 -0.116138
-0.684253 -2.56235 -0.106564
-0.731212 -2.55683 -0.129659
-0.75363 -2.5522 -0.142106
-0.730403 -2.54793 -0.132382
-0.762978 -2.54326 -0.149748
-0.801326 -2.53855 -0.169907
-0.703583 -2.53423 -0.122725
-0.751091 -2.52947 -0.147289
-0.741832 -2.52598 -0.145839
-0.796519 -2.5216 -0.174665
-0.821932 -2.51806 -0.1904
-0.799892 -2.51365 -0.180727
-0.842674 -2.51006 -0.204992
-0.805315 -2.50694 -0.190043
-0.85786 -2.5033 -0.21905
-0.878035 -2.50014 -0.23276
-0.900728 -2.49646 -0.2467
-0.865552 -2.49461 -0.235201
-0.879092 -2.49089 -0.244442
-0.840694 -2.48903 -0.231261
-0.855173 -2.48527 -0.240852
-0.903667 -2.48339 -0.271048
-0.861994 -2.48097 -0.255104
-0.834651 -2.47907 -0.247326
-0.918624 -2.47664 -0.294147
-0.868379 -2.47473 -0.274867
-0.894728 -2.47282 -0.293861
-0.885469 -2.47037 -0.293991
-0.932684 -2.46845 -0.32337
-0.949229 -2.46601 -0.336364
-1.00946 -2.46549 -0.374993
-0.979516 -2.46306 -0.364733
-0.967265 -2.46255 -0.367132
-0.887301 -2.46157 -0.334713
-0.833973 -2.46109 -0.316606
-0.916248 -2.45917 -0.363432
-1.00138 -2.45823 -0.413635
-0.827058 -2.45778 -0.335067
-0.94655 -2.4569 -0.402541
-0.923942 -2.45647 -0.399873
-0.971617 -2.45712 -0.434527
-0.93041 -2.45634 -0.421847
-0.961539 -2.45597 -0.446149
-0.878738 -2.45676 -0.415847
-0.810799 -2.45642 -0.390686
-0.924489 -2.4573 -0.458821
-0.894762 -2.45798 -0.454828
-0.924825 -2.45926 -0.48199
-0.890537 -2.46034 -0.47656
-0.816349 -2.46149 -0.451324
-0.813642 -2.46413 -0.464902
-0.724129 -2.46557 -0.432649
-0.758687 -2.46844 -0.465358
-0.842781 -2.47152 -0.523303
-0.727606 -2.47793 -0.488524
-0.767597 -2.48638 -0.535623
-0.235677 -2.70132 0.0672707
-0.269794 -2.68124 0.0755943
-0.307785 -2.67359 0.059878
-0.417683 -2.66308 0.0133952
-0.350073 -2.65724 0.0473617
-0.349449 -2.64853 0.0530535
-0.34951 -2.64275 0.0531743
-0.417819 -2.63572 0.0214705
-0.428812 -2.62838 0.0190611
-0.563545 -2.62265 -0.0481048
-0.504443 -2.61693 -0.018323
-0.564998 -2.60995 -0.0460184
-0.504231 -2.60423 -0.0153159
-0.613879 -2.59852 -0.0697707
-0.558146 -2.59279 -0.0414779
-0.538629 -2.58738 -0.0318245
-0.559452 -2.58291 -0.0440357
-0.558343 -2.57715 -0.0428635
-0.589896 -2.5717 -0.0585651
-0.596467 -2.56625 -0.0617171
-0.612688 -2.56172 -0.0713662
-0.677818 -2.55717 -0.105396
-0.724051 -2.55167 -0.128177
-0.705978 -2.54708 -0.12045
-0.765894 -2.54246 -0.151633
-0.675407 -2.5382 -0.108257
-0.691337 -2.53353 -0.117284
-0.719519 -2.52924 -0.133114
-0.708727 -2.52582 -0.13107
-0.755777 -2.52149 -0.156206
-0.744823 -2.51672 -0.151455
-0.882156 -2.51366 -0.224082
-0.813223 -2.50883 -0.19017
-0.874918 -2.50661 -0.226507
-0.8255 -2.50218 -0.203063
-0.850976 -2.49992 -0.221179
-0.818966 -2.49546 -0.206305
-0.79438 -2.49316 -0.199278
-0.798448 -2.48866 -0.202309
-0.849455 -2.48683 -0.233929
-0.798808 -2.48314 -0.211117
-0.812015 -2.48129 -0.223766
-0.869358 -2.47893 -0.257476
-0.838033 -2.4757 -0.24515
-0.885648 -2.47468 -0.27659
-0.854928 -2.47143 -0.26448
-0.913392 -2.46955 -0.299614
-0.90442 -2.46715 -0.300005
-0.88675 -2.46526 -0.297022
-0.840826 -2.46286 -0.278894
-0.928254 -2.46236 -0.331185
-0.818989 -2.45996 -0.281373
-0.87141 -2.45948 -0.316169
-0.903404 -2.45757 -0.337937
-0.882713 -2.45662 -0.335238
-0.892833 -2.4557 -0.347992
-0.894479 -2.4538 -0.354561
-0.867327 -2.45335 -0.349615
-0.956793 -2.45248 -0.402123
-0.907478 -2.45206 -0.386137
-0.919466 -2.45124 -0.399998
-0.90595 -2.45045 -0.401173
-0.924451 -2.45156 -0.42219
-0.940862 -2.45085 -0.438462
-0.940092 -2.4505 -0.446896
-0.832875 -2.45136 -0.404556
-0.869507 -2.45106 -0.431764
-0.937556 -2.45201 -0.477247
-0.872795 -2.45302 -0.456466
-0.916026 -2.4541 -0.489821
-0.843219 -2.45525 -0.4653
-0.840757 -2.45788 -0.479019
-0.799379 -2.46079 -0.473871
-0.748139 -2.46217 -0.460674
-0.745967 -2.4668 -0.478736
-0.747285 -2.46999 -0.49557
-0.717669 -2.47666 -0.504227
-0.144955 -2.68608 0.138885
-0.356347 -2.67491 0.042665
-0.302866 -2.66731 0.0725854
-0.374926 -2.66019 0.0389272
-0.446159 -2.65107 0.0093433
-0.395222 -2.64529 0.034881
-0.41083 -2.63828 0.0294151
-0.406474 -2.63255 0.0316776
-0.393159 -2.62683 0.0384331
-0.373878 -2.61987 0.0504769
-0.483783 -2.61418 -0.00432696
-0.453259 -2.6085 0.0111157
-0.536719 -2.60282 -0.030395
-0.468763 -2.59713 0.00384659
-0.555157 -2.59176 -0.0396138
-0.520302 -2.58607 -0.0218148
-0.601898 -2.58069 -0.0627658
-0.530999 -2.57624 -0.0291685
-0.617812 -2.57052 -0.0720164
-0.559402 -2.5651 -0.0427829
-0.638578 -2.56062 -0.0840355
-0.6315 -2.55518 -0.0803413
-0.65086 -2.55066 -0.0915467
-0.63114 -2.54612 -0.0831371
-0.748386 -2.54192 -0.143801
-0.739853 -2.53734 -0.140837
-0.741224 -2.5331 -0.143441
-0.713574 -2.52847 -0.13076
-0.711191 -2.5242 -0.131357
-0.738676 -2.52082 -0.148539
-0.709214 -2.51652 -0.13547
-0.72797 -2.51179 -0.14566
-0.73767 -2.50876 -0.154526
-0.749243 -2.50529 -0.163465
-0.727007 -2.50092 -0.153742
-0.806328 -2.4974 -0.196405
-0.846807 -2.49431 -0.220443
-0.814331 -2.49208 -0.209635
-0.785318 -2.48763 -0.196257
-0.83941 -2.48536 -0.228624
-0.829174 -2.48221 -0.227098
-0.884615 -2.47992 -0.260054
-0.811138 -2.47675 -0.22681
-0.925026 -2.47492 -0.289841
-0.8555 -2.47124 -0.25754
-0.830488 -2.46939 -0.251055
-0.902307 -2.46705 -0.292012
-0.934524 -2.46519 -0.31409
-0.883497 -2.46333 -0.294524
-0.855744 -2.46098 -0.28562
-0.921878 -2.45911 -0.324588
-0.875868 -2.45676 -0.306516
-0.804325 -2.45629 -0.279392
-0.907708 -2.45395 -0.336008
-0.900252 -2.45207 -0.338109
-0.891258 -2.45161 -0.342265
-0.782716 -2.45072 -0.29577
-0.883186 -2.44884 -0.351806
-0.82693 -2.44798 -0.331505
-0.86739 -2.44757 -0.360444
-0.844677 -2.44675 -0.357
-0.852064 -2.44598 -0.368669
-0.820174 -2.4456 -0.361507
-0.903273 -2.44488 -0.411132
-0.942195 -2.44603 -0.442465
-0.862172 -2.44538 -0.410663
-0.895777 -2.44506 -0.436368
-0.891851 -2.44599 -0.445841
-0.862954 -2.44698 -0.442964
-0.820739 -2.44673 -0.430889
-0.875284 -2.44781 -0.469928
-0.851948 -2.44896 -0.470167
-0.900908 -2.45158 -0.50962
-0.810233 -2.45437 -0.479605
-0.837478 -2.45587 -0.505902
-0.820642 -2.46044 -0.516556
-0.849278 -2.46528 -0.550536
-0.666777 -2.472 -0.482907
-0.187518 -2.68915 0.121759
-0.241565 -2.67786 0.104336
-0.22889 -2.66849 0.11692
-0.327042 -2.66093 0.0709155
-0.291647 -2.65511 0.0886352
-0.260546 -2.64644 0.109385
-0.380366 -2.64069 0.049467
-0.328188 -2.63496 0.0755477
-0.250487 -2.62802 0.116651
-0.452738 -2.62233 0.0155402
-0.467354 -2.61666 0.00826326
-0.485637 -2.61101 -0.000824041
-0.507559 -2.60568 -0.0122878
-0.535177 -2.60003 -0.0259693
-0.455542 -2.59438 0.0140145
-0.525517 -2.58874 -0.0207608
-0.483825 -2.58465 -0.00253773
-0.562313 -2.579 -0.0414684
-0.628561 -2.57364 -0.074789
-0.480109 -2.56922 -0.00246789
-0.55364 -2.56385 -0.0393135
-0.519116 -2.55941 -0.0238411
-0.623094 -2.55401 -0.0757848
-0.620349 -2.54954 -0.0760713
-0.619925 -2.54506 -0.0774487
-0.591893 -2.54089 -0.06558
-0.63728 -2.53543 -0.0879591
-0.663515 -2.53217 -0.104867
-0.765711 -2.52667 -0.155509
-0.693327 -2.52337 -0.122972
-0.77766 -2.51913 -0.166982
-0.751515 -2.51449 -0.154971
-0.632645 -2.51152 -0.0997167
-0.715622 -2.50683 -0.142107
-0.704652 -2.50382 -0.140695
-0.712381 -2.5004 -0.147807
-0.822618 -2.49605 -0.204374
-0.77713 -2.4939 -0.187271
-0.730034 -2.48951 -0.16504
-0.792199 -2.48643 -0.199933
-0.81472 -2.4829 -0.214103
-0.822121 -2.48113 -0.224092
-0.812394 -2.47757 -0.222024
-0.726384 -2.47443 -0.182625
-0.760527 -2.47218 -0.204994
-0.826844 -2.46902 -0.241661
-0.781673 -2.4672 -0.225194
-0.888935 -2.46356 -0.281337
-0.772484 -2.46173 -0.229166
-0.81609 -2.45943 -0.256086
-0.862875 -2.45759 -0.285484
-0.833956 -2.45575 -0.277006
-0.815899 -2.45344 -0.273025
-0.879774 -2.45298 -0.313675
-0.922224 -2.45068 -0.339934
-0.824914 -2.44883 -0.297186
-0.827766 -2.44795 -0.306456
-0.887072 -2.4461 -0.34199
-0.926227 -2.44525 -0.369453
-0.886599 -2.4434 -0.355499
-0.852035 -2.44299 -0.346965
-0.842335 -2.44219 -0.350078
-0.853744 -2.44143 -0.363804
-0.889704 -2.44106 -0.390602
-0.890353 -2.44034 -0.399042
-0.870082 -2.44 -0.397771
-0.869936 -2.43966 -0.406578
-0.866607 -2.44022 -0.415615
-0.903578 -2.43993 -0.443068
-0.801106 -2.4409 -0.40338
-0.896472 -2.44064 -0.460103
-0.873731 -2.4417 -0.460472
-0.831121 -2.44282 -0.451043
-0.844016 -2.444 -0.469506
-0.803592 -2.44525 -0.461448
-0.782102 -2.44803 -0.466045
-0.743218 -2.45103 -0.462434
-0.737133 -2.45407 -0.475333
-0.740234 -2.45889 -0.496551
-0.651642 -2.46731 -0.479461
-0.113893 -2.69822 0.152175
-0.18049 -2.67721 0.145647
-0.295238 -2.66954 0.0914092
-0.248701 -2.66196 0.117719
-0.221418 -2.65613 0.131321
-0.295836 -2.64868 0.0970262
-0.296305 -2.64294 0.0967012
-0.356414 -2.63599 0.0687722
-0.364973 -2.6303 0.0644004
-0.38491 -2.62463 0.054343
-0.431252 -2.61898 0.0310916
-0.405202 -2.61368 0.0434363
-0.448568 -2.60806 0.0217237
-0.340483 -2.60244 0.0757599
-0.409503 -2.59683 0.0412739
-0.513397 -2.59122 -0.0106126
-0.462207 -2.58717 0.0122283
-0.451104 -2.58156 0.0179274
-0.534295 -2.57625 -0.024023
-0.558589 -2.57189 -0.0382334
-0.510596 -2.56626 -0.0139229
-0.585576 -2.56217 -0.0539336
-0.549679 -2.55682 -0.0361083
-0.540875 -2.55242 -0.0335531
-0.570464 -2.54736 -0.0489267
-0.62651 -2.54292 -0.0786719
-0.579068 -2.53847 -0.0566059
-0.647307 -2.53433 -0.0929204
-0.565602 -2.52984 -0.0535862
-0.667466 -2.52567 -0.106593
-0.707044 -2.52149 -0.128402
-0.610976 -2.51694 -0.0816666
-0.666197 -2.51366 -0.112944
-0.655629 -2.50942 -0.109484
-0.732463 -2.50517 -0.149666
-0.716361 -2.50183 -0.145082
-0.734107 -2.49754 -0.155588
-0.756852 -2.49547 -0.172804
-0.749545 -2.49114 -0.170655
-0.78675 -2.48812 -0.193234
-0.77038 -2.48468 -0.188191
-0.733092 -2.48163 -0.173419
-0.766319 -2.47815 -0.193045
-0.766665 -2.47507 -0.196984
-0.781024 -2.47288 -0.209655
-0.756837 -2.46978 -0.20123
-0.765877 -2.46666 -0.209371
-0.795217 -2.46444 -0.229404
-0.781278 -2.4613 -0.225959
-0.812318 -2.4595 -0.247631
-0.888887 -2.45726 -0.291176
-0.82861 -2.45545 -0.267139
-0.873215 -2.4532 -0.294654
-0.843938 -2.45138 -0.286069
-0.812968 -2.44913 -0.275755
-0.86134 -2.44731 -0.305949
-0.821269 -2.44548 -0.291902
-0.857287 -2.44322 -0.315026
-0.791638 -2.4428 -0.290981
-0.80234 -2.44056 -0.301446
-0.805679 -2.44016 -0.31191
-0.855823 -2.43937 -0.345
-0.818092 -2.43754 -0.33205
-0.863973 -2.43679 -0.363063
-0.838183 -2.43642 -0.359022
-0.898258 -2.43572 -0.39722
-0.845496 -2.43538 -0.379737
-0.764738 -2.43473 -0.347615
-0.886022 -2.43441 -0.417203
-0.844087 -2.43411 -0.405198
-0.820768 -2.43477 -0.404466
-0.893804 -2.43451 -0.450035
-0.783456 -2.43554 -0.406576
-0.787523 -2.43664 -0.420459
-0.809081 -2.43644 -0.440417
-0.793728 -2.43762 -0.444783
-0.710518 -2.44029 -0.418323
-0.793385 -2.44164 -0.472154
-0.808486 -2.4461 -0.498618
-0.788862 -2.44766 -0.501694
-0.721374 -2.45248 -0.487653
-0.749586 -2.4592 -0.525485
-0.127081 -2.69201 0.166424
-0.227645 -2.67817 0.130084
-0.201876 -2.66873 0.149174
-0.217001 -2.66115 0.144579
-0.248328 -2.65533 0.128788
-0.278089 -2.64789 0.116735
-0.351249 -2.64216 0.0799667
-0.341518 -2.63687 0.0839023
-0.328377 -2.63119 0.0902962
-0.349841 -2.62553 0.0793838
-0.364033 -2.6199 0.0721089
-0.391809 -2.61428 0.0580484
-0.390872 -2.60869 0.0583561
-0.408112 -2.60344 0.0489959
-0.447784 -2.59909 0.0268037
-0.294097 -2.59384 0.102989
-0.446318 -2.58827 0.0268401
-0.422029 -2.58424 0.0361458
-0.450482 -2.57868 0.0219603
-0.535129 -2.57311 -0.0202751
-0.471228 -2.56907 0.0089657
-0.546155 -2.56378 -0.0288479
-0.57482 -2.55944 -0.0452506
-0.497318 -2.5551 -0.00852474
-0.593938 -2.55007 -0.0575571
-0.584921 -2.5457 -0.0549583
-0.674773 -2.54132 -0.101737
-0.566638 -2.53692 -0.0494605
-0.550904 -2.53185 -0.0420761
-0.579905 -2.52773 -0.0588209
-0.57693 -2.52424 -0.0607369
-0.668864 -2.51913 -0.107013
-0.687047 -2.51593 -0.119979
-0.627551 -2.51175 -0.0922382
-0.628088 -2.50851 -0.0962636
-0.65772 -2.5043 -0.112962
-0.671407 -2.50008 -0.121629
-0.703525 -2.49678 -0.14125
-0.73786 -2.49252 -0.160109
-0.792818 -2.48919 -0.191015
-0.673566 -2.4862 -0.13547
-0.676511 -2.48282 -0.140247
-0.760145 -2.47981 -0.186043
-0.793881 -2.47678 -0.206844
-0.746863 -2.47335 -0.186454
-0.823373 -2.4703 -0.228538
-0.76376 -2.46723 -0.202513
-0.778017 -2.46509 -0.215197
-0.784083 -2.462 -0.221915
-0.798263 -2.45983 -0.234485
-0.800958 -2.45671 -0.239422
-0.877009 -2.45494 -0.283669
-0.767268 -2.45275 -0.23418
-0.830121 -2.4496 -0.269064
-0.798284 -2.44781 -0.259283
-0.775468 -2.44561 -0.253163
-0.779641 -2.44381 -0.26134
-0.811339 -2.4416 -0.28244
-0.746184 -2.44119 -0.25871
-0.869262 -2.43899 -0.325491
-0.895529 -2.43719 -0.344645
-0.874009 -2.4368 -0.342738
-0.876933 -2.43461 -0.349424
-0.818895 -2.43423 -0.329277
-0.864449 -2.43206 -0.357286
-0.849995 -2.43171 -0.358952
-0.779948 -2.43101 -0.332138
-0.784805 -2.43068 -0.3435
-0.813911 -2.43004 -0.366354
-0.757597 -2.42973 -0.347176
-0.812153 -2.42913 -0.382852
-0.759781 -2.42858 -0.365134
-0.869097 -2.42957 -0.431435
-0.796438 -2.42933 -0.404221
-0.713887 -2.4304 -0.374772
-0.80502 -2.4302 -0.429527
-0.762443 -2.43136 -0.420253
-0.80405 -2.43258 -0.453206
-0.824566 -2.43386 -0.475749
-0.717735 -2.4352 -0.434754
-0.738573 -2.43965 -0.464103
-0.737965 -2.44278 -0.479998
-0.654795 -2.446 -0.454829
-0.685988 -2.45441 -0.497754
-0.134663 -2.68561 0.183862
-0.145233 -2.67719 0.182818
-0.188166 -2.66774 0.1675
-0.203775 -2.66016 0.162585
-0.272908 -2.65268 0.130807
-0.308914 -2.64693 0.112534
-0.364251 -2.64122 0.0845768
-0.24757 -2.63555 0.142615
-0.23258 -2.63152 0.146893
-0.341411 -2.62589 0.0921804
-0.299481 -2.62028 0.112844
-0.294293 -2.61506 0.114481
-0.311546 -2.60949 0.105585
-0.354293 -2.60393 0.0839527
-0.504276 -2.5984 0.00871748
-0.324098 -2.59441 0.0957699
-0.382174 -2.58888 0.0665434
-0.423435 -2.5849 0.0429458
-0.38525 -2.57938 0.06192
-0.338734 -2.57539 0.0822886
-0.43818 -2.57015 0.0319995
-0.391034 -2.56586 0.0533028
-0.441757 -2.56186 0.0251803
-0.489419 -2.55632 0.00147142
-0.544528 -2.5523 -0.0287467
-0.538261 -2.5473 -0.0264304
-0.581842 -2.54298 -0.0502479
-0.497615 -2.53864 -0.0101095
-0.637623 -2.53458 -0.0825721
-0.590069 -2.53023 -0.0606554
-0.633282 -2.52614 -0.0846089
-0.544262 -2.52205 -0.0423929
-0.636105 -2.51764 -0.0899815
-0.627711 -2.51352 -0.0879573
-0.650786 -2.50938 -0.101611
-0.604827 -2.5062 -0.0825273
-0.639444 -2.50203 -0.101831
-0.635124 -2.49785 -0.101606
-0.617029 -2.49461 -0.096268
-0.728029 -2.4904 -0.153574
-0.714801 -2.48746 -0.151204
-0.743426 -2.48417 -0.169042
-0.714923 -2.4799 -0.156409
-0.662227 -2.47788 -0.135994
-0.681871 -2.47358 -0.147304
-0.626584 -2.47058 -0.123648
-0.76923 -2.46852 -0.200764
-0.790396 -2.46416 -0.212644
-0.806992 -2.46246 -0.227384
-0.768444 -2.45902 -0.211153
-0.84804 -2.4573 -0.25733
-0.729311 -2.45422 -0.20167
-0.769677 -2.45209 -0.227403
-0.762519 -2.44899 -0.227433
-0.760168 -2.44724 -0.232514
-0.801953 -2.44509 -0.258861
-0.790675 -2.44333 -0.259432
-0.890221 -2.44118 -0.314618
-0.792941 -2.43941 -0.272142
-0.80191 -2.43763 -0.282769
-0.803554 -2.43548 -0.288946
-0.857431 -2.4337 -0.321984
-0.827795 -2.43295 -0.315338
-0.832537 -2.43117 -0.323783
-0.804528 -2.42939 -0.315835
-0.833029 -2.42868 -0.338295
-0.841246 -2.428 -0.350666
-0.805612 -2.42622 -0.338883
-0.815296 -2.42589 -0.352697
-0.795921 -2.42526 -0.351357
-0.742125 -2.42466 -0.332869
-0.892515 -2.42437 -0.417109
-0.742362 -2.42382 -0.35054
-0.89885 -2.42356 -0.437878
-0.782365 -2.42331 -0.388747
-0.769092 -2.42412 -0.393417
-0.758939 -2.42391 -0.397539
-0.677757 -2.42505 -0.368939
-0.766913 -2.4261 -0.425326
-0.79469 -2.4275 -0.451785
-0.771753 -2.42882 -0.452706
-0.775094 -2.43019 -0.4669
-0.707588 -2.43316 -0.44901
-0.745111 -2.43786 -0.487316
-0.593003 -2.44278 -0.431287
-0.730541 -2.45132 -0.527753
-0.065814 -2.68083 0.23669
-0.16257 -2.67306 0.191345
-0.240536 -2.66483 0.156286
-0.198622 -2.65729 0.18
-0.126118 -2.65153 0.215904
-0.208231 -2.6458 0.174477
-0.257828 -2.64011 0.149286
-0.297453 -2.63446 0.129065
-0.276218 -2.62884 0.139258
-0.217851 -2.62485 0.165131
-0.363769 -2.61928 0.0917544
-0.386421 -2.6153 0.0771611
-0.334104 -2.60976 0.102919
-0.27994 -2.6046 0.128969
-0.284954 -2.59908 0.126101
-0.328899 -2.59512 0.100976
-0.36692 -2.58963 0.0816474
-0.392917 -2.58568 0.0655599
-0.377631 -2.5802 0.0729416
-0.416727 -2.57624 0.0503766
-0.400391 -2.57076 0.058356
-0.403526 -2.5668 0.0538511
-0.434403 -2.56283 0.0355157
-0.448603 -2.55735 0.0283639
-0.589011 -2.55337 -0.0446461
-0.401799 -2.54911 0.0467059
-0.445711 -2.54512 0.0220351
-0.493679 -2.54015 -0.00280042
-0.435031 -2.53586 0.0244277
-0.600952 -2.53156 -0.0605783
-0.452594 -2.52753 0.0110954
-0.499537 -2.52348 -0.0148294
-0.585272 -2.51943 -0.0600979
-0.63339 -2.51508 -0.0859636
-0.558788 -2.511 -0.0509456
-0.523688 -2.5069 -0.0356221
-0.58249 -2.50377 -0.0690553
-0.590419 -2.49964 -0.0751281
-0.62889 -2.49551 -0.0964128
-0.642542 -2.49233 -0.107095
-0.690067 -2.48815 -0.13278
-0.616851 -2.48526 -0.100521
-0.746666 -2.48203 -0.169109
-0.633163 -2.47781 -0.114094
-0.726129 -2.47487 -0.164775
-0.719302 -2.47159 -0.164856
-0.701477 -2.46863 -0.160041
-0.749426 -2.46566 -0.188068
-0.713244 -2.46364 -0.175881
-0.791967 -2.45932 -0.216605
-0.760586 -2.45764 -0.207426
-0.780205 -2.45425 -0.220391
-0.741021 -2.45122 -0.204607
-0.723176 -2.44951 -0.202098
-0.790139 -2.44608 -0.238573
-0.785406 -2.44436 -0.242559
-0.741338 -2.44227 -0.226128
-0.672621 -2.43918 -0.195351
-0.797535 -2.43744 -0.264078
-0.875882 -2.4357 -0.309499
-0.763908 -2.43359 -0.259004
-0.670249 -2.43184 -0.218378
-0.806403 -2.42973 -0.291914
-0.849522 -2.42797 -0.319635
-0.783437 -2.42762 -0.295573
-0.793951 -2.42552 -0.306266
-0.782595 -2.42518 -0.309584
-0.755562 -2.42309 -0.301508
-0.810177 -2.42277 -0.337831
-0.752898 -2.4207 -0.314644
-0.794897 -2.42039 -0.344682
-0.709795 -2.4198 -0.310589
-0.776613 -2.41952 -0.353079
-0.809552 -2.41898 -0.378099
-0.728052 -2.41848 -0.345964
-0.744646 -2.41824 -0.363422
-0.721006 -2.41801 -0.360778
-0.762473 -2.41888 -0.392972
-0.710959 -2.41869 -0.376478
-0.73992 -2.41986 -0.403059
-0.766664 -2.41971 -0.425766
-0.563993 -2.42228 -0.339463
-0.761455 -2.42366 -0.450738
-0.705258 -2.42515 -0.435442
-0.74592 -2.42816 -0.471774
-0.682652 -2.43131 -0.456461
-0.735674 -2.43787 -0.506514
-0.652556 -2.44308 -0.485684
-0.0562922 -2.68875 0.248343
-0.0563314 -2.67585 0.260254
-0.0486402 -2.66815 0.266947
-0.181096 -2.66172 0.201399
-0.190147 -2.65422 0.199488
-0.173751 -2.6485 0.207203
-0.195662 -2.64282 0.19574
-0.206274 -2.63718 0.189905
-0.113281 -2.63157 0.235853
-0.199086 -2.62761 0.189502
-0.218622 -2.62205 0.179183
-0.373008 -2.6181 0.0985815
-0.251039 -2.61259 0.159022
-0.280623 -2.60865 0.140867
-0.291956 -2.60317 0.134674
-0.302378 -2.59925 0.126151
-0.309622 -2.59413 0.121423
-0.286818 -2.58988 0.130181
-0.432256 -2.58476 0.0564384
-0.284807 -2.58053 0.127546
-0.51875 -2.57661 0.00742184
-0.403763 -2.57148 0.0640274
-0.409297 -2.56727 0.0587155
-0.465468 -2.56334 0.0275927
-0.438785 -2.55819 0.0401982
-0.368837 -2.55398 0.072727
-0.41469 -2.55004 0.0468942
-0.515268 -2.54609 -0.00625656
-0.401886 -2.5409 0.0499219
-0.450282 -2.53693 0.0229633
-0.496816 -2.5327 -0.00252403
-0.480713 -2.52871 0.00286525
-0.501609 -2.52472 -0.0101946
-0.472488 -2.52045 0.0023027
-0.503974 -2.51643 -0.015943
-0.590938 -2.5124 -0.0618735
-0.586314 -2.50836 -0.0619554
-0.599917 -2.50431 -0.071095
-0.636221 -2.50123 -0.0934134
-0.587159 -2.49715 -0.0711057
-0.637353 -2.49305 -0.098367
-0.704113 -2.48993 -0.135747
-0.597051 -2.4858 -0.0842566
-0.645014 -2.48294 -0.112693
-0.644654 -2.47977 -0.116347
-0.598834 -2.4756 -0.0952938
-0.75116 -2.4727 -0.175765
-0.666413 -2.46948 -0.137046
-0.732231 -2.46656 -0.174165
-0.649021 -2.46363 -0.136725
-0.670352 -2.46036 -0.150876
-0.711559 -2.4574 -0.175542
-0.818655 -2.45443 -0.233107
-0.740423 -2.45145 -0.197961
-0.714124 -2.44944 -0.190693
-0.715528 -2.44644 -0.195272
-0.753657 -2.44442 -0.220151
-0.737546 -2.44139 -0.215878
-0.80328 -2.43834 -0.252481
-0.732335 -2.43664 -0.223398
-0.704869 -2.43459 -0.215343
-0.738048 -2.43288 -0.238277
-0.793211 -2.43083 -0.2715
-0.802165 -2.42773 -0.279501
-0.689509 -2.42739 -0.232227
-0.744846 -2.42533 -0.265483
-0.829801 -2.42361 -0.314198
-0.742105 -2.42188 -0.276568
-0.750332 -2.41982 -0.286223
-0.733446 -2.41951 -0.286842
-0.738426 -2.41889 -0.297789
-0.726326 -2.41717 -0.297912
-0.757039 -2.41659 -0.321776
-0.661329 -2.41486 -0.280077
-0.823535 -2.41431 -0.369747
-0.733121 -2.41405 -0.333688
-0.75699 -2.41356 -0.354282
-0.730827 -2.41332 -0.350394
-0.715979 -2.41288 -0.351727
-0.769515 -2.41267 -0.387737
-0.679365 -2.4136 -0.354275
-0.765656 -2.41343 -0.406749
-0.768146 -2.41464 -0.420203
-0.808329 -2.41451 -0.449694
-0.758471 -2.41715 -0.439984
-0.757968 -2.41856 -0.452379
-0.677706 -2.42006 -0.425115
-0.6112 -2.42312 -0.408
-0.574907 -2.42631 -0.406305
-0.611522 -2.433 -0.44848
-0.586647 -2.43992 -0.460461
-0.0602349 -2.67541 0.279972
-0.0737311 -2.66887 0.273943
-0.144769 -2.66129 0.241019
-0.0524246 -2.65667 0.284618
-0.167124 -2.65095 0.22667
-0.204469 -2.64528 0.207374
-0.211832 -2.63965 0.203042
-0.161732 -2.63405 0.227418
-0.239489 -2.63012 0.184952
-0.178294 -2.62458 0.214867
-0.235818 -2.62066 0.182554
-0.227713 -2.61516 0.185922
-0.31247 -2.61126 0.140034
-0.204857 -2.60581 0.193164
-0.272044 -2.60192 0.156108
-0.263743 -2.59803 0.156824
-0.222201 -2.59262 0.176962
-0.256846 -2.58874 0.156261
-0.270243 -2.58485 0.146216
-0.40246 -2.57947 0.0795404
-0.369302 -2.57559 0.0928382
-0.401251 -2.57171 0.0736181
-0.365747 -2.56634 0.0908954
-0.395179 -2.56245 0.0730096
-0.396195 -2.55856 0.0693708
-0.395904 -2.55467 0.0664264
-0.432683 -2.55077 0.0449881
-0.407805 -2.54539 0.0571678
-0.465012 -2.54147 0.0256089
-0.519287 -2.5373 -0.00397174
-0.508347 -2.53337 -0.00136653
-0.455556 -2.52944 0.022213
-0.557132 -2.52549 -0.0313416
-0.464941 -2.52154 0.0120376
-0.496649 -2.51757 -0.00648171
-0.538307 -2.51359 -0.0299237
-0.454128 -2.5096 0.00960596
-0.574689 -2.5056 -0.0531807
-0.594042 -2.50234 -0.0667294
-0.537953 -2.49857 -0.0415608
-0.582474 -2.49453 -0.0661607
-0.580646 -2.49148 -0.0694485
-0.562774 -2.48741 -0.0627332
-0.579093 -2.48333 -0.0730531
-0.664181 -2.48023 -0.119631
-0.673693 -2.4774 -0.128899
-0.657594 -2.47327 -0.12283
-0.621439 -2.47041 -0.10917
-0.652435 -2.46726 -0.128482
-0.598017 -2.46438 -0.105596
-0.638165 -2.46018 -0.127405
-0.636392 -2.45728 -0.13074
-0.687812 -2.45536 -0.162602
-0.667137 -2.45112 -0.153811
-0.676565 -2.44949 -0.165198
-0.701714 -2.44623 -0.181196
-0.750752 -2.44326 -0.209698
-0.776202 -2.44028 -0.226359
-0.751991 -2.43862 -0.220799
-0.670418 -2.43664 -0.185901
-0.728674 -2.43363 -0.218836
-0.761098 -2.43196 -0.241512
-0.712076 -2.42996 -0.222804
-0.69741 -2.42692 -0.219149
-0.702101 -2.42523 -0.227879
-0.79432 -2.42322 -0.279711
-0.778232 -2.42152 -0.278009
-0.838606 -2.41982 -0.314516
-0.749925 -2.41781 -0.275848
-0.822765 -2.41751 -0.321394
-0.828266 -2.41551 -0.329818
-0.747253 -2.4138 -0.295568
-0.70086 -2.41323 -0.280937
-0.758178 -2.41153 -0.315833
-0.679762 -2.41099 -0.285243
-0.661051 -2.40929 -0.282106
-0.748713 -2.40904 -0.335122
-0.745721 -2.40855 -0.342333
-0.782843 -2.4081 -0.369663
-0.768968 -2.40788 -0.371985
-0.759541 -2.40748 -0.376137
-0.700793 -2.40729 -0.356072
-0.762737 -2.40828 -0.398808
-0.779581 -2.40813 -0.416624
-0.697564 -2.40938 -0.387932
-0.659681 -2.40926 -0.378455
-0.81714 -2.41198 -0.472588
-0.675164 -2.41342 -0.414348
-0.674376 -2.41491 -0.42683
-0.7329 -2.41803 -0.472421
-0.687305 -2.42127 -0.466204
-0.505596 -2.42631 -0.395798
-0.580379 -2.44034 -0.472754
-0.0131099 -2.68512 0.318575
-0.0767376 -2.67583 0.292094
-0.0337671 -2.66817 0.316149
-0.00794286 -2.66172 0.329562
-0.0819432 -2.65599 0.291847
-0.0911594 -2.65143 0.284526
-0.0446737 -2.64579 0.306988
-0.113293 -2.64019 0.27187
-0.14069 -2.63628 0.254418
-0.253229 -2.63074 0.197324
-0.170904 -2.62685 0.234766
-0.264104 -2.62136 0.187331
-0.14833 -2.61749 0.241535
-0.182128 -2.61362 0.220979
-0.224632 -2.60819 0.198904
-0.180797 -2.60433 0.217207
-0.190982 -2.60048 0.208528
-0.286993 -2.5951 0.159729
-0.224045 -2.59126 0.187668
-0.30394 -2.58741 0.144215
-0.296749 -2.58357 0.144337
-0.255016 -2.57823 0.164488
-0.376056 -2.57439 0.100556
-0.287965 -2.57055 0.141225
-0.26108 -2.56671 0.151327
-0.396391 -2.56258 0.0808827
-0.314839 -2.55754 0.120584
-0.290259 -2.55369 0.129648
-0.376027 -2.54983 0.083578
-0.430387 -2.54572 0.0537237
-0.399352 -2.54185 0.0661339
-0.459459 -2.53798 0.0330169
-0.466102 -2.5341 0.0266778
-0.47469 -2.53021 0.0194124
-0.500613 -2.52608 0.00396882
-0.443088 -2.52217 0.0298562
-0.4526 -2.51826 0.0222748
-0.502275 -2.51433 -0.00533637
-0.506572 -2.51039 -0.0102057
-0.4459 -2.50645 0.0174624
-0.487025 -2.50249 -0.00571423
-0.565184 -2.49852 -0.047352
-0.526778 -2.49554 -0.0325805
-0.582017 -2.49154 -0.0626485
-0.555305 -2.48753 -0.0516822
-0.512776 -2.48452 -0.0347025
-0.645766 -2.48073 -0.103949
-0.542202 -2.4777 -0.0563466
-0.61539 -2.47363 -0.0950974
-0.643501 -2.47082 -0.113722
-0.572887 -2.46774 -0.0824376
-0.56251 -2.46491 -0.0817274
-0.631848 -2.46078 -0.118314
-0.676745 -2.45792 -0.145143
-0.647908 -2.45506 -0.135061
-0.723501 -2.4519 -0.176602
-0.675777 -2.44901 -0.156977
-0.677769 -2.44611 -0.162166
-0.6378 -2.44422 -0.148365
-0.68223 -2.4413 -0.174681
-0.682893 -2.43703 -0.176437
-0.64306 -2.43541 -0.16316
-0.761692 -2.43349 -0.22851
-0.736868 -2.43051 -0.220014
-0.775989 -2.42887 -0.246135
-0.694159 -2.42694 -0.211171
-0.708334 -2.42393 -0.222045
-0.735237 -2.42227 -0.241979
-0.813828 -2.42032 -0.287146
-0.711343 -2.41728 -0.239563
-0.759565 -2.41561 -0.270078
-0.718427 -2.41504 -0.258126
-0.631603 -2.41337 -0.221093
-0.716927 -2.41169 -0.270114
-0.705074 -2.40974 -0.269967
-0.796665 -2.40806 -0.322083
-0.6444 -2.40753 -0.254626
-0.7338 -2.40585 -0.305626
-0.710005 -2.4056 -0.302956
-0.728846 -2.40512 -0.321132
-0.713819 -2.40345 -0.319899
-0.675983 -2.40301 -0.309797
-0.750299 -2.4026 -0.355833
-0.735408 -2.4024 -0.357714
-0.800419 -2.40204 -0.399193
-0.757022 -2.40187 -0.38687
-0.657662 -2.40292 -0.349105
-0.651016 -2.40279 -0.355241
-0.73811 -2.40408 -0.411212
-0.608388 -2.40398 -0.355879
-0.695435 -2.40676 -0.41499
-0.672798 -2.40823 -0.416521
-0.664709 -2.40976 -0.425451
-0.636648 -2.41293 -0.427901
-0.515668 -2.41783 -0.387563
-0.54421 -2.42298 -0.42257
0.072723 -2.67963 0.392439
-0.042186 -2.67227 0.336869
-0.0487029 -2.6647 0.335911
-0.0254162 -2.66008 0.344783
-0.00145488 -2.65441 0.355851
-0.0956694 -2.6505 0.3048
-0.0830028 -2.6449 0.3102
-0.0939516 -2.64044 0.301825
-0.161626 -2.63492 0.266987
-0.150025 -2.63107 0.268882
-0.13504 -2.62722 0.272494
-0.15981 -2.62178 0.259103
-0.109641 -2.61795 0.280343
-0.138404 -2.61412 0.262142
-0.162087 -2.6103 0.246508
-0.180895 -2.60493 0.23612
-0.265677 -2.60112 0.189978
-0.303779 -2.59732 0.167206
-0.280524 -2.59351 0.17514
-0.24387 -2.58935 0.190454
-0.22815 -2.5844 0.196749
-0.234117 -2.58061 0.190157
-0.337618 -2.57681 0.134829
-0.32658 -2.57301 0.136805
-0.239846 -2.56891 0.17721
-0.363507 -2.56512 0.111891
-0.402182 -2.56132 0.089101
-0.307906 -2.55752 0.132825
-0.310006 -2.55253 0.130581
-0.294224 -2.54846 0.13562
-0.316328 -2.54465 0.121275
-0.380175 -2.54083 0.0861006
-0.421608 -2.537 0.062177
-0.410055 -2.53317 0.0647905
-0.43313 -2.52933 0.0501357
-0.417201 -2.52525 0.0554521
-0.422033 -2.5214 0.05001
-0.500696 -2.51775 0.00728318
-0.464707 -2.51388 0.0223523
-0.480995 -2.50999 0.0113336
-0.535856 -2.50609 -0.0189205
-0.476026 -2.50219 0.00822305
-0.521047 -2.49928 -0.0189273
-0.51941 -2.49535 -0.020779
-0.548653 -2.4914 -0.0380145
-0.454615 -2.48847 0.00448829
-0.572683 -2.48473 -0.0574817
-0.557544 -2.48177 -0.0543355
-0.548618 -2.47778 -0.0522662
-0.470585 -2.47377 -0.015582
-0.610535 -2.47101 -0.0902757
-0.583752 -2.46801 -0.081106
-0.678311 -2.46523 -0.133019
-0.628753 -2.46116 -0.11034
-0.616249 -2.45835 -0.108626
-0.56852 -2.45529 -0.0887743
-0.606241 -2.45246 -0.112078
-0.579121 -2.44963 -0.102918
-0.667794 -2.44548 -0.149051
-0.595795 -2.44261 -0.11735
-0.620392 -2.44078 -0.135969
-0.523123 -2.4379 -0.0915445
-0.654676 -2.435 -0.161484
-0.614706 -2.43209 -0.145616
-0.616385 -2.43022 -0.152633
-0.724761 -2.42729 -0.210846
-0.599901 -2.42434 -0.152394
-0.648961 -2.42273 -0.183546
-0.693387 -2.42084 -0.211813
-0.7042 -2.41786 -0.221069
-0.70536 -2.41623 -0.228194
-0.74169 -2.41432 -0.252336
-0.694541 -2.41268 -0.235264
-0.804504 -2.41104 -0.296728
-0.681766 -2.40913 -0.241288
-0.705183 -2.40749 -0.259439
-0.737083 -2.40583 -0.281812
-0.69533 -2.40533 -0.269698
-0.729385 -2.40368 -0.293126
-0.623547 -2.40203 -0.246589
-0.757874 -2.40156 -0.322562
-0.666332 -2.39991 -0.283153
-0.764596 -2.39948 -0.341151
-0.69577 -2.39907 -0.315661
-0.730616 -2.39743 -0.339432
-0.716733 -2.39706 -0.341478
-0.721423 -2.39689 -0.353215
-0.73624 -2.39657 -0.369707
-0.638804 -2.39777 -0.333251
-0.694493 -2.39752 -0.370339
-0.697811 -2.39741 -0.381522
-0.733218 -2.39866 -0.411591
-0.641168 -2.40005 -0.378267
-0.726237 -2.4015 -0.433627
-0.685 -2.40301 -0.425959
-0.581727 -2.40456 -0.387395
-0.702662 -2.40778 -0.464474
-0.537202 -2.41279 -0.402202
-0.608309 -2.42137 -0.465872
0.0317687 -2.68045 0.403098
-0.00892433 -2.67305 0.38455
0.081811 -2.66732 0.4289
-0.0313138 -2.66092 0.372531
-0.0366045 -2.65705 0.365736
-0.0470687 -2.65251 0.357544
-0.029749 -2.64696 0.365054
-0.0923242 -2.64312 0.329649
-0.013191 -2.63871 0.366161
-0.0849653 -2.6349 0.326177
-0.0411312 -2.62947 0.346893
-0.19087 -2.62568 0.267962
-0.0425659 -2.6219 0.338077
-0.113016 -2.61812 0.298841
-0.0910396 -2.61434 0.305844
-0.176521 -2.61057 0.259144
-0.157046 -2.60635 0.265736
-0.22217 -2.60149 0.231235
-0.195045 -2.59773 0.240908
-0.235905 -2.59397 0.216616
-0.114206 -2.59021 0.273633
-0.264871 -2.5861 0.195151
-0.208162 -2.58235 0.219713
-0.276488 -2.57861 0.181789
-0.178075 -2.57487 0.227267
-0.187953 -2.57112 0.218633
-0.273615 -2.56737 0.172141
-0.310119 -2.56362 0.150262
-0.293375 -2.55871 0.157169
-0.346116 -2.55468 0.127755
-0.306141 -2.55092 0.144225
-0.257828 -2.54716 0.164904
-0.405067 -2.54339 0.0878479
-0.331943 -2.53962 0.121014
-0.358879 -2.53584 0.104193
-0.338136 -2.53206 0.111255
-0.338688 -2.52826 0.107714
-0.398246 -2.52446 0.0747149
-0.302568 -2.52065 0.119381
-0.492788 -2.51706 0.0207326
-0.369207 -2.51401 0.0779797
-0.379377 -2.51018 0.0698531
-0.465056 -2.50633 0.0240241
-0.400079 -2.50248 0.0535753
-0.425561 -2.49882 0.0375584
-0.528894 -2.49495 -0.0169393
-0.492944 -2.49208 -0.00369124
-0.437626 -2.48818 0.0212383
-0.507026 -2.48427 -0.0161338
-0.494767 -2.48138 -0.0146089
-0.521189 -2.47765 -0.0307789
-0.503114 -2.4737 -0.0242482
-0.600675 -2.47099 -0.0778938
-0.499671 -2.46805 -0.0318052
-0.558152 -2.46406 -0.0633806
-0.58198 -2.46131 -0.0800274
-0.614933 -2.45729 -0.0987224
-0.595862 -2.45453 -0.0938261
-0.597687 -2.4528 -0.101398
-0.578599 -2.44873 -0.0938965
-0.588592 -2.44593 -0.103398
-0.58469 -2.44312 -0.105908
-0.632535 -2.4403 -0.134248
-0.645048 -2.43723 -0.144405
-0.584069 -2.43439 -0.118233
-0.632023 -2.43153 -0.146482
-0.624142 -2.42973 -0.148904
-0.740244 -2.42685 -0.211138
-0.592518 -2.42395 -0.141411
-0.680126 -2.42105 -0.189304
-0.689434 -2.41947 -0.200677
-0.66056 -2.41763 -0.192441
-0.61263 -2.41469 -0.172437
-0.709005 -2.41309 -0.227268
-0.733063 -2.41125 -0.245423
-0.635846 -2.40964 -0.203417
-0.630311 -2.40666 -0.204449
-0.671061 -2.40618 -0.233685
-0.735021 -2.40319 -0.269386
-0.678075 -2.40156 -0.247421
-0.690206 -2.4011 -0.262361
-0.703849 -2.39948 -0.275668
-0.691331 -2.39786 -0.275874
-0.694216 -2.39743 -0.286238
-0.634027 -2.3958 -0.262589
-0.70699 -2.39541 -0.308045
-0.705371 -2.39379 -0.313664
-0.679768 -2.39342 -0.309896
-0.731777 -2.39325 -0.345331
-0.663187 -2.39148 -0.317115
-0.738088 -2.39133 -0.364025
-0.712223 -2.39252 -0.363371
-0.695097 -2.39229 -0.364091
-0.683056 -2.39208 -0.367421
-0.668912 -2.39199 -0.369938
-0.649927 -2.39329 -0.372956
-0.597325 -2.39472 -0.35946
-0.610724 -2.3962 -0.379087
-0.534145 -2.39773 -0.353847
-0.572493 -2.39932 -0.386192
-0.569261 -2.40257 -0.401315
-0.520583 -2.40763 -0.397587
-0.57262 -2.4216 -0.46331
0.0926587 -2.68287 0.473299
0.0390087 -2.67728 0.444995
0.111366 -2.67159 0.479923
-0.0152126 -2.66517 0.416683
-0.0485837 -2.66061 0.396895
-0.091964 -2.65682 0.370824
0.0141262 -2.65303 0.419515
-0.0442914 -2.64856 0.38715
-0.00289604 -2.64311 0.406441
-0.0940638 -2.63936 0.356536
-0.0261838 -2.63665 0.384351
-0.0211078 -2.63291 0.382606
0.0157906 -2.62756 0.399634
-0.0888245 -2.62383 0.343078
-0.0852372 -2.62011 0.34065
-0.169152 -2.6164 0.294496
-0.124537 -2.61268 0.312633
-0.14032 -2.60897 0.300598
-0.0751408 -2.60526 0.32907
-0.139159 -2.60155 0.292972
-0.143568 -2.59784 0.286705
-0.145149 -2.59414 0.281881
-0.1848 -2.59004 0.258752
-0.191388 -2.58635 0.251459
-0.201914 -2.58266 0.242227
-0.169797 -2.57897 0.254348
-0.19006 -2.57528 0.240311
-0.218106 -2.57159 0.222416
-0.314721 -2.56789 0.170268
