ply
format ascii 1.0
comment Created by Open3D
element vertex 1737
property double x
property double y
property double z
end_header
0.0670506 -1.04322 1.14445
0.12959 -1.04546 1.15578
0.375641 -1.05086 1.24695
0.260762 -1.05249 1.67572
-0.0793785 -1.04885 1.50578
0.261485 -1.04617 1.67328
0.362294 -1.04406 1.71893
0.145854 -1.0422 1.60518
0.0564317 -1.04058 1.55413
0.512143 -1.03901 1.77556
0.0671221 -1.0377 1.54578
0.155737 -1.03643 1.58271
0.192749 -1.03518 1.5938
0.0739797 -1.03417 1.52619
0.156118 -1.03304 1.55948
0.0307799 -1.03211 1.48838
0.160737 -1.03121 1.54483
0.0963743 -1.03035 1.50402
-0.0257221 -1.02953 1.43424
-0.073435 -1.02881 1.40129
0.153576 -1.02804 1.5059
0.139755 -1.02731 1.48997
0.258293 -1.02663 1.54009
-0.0516364 -1.02619 1.37511
0.285265 -1.02557 1.53421
0.0285343 -1.0252 1.39563
-0.16531 -1.02466 1.28909
0.0205132 -1.02417 1.37223
-0.0935128 -1.02393 1.30457
0.0715317 -1.02362 1.37669
0.0471776 -1.02324 1.35437
0.222274 -1.02311 1.43088
-0.265874 -1.02282 1.17635
0.295768 -1.02258 1.44654
-0.0263898 -1.02258 1.27398
-0.0597259 -1.02243 1.24633
0.435718 -1.02248 1.4824
-0.0430001 -1.0226 1.23112
0.0248272 -1.02256 1.25366
0.10421 -1.02277 1.2811
0.272786 -1.02302 1.35296
0.118814 -1.02347 1.26279
0.0269056 -1.02364 1.20472
0.0319549 -1.02403 1.19426
0.0976859 -1.02489 1.21239
0.199033 -1.02565 1.2487
0.182009 -1.02649 1.22549
0.0147947 -1.02792 1.12494
0.360154 -1.02984 1.27879
0.183261 -1.03312 1.16631
0.338783 -1.03891 1.71382
0.257893 -1.03532 1.67351
0.265555 -1.03272 1.67426
0.296631 -1.03058 1.68523
0.137814 -1.02851 1.60106
0.115959 -1.02691 1.58383
0.213417 -1.02535 1.62617
0.0933575 -1.02383 1.55963
0.300902 -1.02256 1.65609
0.170905 -1.02131 1.58373
0.152882 -1.0203 1.56654
0.230033 -1.01917 1.5974
-0.0932065 -1.01824 1.42739
-0.000561108 -1.01734 1.46524
0.0758158 -1.01647 1.49486
0.0847941 -1.01564 1.49067
0.166938 -1.01492 1.5227
0.222584 -1.01415 1.54169
0.04497 -1.01342 1.44392
-0.0822648 -1.01272 1.37123
-0.0346 -1.01227 1.38511
0.0781203 -1.01166 1.43212
0.165111 -1.01127 1.46551
0.140029 -1.01072 1.44342
0.288241 -1.01021 1.50783
0.235718 -1.00995 1.47099
0.1961 -1.00954 1.44119
0.228667 -1.00924 1.44704
0.280573 -1.0091 1.46203
0.0921219 -1.00879 1.35742
0.0541252 -1.00853 1.32788
0.332908 -1.00852 1.45583
0.0729048 -1.00833 1.31504
0.00263966 -1.00839 1.26821
0.0932141 -1.00829 1.30238
0.0984708 -1.00843 1.29299
0.315253 -1.00862 1.3892
-0.0117014 -1.00865 1.21411
0.120287 -1.00893 1.26759
0.260034 -1.00941 1.32413
0.279143 -1.00979 1.32077
-0.086433 -1.01042 1.12406
0.284388 -1.01115 1.29521
0.173801 -1.01196 1.22531
0.145181 -1.01303 1.19537
0.324669 -1.01486 1.26656
0.0799677 -1.01687 1.12491
0.090432 -1.02675 1.58393
0.115292 -1.02205 1.6004
0.369535 -1.01921 1.72536
0.0249335 -1.01688 1.54925
0.258295 -1.01504 1.66046
0.295922 -1.01324 1.67375
-0.0901323 -1.01168 1.47437
-0.0400084 -1.01017 1.49299
0.0616568 -1.0089 1.53654
0.341417 -1.00766 1.6691
0.232528 -1.00648 1.60711
0.278936 -1.00552 1.62206
-0.097748 -1.00437 1.42613
0.333538 -1.00347 1.63336
-0.206447 -1.0026 1.35485
0.0210642 -1.00177 1.45999
-0.0282332 -1.00118 1.42586
0.0937535 -1.00042 1.47802
0.0552223 -0.999695 1.4498
0.010293 -0.999033 1.41817
0.130546 -0.998369 1.46915
-0.00540193 -0.997745 1.39191
0.149385 -0.997345 1.45923
-0.0435259 -0.996784 1.3533
0.0478219 -0.996267 1.38935
0.0564459 -0.995997 1.38315
0.239467 -0.995566 1.46475
0.149061 -0.995265 1.40916
0.30197 -0.995104 1.47472
0.0319634 -0.994784 1.32941
0.00306453 -0.994509 1.3045
0.0857373 -0.99448 1.33446
-0.0181381 -0.994282 1.27178
-0.0940728 -0.994318 1.2222
0.0128565 -0.994201 1.26463
-0.0302418 -0.994324 1.23114
0.079076 -0.994295 1.27443
0.248438 -0.994505 1.34683
0.0869411 -0.994756 1.25364
0.209638 -0.995049 1.30239
0.0913859 -0.995374 1.23053
0.117365 -0.995768 1.23051
-0.0288292 -0.996431 1.14336
0.210434 -0.997366 1.24787
0.192098 -0.998193 1.22398
0.447238 -0.999599 1.33456
0.394126 -1.00148 1.28911
0.0386943 -1.00451 1.08797
0.272383 -1.01609 1.66393
0.431113 -1.00924 1.7549
0.0585371 -1.00596 1.56808
0.191107 -1.00343 1.63134
0.214363 -1.00136 1.6384
0.327457 -0.999563 1.68945
0.227813 -0.998019 1.63332
0.0682943 -0.996509 1.54716
0.112183 -0.995251 1.56186
0.0636974 -0.993795 1.5311
0.135151 -0.992794 1.55874
0.0480254 -0.991662 1.50757
0.174802 -0.990728 1.56267
0.294436 -0.989825 1.61412
0.0633145 -0.988953 1.4901
0.0116745 -0.988115 1.45572
0.056068 -0.98731 1.46925
0.0912744 -0.986542 1.47807
-0.0524018 -0.985858 1.39717
0.030496 -0.985146 1.42967
0.116803 -0.984474 1.46375
0.164231 -0.984049 1.4775
-0.111638 -0.983456 1.33023
-0.0533735 -0.983072 1.34927
0.173411 -0.982542 1.45312
-0.0163012 -0.982055 1.34857
-0.0498871 -0.981725 1.32151
0.104516 -0.981412 1.38839
0.0419396 -0.981127 1.34669
-0.167179 -0.980792 1.2319
0.175628 -0.980502 1.39292
0.0702232 -0.980455 1.32892
0.18715 -0.980249 1.37669
-0.120265 -0.980267 1.21144
0.0182812 -0.980095 1.2699
-0.0544734 -0.980179 1.22173
0.162854 -0.980109 1.31919
0.15472 -0.980378 1.30262
0.0984548 -0.980416 1.26287
0.0630637 -0.980689 1.23264
0.179898 -0.981003 1.27836
0.188291 -0.981547 1.26896
-0.106187 -0.981958 1.10863
0.181051 -0.982644 1.23806
0.0335901 -0.983413 1.14981
0.204611 -0.984259 1.22047
0.382387 -0.986014 1.2909
0.140336 -0.988132 1.14993
0.477897 -0.993241 1.28682
0.294969 -0.996132 1.68432
0.246822 -0.992686 1.66045
0.315839 -0.989928 1.69284
-0.0550883 -0.987664 1.50358
-0.125341 -0.985886 1.463
-0.00995708 -0.984354 1.51441
0.285879 -0.982853 1.65597
-0.00839914 -0.981387 1.50239
0.180383 -0.98015 1.58955
-0.226746 -0.979152 1.37794
-0.166102 -0.97802 1.40071
0.117958 -0.976874 1.53527
0.103105 -0.97597 1.51952
0.139621 -0.975097 1.52937
-0.0506547 -0.974255 1.42573
-0.0541011 -0.973448 1.4154
0.200671 -0.972674 1.53407
-0.0299202 -0.971988 1.40976
0.150079 -0.97127 1.49087
-0.109683 -0.970591 1.35198
-0.13228 -0.970156 1.33078
0.104163 -0.969554 1.43973
0.0863538 -0.969166 1.42078
0.157511 -0.968625 1.44688
0.0591317 -0.968126 1.38807
0.143485 -0.967873 1.41972
-0.0113473 -0.967559 1.33201
0.0831725 -0.967166 1.36928
-0.0877422 -0.966817 1.27368
-0.190533 -0.966511 1.21198
-0.16473 -0.966448 1.21365
0.15443 -0.966235 1.36259
0.0670471 -0.96623 1.30745
0.0725533 -0.966055 1.29941
-0.151659 -0.966121 1.17559
0.103728 -0.966033 1.29216
0.146504 -0.966182 1.3015
0.0353703 -0.96618 1.23448
0.204923 -0.966544 1.30636
-0.0900131 -0.966808 1.14639
0.103025 -0.966979 1.23076
-0.0177044 -0.96755 1.15665
0.27593 -0.967978 1.29029
-0.0424136 -0.968688 1.1168
0.0613128 -0.969477 1.15402
-0.0802119 -0.970827 1.06634
0.213094 -0.972639 1.19418
-0.0392423 -0.975179 1.04623
0.384476 -0.983909 1.7234
0.236595 -0.979396 1.65358
0.109772 -0.976669 1.58806
0.388033 -0.974422 1.72345
0.115966 -0.972437 1.58278
0.119376 -0.970693 1.57904
0.0227025 -0.969196 1.52441
-0.215309 -0.967738 1.399
0.227513 -0.966508 1.61322
0.170864 -0.965341 1.57751
0.111695 -0.964382 1.53981
-0.381435 -0.963238 1.28582
-0.0052094 -0.962333 1.46567
0.414005 -0.961458 1.66692
0.186882 -0.960404 1.54568
0.155149 -0.959802 1.52049
0.0170491 -0.959024 1.44278
0.0181912 -0.958281 1.43458
0.0572652 -0.957612 1.44509
0.182571 -0.956925 1.4988
0.0742935 -0.956276 1.43559
0.0467507 -0.955863 1.41188
0.0453209 -0.955272 1.4019
-0.0264866 -0.954722 1.35659
0.241436 -0.954212 1.48101
0.130173 -0.953946 1.41492
-0.164286 -0.953627 1.25743
-0.172728 -0.953221 1.2433
-0.0873038 -0.952858 1.27594
0.176279 -0.952737 1.39674
-0.116807 -0.95246 1.23981
0.246512 -0.952238 1.41087
0.0759524 -0.952223 1.3142
0.0870003 -0.952034 1.309
0.119612 -0.951927 1.31428
0.122978 -0.951977 1.30431
0.322516 -0.951995 1.39255
0.161578 -0.952087 1.30026
0.338419 -0.95223 1.37665
0.24921 -0.952362 1.32007
0.108773 -0.952815 1.23657
0.250064 -0.953166 1.29434
0.162296 -0.953762 1.23659
0.129483 -0.954439 1.20597
0.0546656 -0.955195 1.15401
0.17309 -0.956026 1.19835
-0.154747 -0.956928 1.01924
0.493616 -0.959287 1.32226
0.153625 -0.96226 1.12852
0.265696 -0.966539 1.66477
0.278681 -0.962943 1.67241
0.074049 -0.960721 1.56637
-0.100029 -0.958968 1.47396
-0.0575076 -0.957238 1.48981
0.221165 -0.95554 1.62366
-0.184977 -0.954287 1.41351
0.0945254 -0.952867 1.54684
0.17531 -0.951664 1.58003
-0.0858763 -0.950536 1.44199
0.00500919 -0.949605 1.47929
0.191624 -0.948491 1.56516
0.380432 -0.947615 1.65125
-0.240179 -0.94677 1.33255
0.283803 -0.945956 1.58605
0.0780896 -0.945174 1.47459
-0.000338306 -0.944485 1.42645
-0.106904 -0.943757 1.36441
0.203528 -0.943063 1.51074
0.428401 -0.942407 1.61418
0.122675 -0.941993 1.4514
0.0414584 -0.941596 1.40082
-0.104887 -0.941036 1.31832
0.128637 -0.940515 1.42561
-0.0702555 -0.940035 1.31655
0.0668092 -0.93971 1.37487
0.014601 -0.939292 1.33893
0.0557824 -0.938916 1.34953
-0.0924145 -0.938781 1.2645
-0.204246 -0.938531 1.19812
0.372916 -0.93826 1.47631
0.371563 -0.938229 1.46431
0.0541955 -0.938033 1.29496
0.0479229 -0.9379 1.2809
0.0585764 -0.937941 1.27462
0.257656 -0.937861 1.36303
0.0630873 -0.938014 1.25368
0.0962189 -0.938017 1.25879
0.0591991 -0.938251 1.22788
-0.0472307 -0.938487 1.16226
0.239197 -0.938647 1.29337
0.081762 -0.939186 1.20099
0.0696311 -0.939806 1.18092
0.0870094 -0.940263 1.17626
0.200996 -0.941014 1.21868
0.319883 -0.942128 1.26203
0.00540042 -0.943543 1.08742
0.00171542 -0.945419 1.06625
0.115224 -0.953411 1.58706
0.455802 -0.950105 1.75762
0.129836 -0.947459 1.59257
0.226518 -0.945282 1.63718
-0.0889661 -0.943569 1.47406
0.0400731 -0.94209 1.53237
0.0880579 -0.940639 1.55009
0.336031 -0.939227 1.66769
-0.0180001 -0.93803 1.48352
-0.228004 -0.936905 1.37112
-0.0447851 -0.935976 1.45463
0.0768723 -0.934864 1.50807
0.113436 -0.933988 1.5181
-0.143263 -0.933141 1.3814
0.0840748 -0.932324 1.48663
0.124772 -0.93154 1.49844
-0.0461893 -0.930788 1.40431
-0.0443829 -0.930117 1.39627
0.150153 -0.929418 1.48473
0.124347 -0.928755 1.46289
0.117309 -0.928331 1.44951
0.199736 -0.927728 1.48159
-0.0323272 -0.927159 1.35629
-0.031115 -0.926629 1.3475
0.173703 -0.926278 1.43982
-0.0688113 -0.925808 1.30895
0.00834078 -0.925578 1.33697
0.0382626 -0.925189 1.34202
0.00336418 -0.924842 1.3145
-0.22921 -0.924585 1.18779
-0.0471492 -0.9243 1.26851
-0.0697228 -0.924253 1.24597
0.0914538 -0.92405 1.31594
0.140872 -0.92387 1.32993
0.308729 -0.923925 1.4022
-0.0764025 -0.923775 1.1988
0.108899 -0.923891 1.27954
-0.0288219 -0.923856 1.19939
0.0961616 -0.924097 1.24945
0.230775 -0.924228 1.30477
0.0552499 -0.924521 1.20436
-0.0268851 -0.924843 1.15051
0.0900672 -0.925227 1.19593
-0.0138369 -0.925648 1.13077
0.170912 -0.926342 1.20878
-0.0620387 -0.927111 1.07761
0.241928 -0.928425 1.21258
0.232769 -0.930182 1.18909
0.133079 -0.933009 1.11575
0.292289 -0.942185 1.66602
0.0992633 -0.937237 1.57601
0.124186 -0.934184 1.58805
0.0243476 -0.932025 1.53445
0.164059 -0.930321 1.59897
0.094636 -0.928641 1.55888
0.356412 -0.926991 1.68432
-0.0154536 -0.925772 1.49135
-0.0950409 -0.924398 1.44514
0.0298028 -0.923228 1.5004
0.267757 -0.92229 1.61136
-0.220599 -0.921241 1.35962
0.0273232 -0.920365 1.47537
0.147163 -0.919518 1.527
0.126415 -0.9187 1.50824
0.251828 -0.917912 1.56246
0.0323276 -0.917018 1.44466
0.124221 -0.91628 1.48197
0.097715 -0.915577 1.45996
0.014579 -0.915111 1.40872
-0.186595 -0.914478 1.29914
-0.25054 -0.913872 1.25807
-0.0141453 -0.913295 1.36708
0.184881 -0.912957 1.45647
-0.00328457 -0.912456 1.35291
-0.110879 -0.912121 1.28899
0.391652 -0.91168 1.53057
0.12983 -0.911279 1.38982
0.0672946 -0.910996 1.34826
-0.0525713 -0.910657 1.27825
0.113929 -0.910358 1.35127
-0.0262663 -0.910296 1.26999
0.118172 -0.91008 1.33166
0.087215 -0.909891 1.30553
0.0576284 -0.909905 1.27924
0.0216278 -0.909772 1.25036
0.231695 -0.909744 1.34408
-0.0920993 -0.909818 1.17045
0.143341 -0.909909 1.27636
0.00948513 -0.910022 1.19753
0.071214 -0.91023 1.21608
0.348265 -0.910541 1.34187
0.0838075 -0.910888 1.19673
0.0859074 -0.911474 1.18386
0.214294 -0.911725 1.23553
0.214235 -0.91244 1.221
0.0883201 -0.913683 1.14127
0.172529 -0.914557 1.16815
0.290237 -0.916329 1.2079
-0.0388772 -0.920093 1.01561
0.327412 -0.92411 1.68761
-0.0698894 -0.920894 1.48932
0.220399 -0.918757 1.63081
-0.0166708 -0.916644 1.50859
0.28769 -0.91498 1.65543
0.147097 -0.913552 1.57893
0.0341481 -0.912134 1.51625
0.0266467 -0.910975 1.50533
0.113146 -0.909811 1.54146
0.125345 -0.90867 1.54038
0.0177748 -0.907622 1.47909
0.23687 -0.906747 1.58047
0.0445262 -0.905695 1.47686
0.251665 -0.904876 1.57209
0.0051453 -0.904087 1.4404
-0.138464 -0.903399 1.35979
0.0905152 -0.902658 1.4657
0.133416 -0.90195 1.47846
-0.0174432 -0.901275 1.39422
0.17485 -0.900837 1.48063
0.0619081 -0.900229 1.41511
-0.12382 -0.899645 1.31313
-0.00334006 -0.899097 1.36411
-0.000572202 -0.898738 1.35548
0.374836 -0.898248 1.53372
0.0285743 -0.897797 1.35098
0.0628445 -0.897488 1.35793
-0.124722 -0.897096 1.25431
0.020105 -0.896745 1.31673
0.17876 -0.896629 1.3851
0.0402598 -0.896358 1.30554
-0.172581 -0.896141 1.1886
0.0488923 -0.895931 1.28878
0.0288813 -0.895937 1.26732
-0.0413821 -0.895788 1.22139
-0.00203627 -0.895736 1.22987
0.15338 -0.895801 1.29588
0.256137 -0.895772 1.33596
0.193759 -0.895896 1.29282
-0.0866446 -0.896019 1.14067
0.0222045 -0.896292 1.1825
-0.12021 -0.896417 1.09933
-0.0126606 -0.896948 1.13939
-0.0677634 -0.897346 1.09869
0.10135 -0.898004 1.16896
0.239062 -0.898736 1.22319
0.159529 -0.899818 1.16726
0.191488 -0.90119 1.16578
0.260271 -0.903003 1.18076
0.181303 -0.91138 1.6105
0.219434 -0.908014 1.63067
0.242084 -0.905477 1.63999
0.0931801 -0.903382 1.5619
0.107005 -0.901727 1.56352
0.203685 -0.899903 1.60727
0.289847 -0.898703 1.64338
-0.267468 -0.897345 1.3584
0.275041 -0.896188 1.62258
0.0667619 -0.895052 1.51131
0.0632328 -0.893939 1.50235
-0.0374251 -0.893055 1.44395
0.135182 -0.892084 1.52256
-0.0438523 -0.891265 1.42476
0.127186 -0.890474 1.5019
0.168649 -0.889714 1.51416
-0.09683 -0.888841 1.37342
-0.122883 -0.888331 1.35094
0.283612 -0.887652 1.54544
0.302712 -0.887024 1.54605
0.046981 -0.886398 1.40926
0.138676 -0.885806 1.44605
0.0675295 -0.88545 1.40048
0.00451514 -0.884889 1.35982
0.079192 -0.88439 1.38776
-0.087259 -0.884126 1.29418
0.194856 -0.883703 1.42555
0.00737407 -0.883409 1.3216
-0.0550889 -0.883045 1.28045
0.0445443 -0.882721 1.3202
0.0553175 -0.882478 1.31518
-0.166108 -0.882214 1.19416
0.168497 -0.881991 1.35099
-0.126546 -0.881989 1.19206
0.167321 -0.881825 1.32827
0.209545 -0.881701 1.3385
0.0606963 -0.881749 1.25246
-0.0319572 -0.881684 1.195
-0.145606 -0.881754 1.12646
0.0743983 -0.881858 1.2246
-0.0556446 -0.882041 1.14736
0.0787282 -0.882182 1.20252
0.224546 -0.882652 1.26196
0.182094 -0.882837 1.2285
0.157001 -0.883443 1.20187
0.170569 -0.884121 1.19423
0.0672911 -0.884869 1.12785
0.224034 -0.885684 1.19116
0.114965 -0.887354 1.11774
0.132318 -0.890045 1.10295
0.305287 -0.895306 1.66951
0.2536 -0.892183 1.64409
-0.0713859 -0.890109 1.47799
0.0871778 -0.888466 1.55203
-0.0376799 -0.88665 1.48509
-0.109103 -0.885064 1.444
0.187696 -0.883716 1.58611
0.0987723 -0.882567 1.53461
-0.164013 -0.881438 1.39613
0.0631637 -0.880534 1.50176
-0.110102 -0.879449 1.40792
-0.0659178 -0.878477 1.42237
0.0536084 -0.877658 1.4739
0.0548145 -0.876755 1.46664
-0.11646 -0.87598 1.37264
0.167861 -0.875235 1.50633
-0.10262 -0.87472 1.3617
0.219886 -0.874037 1.51426
-0.0276567 -0.873386 1.38169
0.132271 -0.872777 1.4527
0.0744417 -0.872179 1.41479
0.111262 -0.871794 1.42334
0.0720279 -0.87125 1.39454
0.146514 -0.870743 1.42246
0.036213 -0.870273 1.35784
0.128267 -0.869954 1.39377
0.0197881 -0.869541 1.32985
-0.0973828 -0.869167 1.26142
-0.0338137 -0.868898 1.28293
0.0650736 -0.868582 1.3223
0.119428 -0.868306 1.33925
0.0241534 -0.868259 1.2804
0.0986382 -0.86806 1.30709
0.128101 -0.867882 1.31118
0.317253 -0.867743 1.39495
-0.071321 -0.867644 1.18969
0.0929694 -0.867702 1.26018
0.0703184 -0.86766 1.23763
-0.161611 -0.867842 1.10946
0.213891 -0.867876 1.28566
0.0195519 -0.868131 1.17596
0.400706 -0.868239 1.35465
0.0450972 -0.868564 1.16399
0.246435 -0.869115 1.25078
0.253787 -0.869344 1.24201
0.25711 -0.870018 1.22923
0.209743 -0.870759 1.19078
0.0875638 -0.872312 1.11124
0.101679 -0.873531 1.10132
0.486482 -0.876755 1.26762
0.0659296 -0.882556 1.54578
0.109535 -0.879077 1.5696
-0.0221758 -0.876825 1.50097
-0.176901 -0.874997 1.4192
0.169032 -0.873188 1.58773
-0.0366605 -0.87181 1.47876
0.0399918 -0.870259 1.5117
-0.0825969 -0.86911 1.44344
-0.0156216 -0.868027 1.46972
0.194163 -0.866926 1.56751
-0.0374503 -0.865846 1.44454
-0.198582 -0.864992 1.35592
-0.0256585 -0.863961 1.43507
0.0291912 -0.863158 1.45427
0.00341257 -0.862383 1.43307
-0.153148 -0.861636 1.34638
0.162261 -0.861117 1.49474
-0.182254 -0.86043 1.31386
0.0557052 -0.859604 1.42482
0.146948 -0.859165 1.46081
0.0730353 -0.858561 1.41493
-0.074493 -0.857978 1.33217
0.130959 -0.857428 1.42578
-0.0519596 -0.857108 1.32424
-0.11871 -0.856572 1.28171
-0.0474578 -0.856113 1.30787
0.15021 -0.855883 1.39627
-0.0284483 -0.855497 1.29718
0.00151839 -0.855032 1.30275
-0.0131627 -0.854895 1.28459
-0.121548 -0.854606 1.22024
-0.165599 -0.854381 1.18779
-0.0471796 -0.854151 1.23661
0.0291569 -0.853956 1.26423
-0.000651395 -0.853971 1.23786
-0.018084 -0.853806 1.21847
0.0790382 -0.853691 1.25614
0.304787 -0.853684 1.35765
0.146492 -0.853762 1.26676
0.025594 -0.853761 1.19492
0.112 -0.853921 1.22601
-0.205883 -0.854053 1.05508
0.075374 -0.85432 1.1831
0.188259 -0.85466 1.2266
0.174318 -0.855233 1.20562
0.247341 -0.855477 1.2296
0.0160028 -0.856168 1.09936
-0.0450288 -0.856924 1.05396
-0.0574216 -0.858202 1.03045
0.0638208 -0.859895 1.07182
0.43939 -0.863839 1.22991
0.31058 -0.866556 1.66523
0.0587573 -0.863729 1.53899
0.303159 -0.861719 1.65763
0.0557148 -0.859734 1.5303
0.135994 -0.858169 1.56517
0.117741 -0.857006 1.54916
-0.0291606 -0.855692 1.46949
-0.0510864 -0.854416 1.45219
0.117579 -0.853321 1.52946
0.0712134 -0.852447 1.49833
0.0467254 -0.851396 1.4789
-0.137474 -0.850568 1.37872
0.172093 -0.849567 1.52616
-0.0414514 -0.848791 1.41113
0.0063122 -0.848044 1.42665
-0.0584476 -0.847384 1.38557
0.181577 -0.846681 1.49707
0.0826943 -0.846008 1.43901
-0.0260771 -0.845367 1.37589
0.160236 -0.844954 1.45935
0.321365 -0.84437 1.53097
0.170609 -0.843813 1.44654
-0.117029 -0.843451 1.29285
0.0552509 -0.842947 1.36974
-0.162257 -0.842478 1.25159
-0.0596104 -0.842046 1.29338
-0.020255 -0.841749 1.30294
0.0668406 -0.841373 1.33673
-0.232414 -0.841034 1.17718
-0.0280949 -0.840785 1.26904
-0.169496 -0.840504 1.18818
-0.123236 -0.84026 1.201
-0.142019 -0.84006 1.18111
0.271081 -0.840055 1.37629
0.0205107 -0.839889 1.24036
0.202813 -0.83976 1.3207
0.153267 -0.839669 1.28495
0.101078 -0.839799 1.24688
0.182327 -0.839695 1.27659
0.112349 -0.839803 1.22972
0.226153 -0.839992 1.27437
0.0436853 -0.840132 1.1711
-0.0183162 -0.840425 1.12736
0.377191 -0.840598 1.31292
0.205816 -0.841167 1.2132
0.172075 -0.841806 1.18196
0.0879066 -0.842511 1.12518
-0.013872 -0.84328 1.05928
0.190479 -0.844397 1.1448
0.33737 -0.846098 1.19881
0.319734 -0.85438 1.66334
0.0808792 -0.850812 1.5468
0.0911679 -0.848429 1.55003
0.132882 -0.846462 1.56733
-0.0347478 -0.844907 1.4783
-0.0276742 -0.843549 1.47585
0.0249628 -0.842073 1.4967
-0.118172 -0.840959 1.4182
-0.317102 -0.839862 1.31176
-0.132704 -0.838784 1.39693
0.125662 -0.837804 1.5187
0.0750991 -0.836979 1.48538
0.240513 -0.836178 1.55996
0.0140024 -0.835294 1.43896
0.0525915 -0.834534 1.45
0.0420225 -0.8338 1.43637
-0.0109717 -0.833095 1.40143
-0.0897476 -0.83242 1.35348
0.109178 -0.831776 1.44427
-0.0237138 -0.831174 1.36898
-0.0337665 -0.830579 1.3551
-0.152358 -0.83021 1.28598
-0.0470703 -0.829652 1.32963
0.00465923 -0.829142 1.34632
-0.110443 -0.828804 1.27884
-0.142779 -0.828346 1.25328
0.152564 -0.827924 1.39141
-0.103611 -0.827633 1.25322
-0.148081 -0.827266 1.22122
-0.0868268 -0.826936 1.24193
0.155819 -0.826831 1.35234
0.0895286 -0.826575 1.30895
0.121233 -0.826368 1.31435
0.234212 -0.826169 1.36036
0.12162 -0.825992 1.29349
0.156863 -0.825849 1.30038
0.154504 -0.825744 1.2883
0.0324969 -0.825676 1.21623
-0.0156486 -0.825747 1.18046
-0.268861 -0.825734 1.04254
-0.0867747 -0.825872 1.12156
-0.281005 -0.825994 1.01249
0.212768 -0.826088 1.24756
0.098658 -0.826393 1.1777
-8.84727e-05 -0.826734 1.11533
-0.00316821 -0.827119 1.10059
-0.0698266 -0.827753 1.05286
0.123903 -0.828451 1.13501
0.207658 -0.829479 1.16059
0.350771 -0.830316 1.21672
0.211752 -0.832315 1.12622
0.232683 -0.844182 1.60492
0.340548 -0.837673 1.6742
0.149413 -0.835517 1.57592
0.0773448 -0.833181 1.538
0.0861739 -0.831638 1.53725
0.22112 -0.830115 1.59952
-0.167779 -0.828816 1.39896
0.368764 -0.827703 1.66036
0.141055 -0.82646 1.54022
-0.0306711 -0.82539 1.44737
0.225119 -0.824339 1.56822
-0.0115882 -0.823394 1.4424
0.0297486 -0.822502 1.4554
0.203268 -0.821717 1.53405
0.115792 -0.820957 1.48211
-0.115549 -0.820224 1.35815
0.0812729 -0.819518 1.44816
0.103207 -0.818841 1.45063
-0.108042 -0.818223 1.33626
0.13925 -0.817592 1.45124
-0.127119 -0.816993 1.30927
-0.0690172 -0.816609 1.32859
-0.142652 -0.816059 1.28279
-0.0937753 -0.815541 1.29812
-0.121149 -0.8152 1.27454
-0.0389143 -0.814735 1.30634
0.0355938 -0.814305 1.33413
0.290816 -0.814009 1.45168
0.0315217 -0.813632 1.31235
-0.0784006 -0.813292 1.24754
0.189129 -0.813043 1.37106
-0.16872 -0.812758 1.18206
0.0295307 -0.81251 1.27095
-0.11786 -0.812307 1.1868
0.111085 -0.812115 1.29079
-0.158223 -0.811959 1.14549
-0.0211761 -0.811986 1.20251
-0.0687366 -0.811841 1.16804
-0.13601 -0.811759 1.12342
0.136129 -0.811713 1.24834
0.0978454 -0.811801 1.21741
-0.124981 -0.811907 1.09413
-0.135958 -0.811967 1.07698
0.0938214 -0.812209 1.17935
0.014315 -0.812365 1.12747
0.239299 -0.81288 1.22612
0.0130174 -0.813088 1.1006
0.241141 -0.813716 1.20024
-0.0295173 -0.814409 1.05017
0.138663 -0.815425 1.11793
0.0673266 -0.81654 1.06543
0.278919 -0.819034 1.14763
0.3494 -0.825274 1.67296
0.268754 -0.822391 1.63316
-0.0282904 -0.82027 1.48199
0.36992 -0.818361 1.6776
0.161457 -0.816677 1.56895
0.1912 -0.815556 1.57704
0.234406 -0.814094 1.59336
0.0204103 -0.81286 1.48012
0.159043 -0.811935 1.54189
0.0899086 -0.810951 1.50007
0.262698 -0.809928 1.5794
-0.0774392 -0.809122 1.40135
-0.0660044 -0.808145 1.39986
-0.0739774 -0.807387 1.38772
0.241225 -0.806654 1.53708
-0.0978302 -0.805948 1.35922
0.196685 -0.805269 1.49803
-0.0546981 -0.804653 1.36364
-0.0232612 -0.80402 1.37075
0.207803 -0.803606 1.4767
-0.0191921 -0.802841 1.35522
-0.0516489 -0.802475 1.32922
0.195604 -0.801926 1.44393
0.0223377 -0.801421 1.34819
0.013188 -0.800949 1.33436
0.0625023 -0.800632 1.34907
0.0450162 -0.800212 1.33087
-0.0387428 -0.799827 1.27938
0.140601 -0.799555 1.35892
0.0215632 -0.799224 1.28956
0.0916832 -0.798929 1.31462
0.154668 -0.798703 1.33579
-0.00674219 -0.798463 1.24485
0.0787829 -0.79844 1.27635
-0.151291 -0.798079 1.15165
-0.129243 -0.797929 1.15202
-0.0718098 -0.797816 1.16991
0.0454345 -0.797862 1.21695
0.135809 -0.797802 1.25107
-0.236221 -0.797778 1.05381
-0.0473286 -0.797867 1.13646
0.232049 -0.797895 1.26466
0.0791494 -0.798088 1.17591
0.160407 -0.798356 1.20388
0.0534822 -0.798519 1.13826
-0.0336864 -0.798868 1.0816
0.124677 -0.799275 1.14741
0.307055 -0.79992 1.22405
0.0480119 -0.800625 1.07967
0.16396 -0.801388 1.12247
-0.037324 -0.80249 1.00496
0.253696 -0.804952 1.12681
-0.141449 -0.809621 1.42401
0.343047 -0.807156 1.66524
0.0692275 -0.805269 1.52486
-0.0492601 -0.803405 1.46211
-0.0497067 -0.802291 1.45514
0.23431 -0.800835 1.59195
0.16481 -0.799602 1.55104
0.167899 -0.798541 1.54571
0.148518 -0.797368 1.52967
0.208406 -0.796471 1.55207
-0.0568852 -0.795551 1.41201
0.311392 -0.794771 1.58813
-0.0274572 -0.794014 1.41061
0.226317 -0.793166 1.52983
-0.195946 -0.792448 1.31047
0.0924826 -0.791756 1.44635
-0.0362621 -0.791091 1.37354
-0.00705599 -0.790455 1.3796
0.00334904 -0.789865 1.37607
0.00945061 -0.789275 1.3704
0.0251215 -0.788897 1.36855
-0.272788 -0.788354 1.21069
-0.0790791 -0.787842 1.29851
-0.00912842 -0.787506 1.32364
-0.0881534 -0.787044 1.27489
-0.0170101 -0.786617 1.30107
0.29481 -0.786323 1.44697
0.221916 -0.785764 1.40178
0.189194 -0.785607 1.37478
-0.100677 -0.785175 1.22052
-0.0162912 -0.784889 1.25271
0.195462 -0.784818 1.34756
-0.06619 -0.784615 1.20634
-0.126941 -0.784237 1.16642
0.0056775 -0.784241 1.22135
0.10555 -0.784075 1.26074
-0.046103 -0.783949 1.17417
0.07009 -0.783858 1.22136
0.000591701 -0.783802 1.17553
-0.105023 -0.783957 1.11062
0.270792 -0.783872 1.28759
-0.102668 -0.783902 1.08936
0.133059 -0.784097 1.19491
0.0564912 -0.784382 1.14386
0.0176847 -0.784527 1.11238
-0.00691301 -0.784873 1.087
0.0206276 -0.785278 1.08738
0.0678971 -0.785917 1.09644
0.0592926 -0.786615 1.07725
0.14152 -0.787369 1.10317
0.392777 -0.788457 1.21191
0.0918897 -0.791205 1.03612
0.180603 -0.797178 1.5794
0.333523 -0.794392 1.65643
-0.02954 -0.79197 1.47393
0.230399 -0.790488 1.59883
0.425777 -0.78902 1.69143
-0.158964 -0.787416 1.39462
0.175375 -0.786343 1.55501
0.155337 -0.785091 1.53905
0.0814955 -0.784108 1.49501
-0.0678207 -0.783091 1.41342
0.0434989 -0.782093 1.46208
0.137442 -0.781207 1.50158
0.20062 -0.780453 1.52512
-0.205065 -0.779611 1.31465
0.334022 -0.778894 1.57601
-0.00662947 -0.778202 1.39741
0.191356 -0.777537 1.48803
0.114012 -0.776933 1.44072
-0.324288 -0.776311 1.21303
0.0682481 -0.775904 1.39977
0.0537671 -0.775339 1.38375
-0.0470489 -0.774792 1.3245
0.157963 -0.774275 1.41804
0.0490058 -0.773752 1.35464
0.238046 -0.773285 1.43998
0.0467547 -0.772972 1.33444
0.00878602 -0.772555 1.30607
0.203055 -0.772171 1.39366
-0.207693 -0.771902 1.17822
0.091492 -0.77157 1.31804
-0.256269 -0.771327 1.13397
-0.0502974 -0.771047 1.22696
-0.138483 -0.770803 1.1727
0.196686 -0.770604 1.3299
-0.0300327 -0.770413 1.20613
-0.173639 -0.770242 1.12382
0.132218 -0.770103 1.26609
-0.227977 -0.769999 1.07516
-0.159926 -0.76993 1.09819
-0.0484081 -0.769895 1.14278
-0.273236 -0.769978 1.01861
0.17281 -0.769895 1.23071
0.183727 -0.770042 1.22409
-0.0860005 -0.770263 1.07677
0.241447 -0.770409 1.22841
0.148461 -0.770553 1.16984
-0.102195 -0.770898 1.03141
0.21612 -0.7713 1.17716
0.170105 -0.771932 1.13956
-0.00421178 -0.772623 1.03749
-0.0541143 -0.773629 0.995989
0.143243 -0.774724 1.07762
0.387854 -0.777152 1.17597
0.21318 -0.781956 1.59059
0.111922 -0.779211 1.54062
-0.0586727 -0.777194 1.45277
0.0254285 -0.775578 1.49051
-0.0879558 -0.774149 1.42871
-0.119767 -0.773082 1.40608
0.0797406 -0.771694 1.50061
-0.0469155 -0.77053 1.43108
0.226233 -0.769643 1.56019
-0.0493617 -0.768719 1.41514
-0.12682 -0.767937 1.36852
0.125323 -0.766988 1.48751
0.0849662 -0.766249 1.45929
0.128308 -0.765534 1.47283
0.0513633 -0.764717 1.42673
-0.13806 -0.76404 1.32375
-0.0274544 -0.763389 1.37069
0.186817 -0.762951 1.46846
-0.180348 -0.762186 1.27709
-0.138603 -0.761788 1.28844
-0.0952996 -0.761235 1.30133
0.0104239 -0.7607 1.34535
0.141643 -0.760196 1.402
-0.0260674 -0.759864 1.30835
-0.0112633 -0.759408 1.30658
0.0943638 -0.758984 1.35008
-0.187542 -0.758694 1.19917
-0.0790038 -0.758139 1.24478
-0.021161 -0.757979 1.26313
-0.0679159 -0.757553 1.23049
0.0501363 -0.757442 1.27871
-0.0470274 -0.757044 1.22075
-0.12815 -0.756807 1.17002
0.0787746 -0.756613 1.26311
0.0797816 -0.756429 1.2532
0.110151 -0.756278 1.2578
0.0374435 -0.756303 1.20999
0.117391 -0.756162 1.23934
-0.111197 -0.75608 1.11412
0.0275854 -0.756032 1.17243
0.262557 -0.756017 1.27866
-0.0315627 -0.756036 1.12017
0.0596991 -0.756087 1.15421
0.0699249 -0.756309 1.14685
-0.078548 -0.756454 1.06053
0.060969 -0.756766 1.11733
0.0594844 -0.756941 1.10434
-0.00683243 -0.75734 1.05776
-0.154113 -0.757966 0.969506
-0.0306176 -0.75865 1.01632
0.205101 -0.759643 1.1176
0.237284 -0.760724 1.11662
0.119809 -0.763118 1.03385
0.184432 -0.76946 1.57062
0.524556 -0.766421 1.7429
0.187184 -0.764078 1.57331
0.0690382 -0.762293 1.51084
0.0955266 -0.760876 1.51902
0.150695 -0.759816 1.53993
0.250348 -0.758295 1.58527
0.0414878 -0.757272 1.47406
-0.0876838 -0.756264 1.40266
0.250576 -0.755273 1.56492
0.0202118 -0.754382 1.44243
0.325008 -0.753534 1.58734
-0.032146 -0.752703 1.40122
0.1702 -0.75199 1.49432
0.201201 -0.751365 1.50134
0.148985 -0.750689 1.46702
-0.158191 -0.750037 1.30512
0.103235 -0.749261 1.42814
-0.0521659 -0.748835 1.34108
-0.0578574 -0.748253 1.32965
-0.250715 -0.747698 1.22451
-0.0249126 -0.74716 1.32864
0.0151465 -0.746651 1.33977
0.0609227 -0.746137 1.3538
0.0585766 -0.745856 1.34263
-0.057352 -0.745367 1.27572
-0.0606078 -0.744954 1.26477
-0.0327636 -0.74467 1.26875
-0.0117329 -0.744306 1.26972
-0.175121 -0.743975 1.17834
-0.197816 -0.743733 1.15685
-0.0325094 -0.743452 1.22958
0.239517 -0.743205 1.3555
-0.338124 -0.743007 1.05635
-0.0894804 -0.74281 1.17034
0.0791658 -0.742636 1.24422
0.208778 -0.742475 1.29852
-0.0660032 -0.742347 1.15046
-0.219035 -0.742209 1.06333
-0.0593784 -0.742132 1.13224
-0.0258321 -0.742088 1.13792
-0.0114642 -0.742077 1.13384
-0.19636 -0.742098 1.02996
0.428058 -0.742274 1.32992
-0.0770889 -0.742404 1.06535
-0.0187372 -0.742519 1.08259
0.113588 -0.74283 1.13579
0.32643 -0.743003 1.22995
0.0992776 -0.7434 1.10294
0.0348738 -0.74402 1.0561
0.288544 -0.744695 1.16797
0.0491925 -0.745676 1.03168
0.29632 -0.746742 1.13815
0.147737 -0.749409 1.0381
0.37803 -0.753943 1.66398
0.0157396 -0.751294 1.48356
-0.0945906 -0.749343 1.4259
-0.125484 -0.747937 1.40546
0.156763 -0.746396 1.54226
-0.0169104 -0.745032 1.45032
0.189559 -0.744013 1.54683
0.0825518 -0.742883 1.48718
0.0121549 -0.741901 1.44516
0.0669725 -0.741121 1.4648
-0.185246 -0.740175 1.33174
0.222659 -0.739434 1.52779
0.0587917 -0.73853 1.43877
0.127209 -0.737832 1.46491
0.0805427 -0.737157 1.43342
0.266877 -0.736507 1.51833
0.0221578 -0.735918 1.38743
-0.153085 -0.735307 1.29139
0.174888 -0.734723 1.44685
0.226115 -0.734171 1.4638
-0.057088 -0.73363 1.31349
-0.132626 -0.7331 1.26697
-0.0445465 -0.732758 1.30134
-0.0525154 -0.732278 1.28839
0.0793266 -0.731827 1.34521
0.24271 -0.731408 1.41766
-0.0712022 -0.730944 1.2517
-0.0262621 -0.73075 1.26381
-0.114503 -0.730312 1.21057
0.142468 -0.729991 1.32936
0.0139422 -0.729754 1.25497
-0.0214505 -0.729482 1.22735
-0.426042 -0.729271 1.01481
0.0579136 -0.729049 1.24661
0.0802108 -0.72886 1.24742
-0.241958 -0.728692 1.07589
0.101686 -0.728533 1.23723
0.00742281 -0.72841 1.17942
-0.10709 -0.728321 1.11132
-0.0231803 -0.728265 1.14226
-0.115023 -0.72824 1.08516
-0.0371684 -0.728248 1.11273
0.264203 -0.728288 1.2519
-0.126083 -0.728402 1.04483
0.0420723 -0.728358 1.11783
0.0186514 -0.728603 1.09349
-0.0978667 -0.728912 1.02224
0.301145 -0.729085 1.20949
-0.0542112 -0.729479 1.01836
-0.0905602 -0.729881 0.986661
0.060626 -0.73076 1.04613
0.318915 -0.731478 1.15999
0.202301 -0.73278 1.08319
0.251596 -0.734649 1.08618
0.181438 -0.742586 1.55449
0.05377 -0.73882 1.4969
0.201497 -0.736216 1.57156
0.37161 -0.734491 1.65327
-0.0251875 -0.733119 1.44987
0.122355 -0.731765 1.51859
-0.0113524 -0.730753 1.44508
-0.129786 -0.729625 1.3798
-0.076764 -0.728645 1.39956
-0.0328059 -0.727572 1.41527
0.209608 -0.726918 1.52819
0.0808457 -0.725898 1.45734
0.00716057 -0.725181 1.41256
0.0436347 -0.724377 1.42332
0.00906977 -0.723695 1.39798
0.0430885 -0.723035 1.40684
0.00937892 -0.722399 1.38173
0.035525 -0.721788 1.38645
0.0163513 -0.721223 1.3683
-0.126249 -0.720653 1.28847
0.167919 -0.72011 1.42691
0.019385 -0.719581 1.34395
0.098111 -0.719239 1.37367
0.0706296 -0.718754 1.35104
0.0977844 -0.718299 1.35558
-0.0717529 -0.717819 1.26193
0.346028 -0.717523 1.46099
0.00904632 -0.717131 1.28319
-0.0724569 -0.716769 1.23297
-0.0366897 -0.716514 1.24085
-0.269756 -0.7162 1.11462
0.0434645 -0.715919 1.26138
-0.0786444 -0.715533 1.19103
-0.0120555 -0.715472 1.21333
-0.0360699 -0.715112 1.19191
0.0712567 -0.71493 1.23523
0.0572823 -0.714766 1.2178
-0.1205 -0.714633 1.11831
0.00571487 -0.714532 1.17066
0.130818 -0.71441 1.22256
-0.127159 -0.714358 1.08255
0.186293 -0.714337 1.22809
-0.0606729 -0.714348 1.09324
-0.12833 -0.714448 1.04757
0.282474 -0.71439 1.24199
0.0483261 -0.714462 1.11321
-0.079874 -0.714708 1.03646
-0.103816 -0.715015 1.0115
-0.0533976 -0.715187 1.02444
0.302316 -0.715577 1.18882
0.255776 -0.715976 1.15202
-0.0641143 -0.716844 0.975913
-0.0125287 -0.717154 0.988632
0.369169 -0.71857 1.1602
0.0805883 -0.720677 0.992713
0.191885 -0.726292 1.56034
0.180485 -0.723743 1.55539
0.0463247 -0.721857 1.48588
0.174602 -0.720164 1.54671
-0.025741 -0.718817 1.44157
0.152775 -0.717354 1.52648
0.071738 -0.716366 1.47931
0.129186 -0.715391 1.50134
-0.0763481 -0.714316 1.39241
-0.0432842 -0.713379 1.40213
0.198184 -0.712639 1.51508
0.0935702 -0.711738 1.45584
-0.0611192 -0.711038 1.37057
0.101557 -0.710357 1.4439
-0.0938165 -0.709578 1.33873
-0.270643 -0.708933 1.24217
-0.139457 -0.708312 1.29952
-0.0554466 -0.707892 1.33227
-0.0259891 -0.70716 1.33936
-0.200703 -0.70678 1.24258
-0.191004 -0.706246 1.2388
-0.157399 -0.70573 1.2469
-0.291607 -0.705242 1.17097
-0.196884 -0.704747 1.20956
0.0332346 -0.704435 1.3149
0.083293 -0.704006 1.33084
-0.143854 -0.703608 1.20802
0.0197407 -0.703334 1.27993
-0.0128167 -0.702982 1.25419
-0.0975098 -0.70256 1.20276
-0.0295613 -0.702256 1.22703
-0.0541049 -0.702031 1.20465
0.104003 -0.701774 1.27377
0.0684712 -0.70155 1.24591
0.102972 -0.701365 1.25285
0.0273918 -0.701189 1.20471
-0.138727 -0.701021 1.11126
0.0143005 -0.700734 1.17804
0.061781 -0.700766 1.19031
0.108729 -0.700639 1.20319
0.0841318 -0.700472 1.18052
0.0831482 -0.700542 1.16835
0.0115468 -0.700455 1.12174
0.0169521 -0.700469 1.11307
0.0169335 -0.700513 1.10153
-0.0755202 -0.700587 1.04359
-0.165743 -0.700832 0.985812
0.0272829 -0.701137 1.06931
0.0952451 -0.701309 1.09102
0.0914226 -0.701508 1.07668
-0.288043 -0.70209 0.872338
0.463424 -0.702569 1.23403
0.00654716 -0.703254 0.990359
0.335974 -0.704238 1.1381
-0.0927236 -0.706003 0.902275
0.147349 -0.711221 1.53317
0.113885 -0.708714 1.51728
-0.0530685 -0.707046 1.43052
0.177762 -0.705395 1.54262
0.0508932 -0.704085 1.4742
0.0488086 -0.703105 1.46655
0.00455351 -0.702013 1.43842
0.248604 -0.701062 1.55375
-0.134284 -0.700127 1.35557
0.145022 -0.699386 1.48752
-0.0192001 -0.698395 1.39901
0.0956614 -0.697778 1.44815
0.0637919 -0.696915 1.42522
0.195169 -0.69625 1.48291
0.259975 -0.695607 1.50722
-0.076905 -0.694987 1.33059
0.0849267 -0.69439 1.40322
-0.0253385 -0.693839 1.33958
0.0194931 -0.69328 1.35354
0.0483739 -0.692748 1.3594
0.0156186 -0.692226 1.33441
-0.124382 -0.691723 1.25572
0.0538778 -0.691395 1.33524
-0.0120928 -0.690934 1.29336
0.152737 -0.690501 1.36675
-0.135565 -0.690039 1.21375
0.00657636 -0.689651 1.27557
0.280365 -0.689384 1.40259
-0.269828 -0.689042 1.11803
0.00768286 -0.688798 1.24679
-0.0492409 -0.688502 1.20863
-0.0911113 -0.688237 1.17784
-0.0180456 -0.687865 1.20511
0.16626 -0.687669 1.28704
-0.0686778 -0.687469 1.15939
0.137083 -0.687297 1.25193
0.0150395 -0.687143 1.18047
0.209025 -0.686996 1.267
0.0741288 -0.68689 1.18886
-0.00279428 -0.686766 1.1398
-0.0787367 -0.686707 1.09088
-0.0972922 -0.686678 1.07049
-0.0771155 -0.686594 1.06977
0.0237963 -0.686611 1.10885
0.0308473 -0.686657 1.10083
0.131927 -0.686732 1.13966
-0.0646845 -0.686978 1.02866
0.0617126 -0.687123 1.07974
0.164953 -0.687284 1.11914
0.126532 -0.687649 1.08653
0.0284243 -0.688027 1.02399
0.261111 -0.688483 1.12638
0.0597762 -0.689143 1.01055
-0.125453 -0.690094 0.901047
0.228845 -0.691807 1.05681
0.106199 -0.699448 1.50293
0.0365246 -0.695874 1.47458
-0.0438434 -0.694233 1.43113
0.281073 -0.692423 1.59123
0.282622 -0.691123 1.58709
-0.0453382 -0.690016 1.41725
0.317586 -0.688754 1.59368
0.184722 -0.687809 1.52062
-0.0662407 -0.686769 1.38904
0.0836633 -0.685859 1.45724
-0.0861361 -0.685141 1.36461
0.0444167 -0.684266 1.42302
-0.0364303 -0.683585 1.37472
0.108564 -0.682924 1.43927
0.219437 -0.682165 1.4873
0.0388986 -0.681537 1.38895
0.139931 -0.680931 1.43129
-0.132252 -0.680377 1.28676
-0.251194 -0.679807 1.21895
-0.00705547 -0.679273 1.33252
0.133914 -0.678742 1.39449
0.163363 -0.6784 1.3997
0.107659 -0.677909 1.36316
0.00580871 -0.677445 1.30341
-0.0673856 -0.676968 1.25808
0.05172 -0.676547 1.30861
-0.105066 -0.676263 1.22045
0.0745718 -0.675885 1.30102
-0.00975984 -0.675537 1.24947
-0.0365649 -0.675291 1.22612
0.0559002 -0.674885 1.2633
-0.0614418 -0.674599 1.19493
0.142946 -0.674384 1.28703
-0.165384 -0.674143 1.12292
0.0948466 -0.673933 1.24293
-0.207976 -0.673594 1.08215
-0.103951 -0.67359 1.1229
0.0200354 -0.673279 1.17538
-0.136262 -0.673163 1.08662
-0.377079 -0.673035 0.955664
0.0615298 -0.672965 1.1641
0.0145815 -0.67286 1.12995
-0.0226954 -0.672835 1.10019
-0.140413 -0.67284 1.03003
-0.225897 -0.672773 0.976405
0.20644 -0.672822 1.18102
-0.0631329 -0.672899 1.03451
-0.0263187 -0.673144 1.04021
-0.183862 -0.673289 0.94931
0.162079 -0.673449 1.11006
-0.0811505 -0.673633 0.976078
0.0176395 -0.674185 1.01091
-0.0909611 -0.674429 0.94387
0.120048 -0.675287 1.03296
0.306342 -0.676224 1.10919
-0.0618427 -0.677233 0.907719
0.164091 -0.684423 1.52697
0.160024 -0.681532 1.52831
0.0837341 -0.679296 1.49021
0.306302 -0.678013 1.59662
0.143779 -0.676743 1.51045
0.0240773 -0.675492 1.44565
0.0554506 -0.674553 1.45476
-0.105704 -0.673516 1.36817
0.059185 -0.67261 1.44394
0.142416 -0.671892 1.4779
0.0725297 -0.671017 1.43617
-0.0378266 -0.670332 1.37321
-0.178135 -0.669494 1.29613
-0.00744151 -0.668848 1.37354
0.173437 -0.668222 1.45595
0.0447129 -0.66766 1.38323
-0.0635606 -0.667068 1.32093
-0.186457 -0.666499 1.2512
0.10425 -0.665968 1.38809
-0.104956 -0.665436 1.27504
0.16339 -0.664926 1.40067
-0.132157 -0.664433 1.24427
-0.0613865 -0.663944 1.27103
0.0624828 -0.66363 1.32337
0.117637 -0.663192 1.34206
0.00169956 -0.662782 1.27507
-0.0949569 -0.662337 1.21793
-0.224555 -0.661971 1.14388
-0.00747708 -0.661715 1.24256
-0.328352 -0.661392 1.07265
-0.140725 -0.66116 1.1565
-0.0562764 -0.660881 1.18902
0.107102 -0.660508 1.26156
0.138152 -0.660275 1.26713
0.158795 -0.660089 1.26725
-0.0339288 -0.659902 1.16069
0.113752 -0.659739 1.2242
-0.217831 -0.659584 1.04804
-0.189784 -0.659437 1.05166
0.120176 -0.659202 1.19674
0.0722564 -0.659136 1.16191
0.112509 -0.659035 1.17137
-0.158854 -0.659014 1.02455
0.273493 -0.659022 1.22942
0.0708 -0.658958 1.11719
0.137721 -0.659008 1.13909
-0.141798 -0.659087 0.987606
-0.151923 -0.659192 0.970649
-0.221274 -0.659332 0.92387
0.0110316 -0.659477 1.02788
-0.00856875 -0.659818 1.00475
-0.0431916 -0.660176 0.973995
-0.000846383 -0.660605 0.98128
0.0869573 -0.661232 1.01007
0.143689 -0.661755 1.02394
0.115883 -0.662715 0.992835
0.298918 -0.665392 1.05656
0.210984 -0.669133 1.54724
0.485986 -0.666769 1.68569
0.0602729 -0.665195 1.46963
0.13785 -0.663765 1.5045
-0.0163929 -0.662521 1.42251
-0.000894623 -0.661178 1.42597
0.0526765 -0.660264 1.44618
-0.0168432 -0.659362 1.40481
-0.16352 -0.658645 1.32389
-0.0565813 -0.657772 1.37066
-0.00170063 -0.657086 1.3904
0.0215871 -0.656246 1.39521
-0.0149808 -0.655596 1.36908
-0.0573728 -0.654964 1.33996
-0.306686 -0.654232 1.20795
0.080084 -0.653633 1.39327
0.170586 -0.653055 1.43036
0.0802561 -0.6525 1.37693
-0.0729083 -0.65198 1.2919
0.0264118 -0.651461 1.33312
0.037904 -0.650961 1.33034
-0.175332 -0.650634 1.21423
0.10333 -0.650168 1.34488
0.0297667 -0.649727 1.29928
0.295116 -0.649269 1.42326
-0.155692 -0.649035 1.18788
0.0532597 -0.648599 1.28355
0.0835165 -0.648242 1.28944
0.0183403 -0.647829 1.24795
-0.0976192 -0.647679 1.17955
-0.128672 -0.647289 1.155
-0.0324884 -0.64702 1.19339
-0.119982 -0.646816 1.13956
-0.303084 -0.64659 1.03806
-0.0757753 -0.646249 1.14246
-0.0688812 -0.646228 1.13476
-0.206024 -0.645911 1.05681
0.163687 -0.64576 1.2313
-0.00150352 -0.64564 1.13817
0.0530584 -0.645512 1.15496
-0.395403 -0.645392 0.920198
0.0266613 -0.645233 1.12094
0.133083 -0.645298 1.1625
-0.028047 -0.645215 1.07119
0.0521701 -0.645164 1.10036
0.0476273 -0.645217 1.08652
0.0667573 -0.645296 1.08435
-0.0745781 -0.645402 1.00178
-0.133141 -0.645535 0.960429
0.0299785 -0.645686 1.0298
0.170697 -0.645855 1.08785
-0.16271 -0.646229 0.907569
-0.0944426 -0.646606 0.928092
-0.145204 -0.647062 0.888591
0.18162 -0.64771 1.03666
0.018899 -0.648881 0.936661
0.08757 -0.650558 0.949126
0.1926 -0.65755 1.52679
-0.0488321 -0.654199 1.41263
0.209968 -0.652182 1.5414
0.0659324 -0.650643 1.46621
0.107584 -0.649416 1.48221
0.186796 -0.648203 1.51695
0.204584 -0.647291 1.51935
-0.00425029 -0.646283 1.40901
-0.0201845 -0.6454 1.39447
0.0987216 -0.644438 1.44781
0.200133 -0.64359 1.49179
0.1802 -0.642928 1.4741
-0.0264931 -0.642351 1.36256
-0.0464759 -0.641488 1.34603
0.0820316 -0.640931 1.40202
0.158837 -0.640335 1.43241
-0.00717571 -0.639759 1.3413
-0.00723782 -0.639231 1.33291
0.0910917 -0.638689 1.37381
-0.125642 -0.638171 1.25707
0.0708904 -0.637674 1.34685
-0.163072 -0.637183 1.22136
0.183503 -0.636716 1.38603
0.138467 -0.636246 1.35493
0.048095 -0.63598 1.29997
0.0649391 -0.635532 1.29971
-0.331653 -0.635143 1.09239
0.0659828 -0.634717 1.28242
0.0909287 -0.634531 1.2847
0.120252 -0.634127 1.29047
-0.0468202 -0.633823 1.19746
-0.128584 -0.633602 1.14662
-0.0133705 -0.63334 1.19452
-0.0740798 -0.632983 1.15504
-0.192993 -0.632791 1.08547
0.0405726 -0.632589 1.19222
-0.192098 -0.632415 1.06568
-0.117879 -0.632105 1.09342
0.12635 -0.631958 1.20518
0.104008 -0.631844 1.18346
-0.271685 -0.63172 0.98513
-0.167624 -0.631649 1.02636
-0.00450676 -0.631547 1.0973
-0.140228 -0.631452 1.01879
0.135258 -0.631438 1.14538
0.00874308 -0.631451 1.0708
0.105434 -0.631392 1.10827
-0.182939 -0.631447 0.952509
0.116394 -0.631528 1.09043
-0.204712 -0.631635 0.917961
0.0491172 -0.631767 1.0328
0.143028 -0.631924 1.06752
-0.0195245 -0.632277 0.972747
0.00954404 -0.632638 0.973726
0.139439 -0.633073 1.02463
0.215025 -0.633916 1.04576
0.294113 -0.63422 1.07207
-0.0419672 -0.636059 0.880894
0.0595833 -0.642326 1.45707
0.177402 -0.639608 1.51947
-0.117355 -0.6378 1.37058
0.369382 -0.636588 1.60917
-0.224993 -0.6351 1.3088
0.242182 -0.633918 1.53752
-0.0142411 -0.633031 1.40282
0.288961 -0.632154 1.5479
0.0759272 -0.631195 1.43537
0.12084 -0.630516 1.45024
0.0435184 -0.629687 1.40488
-0.0936717 -0.629039 1.32857
-0.162879 -0.628244 1.28713
0.050307 -0.627632 1.38585
0.096799 -0.627087 1.40086
-0.0844294 -0.626504 1.30224
0.106943 -0.625811 1.3906
-0.112088 -0.625262 1.27293
-0.115799 -0.624897 1.26186
-0.142717 -0.624391 1.24003
-0.105738 -0.623904 1.25006
0.136875 -0.623424 1.36288
-0.114186 -0.622968 1.22873
-0.244959 -0.622508 1.15477
0.102102 -0.622091 1.31949
0.143942 -0.621812 1.33078
-0.190523 -0.621435 1.15452
-0.0208749 -0.621017 1.23058
-0.181345 -0.620766 1.14058
0.169626 -0.620443 1.30675
0.197163 -0.620055 1.31161
-0.218511 -0.619775 1.09422
0.126114 -0.619567 1.25654
-0.143445 -0.619329 1.11197
-0.0408803 -0.618987 1.15411
0.0381354 -0.618947 1.18261
-0.398378 -0.618628 0.955088
0.0769878 -0.618471 1.1825
-0.391437 -0.618322 0.937983
-0.180104 -0.618198 1.03318
-0.368286 -0.617951 0.929412
-0.140754 -0.617884 1.03237
-0.373039 -0.617786 0.905615
-0.178756 -0.617694 0.992106
0.130764 -0.617683 1.13571
0.0589734 -0.617613 1.08903
-0.269303 -0.617643 0.913476
-0.39323 -0.6177 0.839924
0.0432739 -0.617663 1.04718
0.394905 -0.617759 1.21115
0.0755981 -0.617879 1.03949
0.126365 -0.618023 1.05271
0.103109 -0.618357 1.02768
0.19628 -0.61874 1.06052
0.265062 -0.619117 1.0812
0.0827153 -0.619371 0.977105
0.348985 -0.62022 1.0934
0.202257 -0.621374 1.00115
-0.158806 -0.624209 0.790558
0.0677664 -0.627436 1.45646
0.295484 -0.625218 1.57135
0.190814 -0.623573 1.51685
0.173225 -0.622102 1.50494
-0.0656699 -0.620931 1.3807
0.0352716 -0.619939 1.42539
-0.125887 -0.618804 1.33989
-0.168937 -0.617952 1.31185
-0.0469842 -0.617276 1.3653
0.0783452 -0.61645 1.42135
-0.139062 -0.615802 1.30501
0.0234118 -0.615007 1.3795
-0.0858352 -0.614392 1.3171
-0.0547364 -0.613848 1.32448
-0.255727 -0.613055 1.21731
-0.115952 -0.612531 1.27894
0.0449215 -0.611984 1.35129
0.0535023 -0.611458 1.34738
-0.107621 -0.610963 1.25845
-0.151985 -0.610471 1.2279
0.0333574 -0.609994 1.31212
-0.203552 -0.609524 1.1852
-0.090946 -0.60922 1.23204
-0.176598 -0.60879 1.18054
-0.167351 -0.608384 1.17635
0.101296 -0.607954 1.30203
0.0297679 -0.607689 1.25661
0.0530688 -0.607336 1.25917
0.071401 -0.606935 1.25955
-0.0716018 -0.606622 1.17873
-0.0425344 -0.606398 1.1834
0.00745124 -0.606126 1.19883
-0.178322 -0.605769 1.09694
-0.212248 -0.605574 1.06996
-0.0476413 -0.605358 1.14238
0.231072 -0.60517 1.27169
-0.122673 -0.60501 1.08459
0.0855967 -0.604706 1.17943
0.085091 -0.604575 1.16879
0.151151 -0.604444 1.19143
0.0515322 -0.604321 1.1312
-0.0562567 -0.604204 1.06683
0.116029 -0.604047 1.14277
-0.115407 -0.603959 1.0164
-0.0253505 -0.603952 1.05026
0.0909152 -0.603884 1.09762
-0.181724 -0.603917 0.949874
0.0410288 -0.603869 1.05035
0.0243849 -0.603941 1.03034
-0.0180503 -0.604037 0.997271
-0.210498 -0.604157 0.889031
0.234274 -0.604301 1.09924
0.0737596 -0.604468 1.00664
0.0498834 -0.604831 0.981051
0.106014 -0.605194 0.995454
-0.00583532 -0.605632 0.92534
0.0682131 -0.606113 0.947877
0.262228 -0.606771 1.02918
0.00808712 -0.608571 0.878636
0.360511 -0.612591 1.59822
0.129328 -0.610699 1.4821
0.0568659 -0.608973 1.44444
0.0810244 -0.607818 1.45177
0.139734 -0.606677 1.47635
0.426312 -0.605818 1.61322
0.00889647 -0.60487 1.39867
-0.145675 -0.604036 1.31488
0.0944851 -0.603215 1.42842
0.104398 -0.602568 1.42582
0.0536355 -0.601776 1.39378
0.112208 -0.601159 1.41538
0.249906 -0.600399 1.47743
-0.174311 -0.599817 1.25747
-0.0844197 -0.599294 1.29423
-0.0236344 -0.598741 1.31663
-0.096717 -0.598207 1.27201
-0.130817 -0.597711 1.24666
-0.00325454 -0.59721 1.3022
-0.275365 -0.596731 1.15778
0.0821318 -0.59626 1.32813
0.379341 -0.595805 1.46826
0.214757 -0.595508 1.37651
-0.0647989 -0.595089 1.22806
-0.330604 -0.594656 1.08659
-0.380838 -0.594275 1.0526
-0.0820143 -0.593861 1.19335
0.0661135 -0.593673 1.25734
-0.224796 -0.593281 1.10311
0.0148465 -0.592977 1.21361
-0.0351315 -0.592759 1.17876
-0.131422 -0.592396 1.1217
-0.112651 -0.592147 1.12145
0.185688 -0.591957 1.26061
-0.0155799 -0.591748 1.15009
-0.0615933 -0.591429 1.11793
0.0925147 -0.591268 1.18481
0.19803 -0.591113 1.22735
0.228724 -0.590965 1.23245
0.165177 -0.590714 1.19111
-0.191444 -0.590594 1.00238
-0.205873 -0.590482 0.984695
0.093755 -0.590424 1.12368
-0.166763 -0.590248 0.98339
-0.00949438 -0.590315 1.05037
-0.215439 -0.590179 0.937102
0.0337419 -0.590121 1.05088
0.0633875 -0.590168 1.05418
-0.377962 -0.590241 0.821807
-0.0195264 -0.590215 0.989995
0.156204 -0.590324 1.06591
0.138446 -0.590456 1.04493
0.0278681 -0.590611 0.977367
0.00368899 -0.590788 0.95285
0.0219551 -0.591164 0.94819
0.0814412 -0.591721 0.962867
0.115729 -0.591977 0.967006
0.172742 -0.592816 0.97846
0.258089 -0.593949 1.00201
0.195841 -0.601562 1.50043
-0.0374848 -0.598502 1.39045
0.198863 -0.596376 1.5098
-0.167662 -0.594964 1.32349
0.0731504 -0.593835 1.43918
-0.0779439 -0.592719 1.35888
0.100057 -0.591622 1.44307
-0.112988 -0.591049 1.32856
0.0897216 -0.590139 1.42402
-0.15684 -0.589337 1.29422
0.0268303 -0.588548 1.37948
-0.167708 -0.587931 1.27461
-0.217377 -0.587172 1.24307
0.0424661 -0.586588 1.36524
0.228466 -0.58602 1.4504
-0.0597092 -0.585509 1.29814
-0.106955 -0.584969 1.26654
0.0224022 -0.584449 1.32314
-0.155289 -0.583965 1.22602
-0.405064 -0.583476 1.09289
-0.104219 -0.583009 1.23496
-0.19964 -0.582547 1.17888
-0.0980805 -0.582105 1.22118
0.0516497 -0.581662 1.28759
0.129096 -0.581379 1.31685
-0.260998 -0.580984 1.11306
-0.124027 -0.580614 1.17267
0.0818078 -0.58021 1.26694
-0.165247 -0.579965 1.13374
-0.243117 -0.579645 1.08564
0.00179141 -0.57927 1.19931
0.015594 -0.578989 1.1968
-0.039672 -0.578784 1.15928
0.210842 -0.578543 1.2749
-0.109842 -0.57821 1.10554
-0.345879 -0.578032 0.977475
-0.137567 -0.577845 1.07166
-0.0162898 -0.577541 1.12311
-0.199458 -0.577391 1.02132
-0.0939107 -0.577248 1.06385
-0.0423779 -0.577129 1.07921
-0.126642 -0.577007 1.0267
-0.106791 -0.576782 1.02695
0.0471447 -0.576681 1.09341
-0.0660226 -0.576641 1.0259
0.0216511 -0.576559 1.0591
-0.144479 -0.576484 0.96536
0.00371332 -0.576441 1.02856
-0.0437549 -0.57649 0.993293
-0.359997 -0.576454 0.824232
0.0463864 -0.57654 1.01563
0.0815621 -0.576522 1.02215
-0.0242804 -0.576643 0.957191
0.0288814 -0.576786 0.97157
-0.183387 -0.576952 0.853074
0.061272 -0.577138 0.962888
-0.0760175 -0.577524 0.880312
0.157162 -0.578087 0.981698
