ply
format ascii 1.0
comment Created by Open3D
element vertex 1729
property double x
property double y
property double z
end_header
-1.41286 -2.9153 -0.354951
-1.41611 -2.91298 -0.361856
-1.42083 -2.91016 -0.368686
-1.42095 -2.9089 -0.375704
-1.42178 -2.9074 -0.382684
-1.42669 -2.90452 -0.389471
-1.43151 -2.90168 -0.396249
-1.43178 -2.90038 -0.403228
-1.43199 -2.89909 -0.410202
-1.43588 -2.89657 -0.416992
-1.43944 -2.89416 -0.423786
-1.43941 -2.89296 -0.430749
-1.44548 -2.88971 -0.437394
-1.44534 -2.88855 -0.444345
-1.45038 -2.88564 -0.451018
-1.45363 -2.88335 -0.457774
-1.45348 -2.8822 -0.464703
-1.45773 -2.87957 -0.471384
-1.46103 -2.87726 -0.478105
-1.4609 -2.87611 -0.48501
-1.4646 -2.87366 -0.491688
-1.46798 -2.87133 -0.498374
-1.4679 -2.87017 -0.505254
-1.35241 -2.95493 -0.185465
-1.35319 -2.95341 -0.192684
-1.35724 -2.95078 -0.199819
-1.35846 -2.94912 -0.207009
-1.36244 -2.94652 -0.214123
-1.36647 -2.9439 -0.221223
-1.36779 -2.94221 -0.228381
-1.37175 -2.93961 -0.235459
-1.37332 -2.93784 -0.242592
-1.37721 -2.93528 -0.249649
-1.38115 -2.9327 -0.256692
-1.37918 -2.93214 -0.263904
-1.38675 -2.92833 -0.270812
-1.38688 -2.92705 -0.277942
-1.38897 -2.92511 -0.285001
-1.39275 -2.9226 -0.291994
-1.39537 -2.92048 -0.299014
-1.39907 -2.918 -0.305986
-1.40278 -2.91551 -0.312945
-1.40243 -2.91441 -0.320043
-1.4061 -2.91194 -0.326983
-1.40614 -2.91071 -0.334053
-1.41059 -2.90798 -0.340941
-1.4144 -2.90547 -0.347842
-1.41674 -2.90346 -0.354791
-1.42107 -2.90078 -0.361647
-1.42155 -2.89941 -0.368655
-1.4259 -2.89673 -0.375487
-1.42628 -2.89539 -0.382483
-1.42721 -2.89386 -0.389448
-1.4319 -2.89107 -0.396231
-1.43577 -2.88856 -0.40304
-1.43906 -2.88624 -0.409864
-1.43896 -2.88507 -0.416842
-1.4423 -2.88275 -0.423644
-1.44747 -2.8798 -0.430343
-1.4473 -2.87866 -0.4373
-1.45481 -2.87493 -0.443854
-1.45468 -2.87378 -0.450792
-1.45456 -2.87263 -0.457724
-1.46143 -2.86912 -0.46427
-1.46136 -2.86795 -0.471183
-1.46477 -2.86562 -0.477896
-1.46778 -2.86341 -0.484619
-1.46777 -2.86223 -0.491506
-1.47128 -2.85986 -0.498182
-1.474 -2.85776 -0.504893
-1.35533 -2.94447 -0.178163
-1.35606 -2.94298 -0.185387
-1.36025 -2.94031 -0.192526
-1.36054 -2.93897 -0.199743
-1.36523 -2.93613 -0.206847
-1.36943 -2.93346 -0.21395
-1.29324 -2.95811 -0.223099
-1.37446 -2.92928 -0.228205
-1.37473 -2.92795 -0.235378
-1.37577 -2.92636 -0.242523
-1.38374 -2.92243 -0.24946
-1.23991 -2.96996 -0.260899
-1.38514 -2.91949 -0.263721
-1.38921 -2.91689 -0.270735
-1.39065 -2.91517 -0.277821
-1.3946 -2.91261 -0.284815
-1.3948 -2.91132 -0.291925
-1.4003 -2.90823 -0.298843
-1.40419 -2.9057 -0.305804
-1.17455 -2.98207 -0.321253
-1.40652 -2.90247 -0.319891
-1.41029 -2.89998 -0.326824
-1.41341 -2.89771 -0.33377
-1.4171 -2.89525 -0.340682
-1.41714 -2.89402 -0.34773
-1.42204 -2.89116 -0.354572
-1.42613 -2.88857 -0.361433
-1.42573 -2.8875 -0.368475
-1.4309 -2.88455 -0.375268
-1.43131 -2.8832 -0.382259
-1.43567 -2.88053 -0.389063
-1.43568 -2.87933 -0.396056
-1.43915 -2.87696 -0.402881
-1.44458 -2.87393 -0.4096
-1.44441 -2.87279 -0.416577
-1.44424 -2.87165 -0.423548
-1.45162 -2.86798 -0.430134
-1.4515 -2.86682 -0.437086
-1.45807 -2.86342 -0.443684
-1.45804 -2.86224 -0.450615
-1.46412 -2.85901 -0.457212
-1.46417 -2.85781 -0.464121
-1.46421 -2.85661 -0.471026
-1.47007 -2.85346 -0.477599
-1.47017 -2.85224 -0.484483
-1.47388 -2.84981 -0.491154
-1.47598 -2.84793 -0.497907
-1.47981 -2.84547 -0.504549
-1.35936 -2.9324 -0.17808
-1.35967 -2.93105 -0.18531
-1.36407 -2.92832 -0.192441
-1.36451 -2.92694 -0.199651
-1.36885 -2.92423 -0.20676
-1.37329 -2.92149 -0.213854
-1.37371 -2.92011 -0.221037
-1.37808 -2.9174 -0.228109
-1.37866 -2.91597 -0.235271
-1.38296 -2.91329 -0.242321
-1.38737 -2.91057 -0.249355
-1.38795 -2.90915 -0.25649
-1.39226 -2.90647 -0.263503
-1.39266 -2.90511 -0.270626
-1.39729 -2.90233 -0.277607
-1.40162 -2.89965 -0.284583
-1.39863 -2.89944 -0.291794
-1.40276 -2.89683 -0.298758
-1.40703 -2.89417 -0.305703
-1.40815 -2.89258 -0.31275
-1.41223 -2.88999 -0.319679
-1.41399 -2.88819 -0.326683
-1.41784 -2.88568 -0.333598
-1.42179 -2.88314 -0.340496
-1.42078 -2.88227 -0.347583
-1.42448 -2.87983 -0.354471
-1.42818 -2.87738 -0.361347
-1.43063 -2.87535 -0.368265
-1.43142 -2.87388 -0.375245
-1.43853 -2.8703 -0.381937
-1.43834 -2.86916 -0.388942
-1.44155 -2.86689 -0.395785
-1.44498 -2.86455 -0.402607
-1.44494 -2.86336 -0.409582
-1.44837 -2.86102 -0.416384
-1.45081 -2.85901 -0.423223
-1.45451 -2.85658 -0.429988
-1.46011 -2.85352 -0.436645
-1.46028 -2.85228 -0.44357
-1.4604 -2.85105 -0.45049
-1.46584 -2.84804 -0.45712
-1.46605 -2.84679 -0.464019
-1.46994 -2.84431 -0.47071
-1.47158 -2.84258 -0.477514
-1.4756 -2.84006 -0.484175
-1.48089 -2.83712 -0.49075
-1.48118 -2.83584 -0.497603
-1.48143 -2.83458 -0.504452
-1.3596 -2.92285 -0.170833
-1.36399 -2.92013 -0.177985
-1.3639 -2.91893 -0.185219
-1.36856 -2.91612 -0.192341
-1.36911 -2.9147 -0.199545
-1.37317 -2.9121 -0.206657
-1.37791 -2.90927 -0.213739
-1.37784 -2.90806 -0.220931
-1.38253 -2.90526 -0.227991
-1.38311 -2.90383 -0.235149
-1.38719 -2.90123 -0.242202
-1.39198 -2.8984 -0.249222
-1.39192 -2.8972 -0.256372
-1.39663 -2.89439 -0.263369
-1.39726 -2.89296 -0.270482
-1.40134 -2.89037 -0.277476
-1.4062 -2.88753 -0.284431
-1.40613 -2.88634 -0.29154
-1.41088 -2.88353 -0.298475
-1.41158 -2.88208 -0.305541
-1.41563 -2.87951 -0.312477
-1.41626 -2.87809 -0.319529
-1.41702 -2.87663 -0.326568
-1.42103 -2.87408 -0.333474
-1.42618 -2.87115 -0.340322
-1.42598 -2.87002 -0.347372
-1.43085 -2.86719 -0.354208
-1.43234 -2.86548 -0.361171
-1.43579 -2.86313 -0.368043
-1.43924 -2.86078 -0.374903
-1.44051 -2.85916 -0.381848
-1.44104 -2.85779 -0.388819
-1.4455 -2.85511 -0.395602
-1.45017 -2.85236 -0.402362
-1.45047 -2.85107 -0.409318
-1.45533 -2.84826 -0.416045
-1.45575 -2.84693 -0.422978
-1.46046 -2.84418 -0.429689
-1.46096 -2.84282 -0.436602
-1.46138 -2.8415 -0.443512
-1.46614 -2.83873 -0.450188
-1.4706 -2.83607 -0.456865
-1.47539 -2.83329 -0.463511
-1.47587 -2.83196 -0.470382
-1.4763 -2.83064 -0.47725
-1.48113 -2.82786 -0.483861
-1.48161 -2.82652 -0.490709
-1.48205 -2.82521 -0.497553
-1.4869 -2.82242 -0.504129
-1.3643 -2.91056 -0.17074
-1.36494 -2.90911 -0.177965
-1.3688 -2.90658 -0.185114
-1.37376 -2.90369 -0.192225
-1.37334 -2.9026 -0.199447
-1.37826 -2.89972 -0.206535
-1.37897 -2.89826 -0.213713
-1.3828 -2.89574 -0.220804
-1.38787 -2.89282 -0.22785
-1.38737 -2.89177 -0.235033
-1.39241 -2.88886 -0.242055
-1.3932 -2.88737 -0.249186
-1.39697 -2.88489 -0.256221
-1.40222 -2.88192 -0.263198
-1.40157 -2.88092 -0.270346
-1.40679 -2.87796 -0.2773
-1.40772 -2.87644 -0.284381
-1.41137 -2.87401 -0.291362
-1.41231 -2.87249 -0.298426
-1.41337 -2.87092 -0.305477
-1.41691 -2.86854 -0.312431
-1.42291 -2.86533 -0.319281
-1.42154 -2.86459 -0.326396
-1.42771 -2.86132 -0.333214
-1.42958 -2.8595 -0.340187
-1.43208 -2.85747 -0.347125
-1.43547 -2.85514 -0.354017
-1.08941 -2.96926 -0.375628
-1.43631 -2.85247 -0.36802
-1.44038 -2.84992 -0.374853
-1.44434 -2.84742 -0.381678
-1.44669 -2.84544 -0.388563
-1.44837 -2.8437 -0.39547
-1.4496 -2.8421 -0.402389
-1.45355 -2.8396 -0.40917
-1.45912 -2.83657 -0.41586
-1.46329 -2.834 -0.422605
-1.46417 -2.83252 -0.429503
-1.46493 -2.83109 -0.436399
-1.46924 -2.82848 -0.443104
-1.47002 -2.82705 -0.449983
-1.4707 -2.82565 -0.45686
-1.47513 -2.823 -0.463526
-1.48002 -2.82021 -0.470153
-1.48453 -2.81755 -0.476789
-1.4852 -2.81615 -0.48363
-1.48581 -2.81478 -0.490467
-1.49038 -2.8121 -0.497066
-1.49103 -2.81072 -0.503884
-1.36538 -2.90073 -0.163476
-1.36997 -2.89796 -0.170628
-1.37078 -2.89646 -0.177845
-1.37441 -2.89402 -0.184993
-1.37972 -2.89101 -0.192092
-1.37887 -2.89007 -0.199319
-1.38418 -2.88707 -0.206393
-1.38509 -2.88555 -0.213561
-1.38866 -2.88314 -0.220654
-1.38958 -2.88161 -0.227805
-1.39316 -2.8792 -0.234875
-1.39409 -2.87767 -0.242008
-1.3998 -2.87455 -0.248995
-1.39861 -2.87374 -0.256172
-1.40435 -2.87061 -0.263133
-1.40557 -2.869 -0.270221
-1.40894 -2.86666 -0.277231
-1.41522 -2.86336 -0.284133
-1.41355 -2.86272 -0.291288
-1.41488 -2.86107 -0.298336
-1.42172 -2.85759 -0.30518
-1.41963 -2.85709 -0.312332
-1.42685 -2.85348 -0.319135
-1.42919 -2.85151 -0.326105
-1.432 -2.84938 -0.333048
-1.43538 -2.84706 -0.339957
-1.43184 -2.84704 -0.347135
-1.43584 -2.84452 -0.354001
-1.44042 -2.84181 -0.360831
-1.44533 -2.83899 -0.367633
-1.44947 -2.83643 -0.374455
-1.44524 -2.83665 -0.381637
-1.44925 -2.83413 -0.388446
-1.45196 -2.83205 -0.395303
-1.45416 -2.83014 -0.402174
-1.45596 -2.82836 -0.409055
-1.45973 -2.82593 -0.415831
-1.4662 -2.82262 -0.422461
-1.47011 -2.82015 -0.429204
-1.47136 -2.81856 -0.43607
-1.47247 -2.81702 -0.442936
-1.47652 -2.81451 -0.44964
-1.47759 -2.81298 -0.45649
-1.47857 -2.81149 -0.463339
-1.48273 -2.80895 -0.470004
-1.48369 -2.80746 -0.476836
-1.48893 -2.80457 -0.483417
-1.49327 -2.80198 -0.490037
-1.4941 -2.80054 -0.496849
-1.49487 -2.79913 -0.503657
-1.37086 -2.88819 -0.163372
-1.37176 -2.88667 -0.170593
-1.37734 -2.88358 -0.17771
-1.37618 -2.88274 -0.184955
-1.38179 -2.87965 -0.192046
-1.38286 -2.87808 -0.199227
-1.38626 -2.87573 -0.206343
-1.39215 -2.87255 -0.213386
-1.39075 -2.8718 -0.2206
-1.39669 -2.86861 -0.227617
-1.39797 -2.86697 -0.234744
-1.40126 -2.86467 -0.241807
-1.40259 -2.86302 -0.248915
-1.40587 -2.86072 -0.255956
-1.40725 -2.85905 -0.263044
-1.41405 -2.85559 -0.269954
-1.41198 -2.85507 -0.277132
-1.4136 -2.85333 -0.284186
-1.42102 -2.84967 -0.291035
-1.41855 -2.84929 -0.298209
-1.42642 -2.84549 -0.305013
-1.429 -2.84344 -0.311991
-1.43195 -2.84126 -0.318945
-1.43533 -2.83895 -0.325872
-1.4318 -2.83893 -0.333055
-1.43558 -2.83649 -0.339949
-1.43989 -2.83387 -0.346809
-1.44478 -2.83107 -0.353632
-1.44094 -2.83115 -0.360809
-1.44595 -2.82831 -0.367606
-1.45045 -2.82564 -0.374412
-1.45436 -2.82317 -0.38123
-1.45772 -2.82088 -0.388062
-1.4606 -2.81875 -0.394904
-1.46308 -2.81675 -0.401755
-1.46521 -2.81487 -0.408612
-1.46897 -2.81246 -0.415381
-1.47084 -2.81067 -0.422231
-1.47251 -2.80895 -0.429083
-1.474 -2.80729 -0.435936
-1.47787 -2.80485 -0.442656
-1.47926 -2.80322 -0.449495
-1.48052 -2.80164 -0.456333
-1.4845 -2.79917 -0.463016
-1.48572 -2.7976 -0.469839
-1.48684 -2.79607 -0.476659
-1.49092 -2.79357 -0.483305
-1.49202 -2.79205 -0.490109
-1.50075 -2.78802 -0.49646
-1.50177 -2.78653 -0.503248
-1.37372 -2.87776 -0.156076
-1.37292 -2.87681 -0.163333
-1.37869 -2.87366 -0.170456
-1.37983 -2.87207 -0.177658
-1.38315 -2.86975 -0.184806
-1.38432 -2.86814 -0.19199
-1.38764 -2.86583 -0.199116
-1.38884 -2.86422 -0.206282
-1.39511 -2.86092 -0.213313
-1.39339 -2.86029 -0.220533
-1.39975 -2.85697 -0.227536
-1.40126 -2.85526 -0.234654
-1.40444 -2.853 -0.241717
-1.40604 -2.85127 -0.248815
-1.41324 -2.84768 -0.255737
-1.4109 -2.84726 -0.262933
-1.41274 -2.84545 -0.269995
-1.42057 -2.84166 -0.276855
-1.41788 -2.84135 -0.284045
-1.4201 -2.83942 -0.291066
-1.42326 -2.83718 -0.298045
-1.42577 -2.83516 -0.305036
-1.42859 -2.83304 -0.312006
-1.43177 -2.8308 -0.318951
-1.43543 -2.8284 -0.325868
-1.43954 -2.82586 -0.332754
-1.44398 -2.82321 -0.339615
-1.44014 -2.82329 -0.346799
-1.4453 -2.82041 -0.35361
-1.4501 -2.81765 -0.360423
-1.45479 -2.81492 -0.367226
-1.45085 -2.81504 -0.374394
-1.45546 -2.81235 -0.381181
-1.45924 -2.80993 -0.387993
-1.46261 -2.80765 -0.394811
-1.46559 -2.80549 -0.401636
-1.46825 -2.80345 -0.408467
-1.47061 -2.8015 -0.415301
-1.47439 -2.7991 -0.422056
-1.47649 -2.79724 -0.428883
-1.4784 -2.79545 -0.43571
-1.48014 -2.79371 -0.442538
-1.48395 -2.7913 -0.449248
-1.48558 -2.78961 -0.456063
-1.48707 -2.78796 -0.462876
-1.49096 -2.78552 -0.46955
-1.49239 -2.7839 -0.476349
-1.49373 -2.7823 -0.483145
-1.4977 -2.77985 -0.489782
-1.49899 -2.77827 -0.496563
-1.50779 -2.77425 -0.502892
-1.37758 -2.86578 -0.156006
-1.37821 -2.86435 -0.163233
-1.38144 -2.86207 -0.170402
-1.38274 -2.86043 -0.177598
-1.38596 -2.85815 -0.184746
-1.3873 -2.85649 -0.191924
-1.39386 -2.85311 -0.198972
-1.39191 -2.85255 -0.206208
-1.39858 -2.84914 -0.213227
-1.40025 -2.84738 -0.220357
-1.40337 -2.84515 -0.22744
-1.40513 -2.84336 -0.234548
-1.40825 -2.84113 -0.24161
-1.41012 -2.83932 -0.248696
-1.41214 -2.83746 -0.255769
-1.41525 -2.83523 -0.262799
-1.41744 -2.83332 -0.269847
-1.41982 -2.83134 -0.27688
-1.42298 -2.8291 -0.283876
-1.42564 -2.82704 -0.290878
-1.42855 -2.82489 -0.297861
-1.43176 -2.82265 -0.304823
-1.43533 -2.82029 -0.31176
-1.4393 -2.8178 -0.318671
-1.44356 -2.81521 -0.325558
-1.43975 -2.81529 -0.332746
-1.44475 -2.81246 -0.339585
-1.4494 -2.80975 -0.346423
-1.4545 -2.8069 -0.35323
-1.45065 -2.80699 -0.3604
-1.45546 -2.80424 -0.367198
-1.45991 -2.80161 -0.373997
-1.46399 -2.7991 -0.380801
-1.46769 -2.79671 -0.387609
-1.46341 -2.79695 -0.394774
-1.4675 -2.79444 -0.401547
-1.47056 -2.79227 -0.408356
-1.47333 -2.7902 -0.415168
-1.47586 -2.78821 -0.421983
-1.47966 -2.7858 -0.428723
-1.48194 -2.7839 -0.435529
-1.48404 -2.78205 -0.442335
-1.48598 -2.78026 -0.449141
-1.48977 -2.77787 -0.455838
-1.49159 -2.77612 -0.462631
-1.49327 -2.77441 -0.469422
-1.49712 -2.77201 -0.476084
-1.49873 -2.77033 -0.482861
-1.50024 -2.76869 -0.489635
-1.50166 -2.76708 -0.496407
-1.51052 -2.76304 -0.50273
-1.38059 -2.85409 -0.155951
-1.38657 -2.8509 -0.163075
-1.38459 -2.85035 -0.170339
-1.39124 -2.84694 -0.177423
-1.39286 -2.8452 -0.184598
-1.39072 -2.8447 -0.191847
-1.39767 -2.84121 -0.198884
-1.39946 -2.83941 -0.206027
-1.40255 -2.8372 -0.213128
-1.40445 -2.83537 -0.220249
-1.40754 -2.83316 -0.22733
-1.40955 -2.8313 -0.234428
-1.4117 -2.8294 -0.241513
-1.41481 -2.82718 -0.248561
-1.41713 -2.82522 -0.255621
-1.41963 -2.82321 -0.262665
-1.42281 -2.82098 -0.269678
-1.42556 -2.81889 -0.276694
-1.42854 -2.81672 -0.283692
-1.43176 -2.81448 -0.290671
-1.43527 -2.81215 -0.297628
-1.43914 -2.8097 -0.304561
-1.43542 -2.80973 -0.311757
-1.43967 -2.80716 -0.318657
-1.44403 -2.80455 -0.32554
-1.44885 -2.8018 -0.332392
-1.45377 -2.79901 -0.339227
-1.44992 -2.7991 -0.346402
-1.45504 -2.79626 -0.353208
-1.45965 -2.79357 -0.36002
-1.45577 -2.79367 -0.367184
-1.46067 -2.7909 -0.373964
-1.46496 -2.78834 -0.380758
-1.46892 -2.78588 -0.387553
-1.47258 -2.78352 -0.39435
-1.47595 -2.78126 -0.401149
-1.47906 -2.77908 -0.407949
-1.47447 -2.77942 -0.415113
-1.47837 -2.77699 -0.421858
-1.48102 -2.77497 -0.428655
-1.48485 -2.77256 -0.435381
-1.48727 -2.77062 -0.442168
-1.48952 -2.76874 -0.448954
-1.49161 -2.7669 -0.455739
-1.49541 -2.76452 -0.462423
-1.49738 -2.76273 -0.469196
-1.49923 -2.76098 -0.475966
-1.50097 -2.75927 -0.482734
-1.50482 -2.75687 -0.489372
-1.51159 -2.75353 -0.495827
-1.51549 -2.75112 -0.502436
-1.38573 -2.8417 -0.155858
-1.39033 -2.83898 -0.163003
-1.39206 -2.83721 -0.170191
-1.38977 -2.83676 -0.177453
-1.39694 -2.8332 -0.18451
-1.39885 -2.83138 -0.191666
-1.40192 -2.82917 -0.198786
-1.40392 -2.82731 -0.20592
-1.407 -2.82511 -0.213018
-1.40913 -2.82321 -0.220129
-1.41139 -2.82128 -0.227228
-1.4145 -2.81907 -0.234293
-1.41692 -2.81709 -0.241366
-1.41951 -2.81505 -0.248425
-1.42226 -2.81296 -0.255468
-1.42552 -2.81071 -0.262485
-1.42854 -2.80854 -0.269498
-1.43168 -2.80633 -0.276497
-1.43524 -2.80398 -0.28347
-1.43902 -2.80156 -0.290424
-1.43533 -2.80159 -0.297626
-1.43944 -2.79907 -0.30455
-1.44368 -2.79651 -0.311457
-1.44836 -2.79381 -0.318334
-1.44428 -2.79397 -0.325531
-1.44937 -2.79114 -0.332372
-1.45429 -2.78836 -0.339206
-1.45914 -2.78561 -0.346029
-1.4553 -2.7857 -0.353197
-1.46053 -2.78283 -0.359983
-1.46494 -2.78023 -0.36679
-1.46937 -2.77762 -0.373583
-1.47352 -2.77511 -0.380376
-1.46946 -2.77527 -0.387529
-1.47384 -2.77268 -0.394292
-1.47747 -2.77035 -0.401077
-1.48085 -2.76809 -0.407863
-1.484 -2.76591 -0.414649
-1.48693 -2.76381 -0.421435
-1.48967 -2.76177 -0.428219
-1.49353 -2.75936 -0.434937
-1.49605 -2.7574 -0.441711
-1.49842 -2.75548 -0.448484
-1.50065 -2.75361 -0.455255
-1.50445 -2.75123 -0.461931
-1.50655 -2.74941 -0.468689
-1.50854 -2.74763 -0.475445
-1.51042 -2.74588 -0.482197
-1.51425 -2.7435 -0.488828
-1.51605 -2.74178 -0.495566
-1.51776 -2.74008 -0.502301
-1.3916 -2.82909 -0.155752
-1.38899 -2.82875 -0.163029
-1.39637 -2.82513 -0.170106
-1.39836 -2.82328 -0.177276
-1.40142 -2.82108 -0.184414
-1.40352 -2.8192 -0.191562
-1.40573 -2.81728 -0.198698
-1.40882 -2.81508 -0.205803
-1.41116 -2.81312 -0.212915
-1.41363 -2.81113 -0.220014
-1.41678 -2.80891 -0.227085
-1.41943 -2.80686 -0.234158
-1.42224 -2.80476 -0.241217
-1.42521 -2.8026 -0.248259
-1.42836 -2.80039 -0.255286
-1.4317 -2.79812 -0.262296
-1.43522 -2.7958 -0.269288
-1.43163 -2.79579 -0.276499
-1.43534 -2.7934 -0.283467
-1.43927 -2.79095 -0.290416
-1.4434 -2.78843 -0.297345
-1.44795 -2.78578 -0.304247
-1.4439 -2.78593 -0.311449
-1.44886 -2.78314 -0.318315
-1.45373 -2.78039 -0.325171
-1.45865 -2.77763 -0.332012
-1.45455 -2.77779 -0.339196
-1.45994 -2.77488 -0.345997
-1.46466 -2.77218 -0.35281
-0.970604 -2.93142 -0.380636
-1.46558 -2.76956 -0.366762
-1.47013 -2.76693 -0.37355
-1.47443 -2.76438 -0.380335
-1.4785 -2.76191 -0.387118
-1.48232 -2.75951 -0.3939
-1.47814 -2.75971 -0.401046
-1.48236 -2.7572 -0.407791
-1.48575 -2.75495 -0.414564
-1.48893 -2.75277 -0.421336
-1.49192 -2.75066 -0.428106
-1.49474 -2.7486 -0.434875
-1.49739 -2.7466 -0.441642
-1.50124 -2.74421 -0.448336
-1.50371 -2.74227 -0.455091
-1.50605 -2.74038 -0.461844
-1.50826 -2.73852 -0.468595
-1.51208 -2.73615 -0.475246
-1.51418 -2.73434 -0.481983
-1.51618 -2.73256 -0.488717
-1.52001 -2.73019 -0.495335
-1.52193 -2.72844 -0.502054
-1.39591 -2.817 -0.155674
-1.39798 -2.81513 -0.162859
-1.39531 -2.81481 -0.170127
-1.40322 -2.81104 -0.177176
-1.4055 -2.8091 -0.184327
-1.40789 -2.80713 -0.191465
-1.411 -2.80493 -0.198576
-1.41354 -2.80292 -0.20569
-1.4162 -2.80086 -0.21279
-1.419 -2.79877 -0.219877
-1.42225 -2.79653 -0.22694
-1.42525 -2.79437 -0.234
-1.4284 -2.79216 -0.241043
-1.42498 -2.7921 -0.248266
-1.42822 -2.78987 -0.25529
-1.43164 -2.78758 -0.262298
-1.4353 -2.78522 -0.269286
-1.43915 -2.7828 -0.276256
-1.44319 -2.78031 -0.283207
-1.43943 -2.78037 -0.29041
-1.44381 -2.77778 -0.297331
-1.44843 -2.77511 -0.30423
-1.45296 -2.77248 -0.311119
-1.45784 -2.76973 -0.317981
-1.45399 -2.76981 -0.325161
-1.45917 -2.76698 -0.331991
-1.46404 -2.76424 -0.338819
-0.962745 -2.92535 -0.36614
-1.46522 -2.76154 -0.352787
-1.47007 -2.75882 -0.359581
-1.4744 -2.75626 -0.366383
-1.47882 -2.75368 -0.373169
-1.47485 -2.75381 -0.380316
-1.47946 -2.75117 -0.387074
-1.48346 -2.74873 -0.393847
-1.48724 -2.74637 -0.400618
-1.49082 -2.74406 -0.407386
-1.49421 -2.74183 -0.414152
-1.48982 -2.7421 -0.421291
-1.49387 -2.73965 -0.428008
-1.4969 -2.73753 -0.434764
-1.49978 -2.73546 -0.441518
-1.50251 -2.73345 -0.448269
-1.50638 -2.73106 -0.454948
-1.50894 -2.72911 -0.461687
-1.51137 -2.72719 -0.468423
-1.51369 -2.72531 -0.475156
-1.51752 -2.72295 -0.481794
-1.51973 -2.72111 -0.488513
-1.52183 -2.71931 -0.495229
-1.52745 -2.71638 -0.501727
-1.40299 -2.80284 -0.162764
-1.40533 -2.80089 -0.169929
-1.40778 -2.7989 -0.177082
-1.40479 -2.79869 -0.184342
-1.41348 -2.79468 -0.19134
-1.41619 -2.79262 -0.198456
-1.41902 -2.79052 -0.205558
-1.42198 -2.78838 -0.212647
-1.41865 -2.78828 -0.219885
-1.42193 -2.78604 -0.226949
-1.42502 -2.78386 -0.234006
-1.42826 -2.78163 -0.241047
-1.43167 -2.77936 -0.248073
-1.43527 -2.77702 -0.25508
-1.43907 -2.77462 -0.26207
-1.44303 -2.77216 -0.269043
-1.43929 -2.77221 -0.276251
-1.44356 -2.76966 -0.283195
-1.44807 -2.76704 -0.290117
-1.45251 -2.76444 -0.297029
-1.45732 -2.76173 -0.303914
-1.45347 -2.76181 -0.3111
-1.45836 -2.75907 -0.317962
-1.46327 -2.75633 -0.324808
-0.955488 -2.91905 -0.35157
-1.46456 -2.7536 -0.338798
-1.46961 -2.75082 -0.345605
-1.47423 -2.74818 -0.352415
-0.933993 -2.92109 -0.382179
-1.47507 -2.74561 -0.366355
-1.47958 -2.743 -0.373136
-1.4839 -2.74047 -0.379912
-1.48803 -2.738 -0.386685
-1.48398 -2.73815 -0.393823
-1.48841 -2.73559 -0.400563
-1.49215 -2.73324 -0.407322
-1.49572 -2.73095 -0.414078
-1.49912 -2.72873 -0.420831
-1.50235 -2.72655 -0.427582
-1.50542 -2.72443 -0.434329
-1.50835 -2.72236 -0.441073
-1.50369 -2.72271 -0.448206
-1.5076 -2.72033 -0.454883
-1.5115 -2.71795 -0.461548
-1.51413 -2.71598 -0.468271
-1.51665 -2.71404 -0.474991
-1.51905 -2.71215 -0.481707
-1.5229 -2.70979 -0.48833
-1.52732 -2.70725 -0.494908
-1.52567 -2.70666 -0.501833
-1.40699 -2.79088 -0.162688
-1.41031 -2.78862 -0.169831
-1.4072 -2.78845 -0.177094
-1.41033 -2.78625 -0.184223
-1.41907 -2.78224 -0.191216
-1.42205 -2.7801 -0.198321
-1.4187 -2.78001 -0.205566
-1.42173 -2.77785 -0.212653
-1.42508 -2.7756 -0.219721
-1.42832 -2.77338 -0.22678
-1.43171 -2.77111 -0.233823
-1.43527 -2.76879 -0.24085
-1.43902 -2.76641 -0.24786
-1.43533 -2.76644 -0.255079
-1.43931 -2.76399 -0.262063
-1.44336 -2.76152 -0.269032
-1.44777 -2.75893 -0.275978
-1.45213 -2.75637 -0.282911
-0.981821 -2.9068 -0.305934
-1.45301 -2.75377 -0.297011
-1.45783 -2.75106 -0.303896
-1.46272 -2.74833 -0.310763
-1.46763 -2.7456 -0.317616
-1.46379 -2.74568 -0.324789
-1.46893 -2.74288 -0.331612
-1.47372 -2.74019 -0.338435
-1.46988 -2.74027 -0.345594
-1.4748 -2.73754 -0.352391
-1.47958 -2.73486 -0.35918
-1.48386 -2.73235 -0.365977
-1.47995 -2.73246 -0.37312
-1.48472 -2.72979 -0.379876
-1.48895 -2.72729 -0.386643
-1.49302 -2.72485 -0.393405
-1.4969 -2.72246 -0.400163
-1.50062 -2.72014 -0.406917
-1.49642 -2.72035 -0.414044
-1.50063 -2.71787 -0.420756
-1.50403 -2.71565 -0.427497
-1.50729 -2.71347 -0.434233
-1.51039 -2.71135 -0.440966
-1.51337 -2.70927 -0.447696
-1.51621 -2.70724 -0.454422
-1.52013 -2.70486 -0.461079
-1.52282 -2.70288 -0.467791
-1.52541 -2.70093 -0.4745
-1.52609 -2.69959 -0.481307
-1.52687 -2.69822 -0.488102
-1.52087 -2.69901 -0.495285
-1.51475 -2.69984 -0.502479
-1.40358 -2.78133 -0.162752
-1.41166 -2.77754 -0.169804
-1.41302 -2.77592 -0.176974
-1.41583 -2.77384 -0.184105
-1.41876 -2.77172 -0.191222
-1.42181 -2.76957 -0.198326
-1.42515 -2.76732 -0.205412
-1.42839 -2.7651 -0.212488
-1.43172 -2.76286 -0.219551
-1.43528 -2.76055 -0.226595
-1.43899 -2.75819 -0.233625
-1.43531 -2.75821 -0.240849
-1.43922 -2.75579 -0.247854
-1.44321 -2.75335 -0.254844
-1.44753 -2.7508 -0.261811
-1.4518 -2.74826 -0.268767
-1.44798 -2.74834 -0.275971
-1.4526 -2.7457 -0.282896
-1.45735 -2.74302 -0.289802
-1.46193 -2.74039 -0.296701
-1.45809 -2.74048 -0.303886
-1.46324 -2.73767 -0.310744
-1.46815 -2.73495 -0.317597
-1.47303 -2.73224 -0.324437
-1.46919 -2.73232 -0.331602
-1.47425 -2.72956 -0.338414
-1.47922 -2.72683 -0.345216
-1.48376 -2.72423 -0.352021
-1.47989 -2.72433 -0.359167
-1.48487 -2.72159 -0.365934
-1.48904 -2.71912 -0.372722
-1.49337 -2.7166 -0.37949
-1.48939 -2.71674 -0.386623
-1.49398 -2.71414 -0.39336
-1.498 -2.71173 -0.400111
-1.50185 -2.70937 -0.406858
-1.50554 -2.70706 -0.4136
-1.50909 -2.7048 -0.420338
-1.5125 -2.70259 -0.427071
-1.50814 -2.70284 -0.434189
-1.51223 -2.70042 -0.440871
-1.51537 -2.6983 -0.44759
-1.51838 -2.69622 -0.454306
-1.52127 -2.69418 -0.461017
-1.52611 -2.69152 -0.46761
-1.52735 -2.69001 -0.474392
-1.52162 -2.69071 -0.481561
-1.51578 -2.69144 -0.48874
-1.50981 -2.69222 -0.495931
-1.49916 -2.69448 -0.503403
-1.41752 -2.76501 -0.169688
-1.42 -2.76304 -0.17683
-1.4219 -2.76126 -0.183975
-1.42507 -2.75907 -0.191082
-1.42836 -2.75685 -0.198175
-1.43178 -2.75458 -0.205253
-1.42821 -2.75457 -0.212493
-1.4317 -2.75228 -0.219551
-1.43537 -2.74994 -0.226593
-1.43917 -2.74756 -0.23362
-1.44309 -2.74515 -0.24063
-1.44733 -2.74263 -0.247619
-1.45153 -2.74013 -0.254596
-1.44773 -2.74019 -0.261805
-1.45225 -2.73759 -0.268753
-1.45692 -2.73494 -0.275682
-1.46145 -2.73235 -0.282603
-1.4576 -2.73243 -0.289794
-1.46271 -2.72965 -0.296674
-1.46735 -2.72702 -0.303557
-1.47225 -2.72431 -0.310416
-1.46841 -2.72439 -0.317587
-1.47355 -2.72161 -0.324417
-1.47862 -2.71884 -0.331235
-1.48334 -2.7162 -0.338053
-1.47949 -2.71629 -0.345204
-1.48435 -2.7136 -0.351996
-1.48908 -2.71096 -0.35878
-0.876561 -2.90485 -0.392075
-1.48976 -2.70848 -0.37269
-1.49417 -2.70594 -0.379454
-1.49844 -2.70345 -0.386212
-1.50255 -2.70102 -0.392964
-1.50651 -2.69863 -0.39971
-1.50242 -2.6988 -0.406831
-1.50679 -2.69629 -0.413539
-1.51047 -2.694 -0.420269
-1.51401 -2.69175 -0.426994
-1.51743 -2.68955 -0.433715
-1.52071 -2.68739 -0.440431
-1.52387 -2.68526 -0.447142
-1.52547 -2.68364 -0.453926
-1.52458 -2.68281 -0.460837
-1.52362 -2.68199 -0.467748
-1.5161 -2.68326 -0.475021
-1.5104 -2.68394 -0.482198
-1.50459 -2.68467 -0.489385
-1.49614 -2.68622 -0.496729
-1.48535 -2.68851 -0.50422
-1.42314 -2.75141 -0.176766
-1.42597 -2.74933 -0.183888
-1.42483 -2.74854 -0.191087
-1.42828 -2.74627 -0.198176
-1.43175 -2.744 -0.205254
-1.43538 -2.74168 -0.212315
-1.43914 -2.73932 -0.219361
-1.44301 -2.73692 -0.226391
-1.44717 -2.73444 -0.233401
-1.4434 -2.73449 -0.240622
-1.44771 -2.73196 -0.247608
-1.45196 -2.72945 -0.254583
-1.45632 -2.72691 -0.261542
-1.46101 -2.72427 -0.268477
-1.45717 -2.72435 -0.275674
-1.46196 -2.72167 -0.282586
-1.46681 -2.71898 -0.289481
-1.47171 -2.71628 -0.296361
-1.46787 -2.71636 -0.303539
-1.47303 -2.71358 -0.310388
-1.47791 -2.71089 -0.317234
-1.47381 -2.71105 -0.324407
-1.47915 -2.70822 -0.331215
-1.48389 -2.70558 -0.338031
-1.48878 -2.70289 -0.344828
-1.48464 -2.70307 -0.351984
-1.4897 -2.70034 -0.358753
-1.49435 -2.69773 -0.365526
-1.49849 -2.69529 -0.372308
-1.50283 -2.69279 -0.379068
-1.49886 -2.69292 -0.386193
-1.50349 -2.69033 -0.392921
-1.50755 -2.68792 -0.399662
-1.51148 -2.68556 -0.406397
-1.51528 -2.68324 -0.413126
-1.51894 -2.68096 -0.41985
-1.51472 -2.68117 -0.426959
-1.51894 -2.67872 -0.433637
-1.5242 -2.67595 -0.440249
-1.52352 -2.67505 -0.447161
-1.52276 -2.67417 -0.454071
-1.51575 -2.67527 -0.461317
-1.51031 -2.67587 -0.468482
-1.50476 -2.67651 -0.475656
-1.49909 -2.67718 -0.48284
-1.49094 -2.67864 -0.490171
-1.48032 -2.68087 -0.497654
-1.47415 -2.68169 -0.504884
-1.38957 -2.75151 -0.177458
-1.42928 -2.73766 -0.183817
-1.43589 -2.73439 -0.190841
-1.43541 -2.73339 -0.198012
-1.43913 -2.73105 -0.205077
-1.44308 -2.72864 -0.212124
-1.44705 -2.72622 -0.219158
-1.44329 -2.72627 -0.226384
-1.44753 -2.72377 -0.233392
-1.45171 -2.72129 -0.240388
-1.456 -2.71877 -0.247368
-1.46063 -2.71616 -0.254325
-1.45679 -2.71623 -0.261528
-1.46151 -2.71359 -0.268462
-1.46632 -2.71092 -0.275379
-1.46221 -2.71108 -0.282577
-1.46733 -2.70832 -0.289464
-1.47223 -2.70563 -0.296343
-1.47713 -2.70294 -0.303209
-0.878267 -2.89165 -0.332038
-1.47843 -2.70026 -0.317214
-1.48326 -2.6976 -0.324048
-1.488 -2.69496 -0.330871
-1.48416 -2.69505 -0.338021
-1.48935 -2.69228 -0.344805
-1.49387 -2.68972 -0.351603
-1.49856 -2.68711 -0.35838
-1.50313 -2.68454 -0.365149
-1.49922 -2.68466 -0.372276
-1.50363 -2.68214 -0.379032
-1.50791 -2.67967 -0.385782
-1.51207 -2.67724 -0.392524
-1.50804 -2.67739 -0.399639
-1.51255 -2.67485 -0.406346
-1.51645 -2.67251 -0.413069
-1.51964 -2.67039 -0.419815
-1.52236 -2.66842 -0.426575
-1.52186 -2.66746 -0.433488
-1.51696 -2.66789 -0.440625
-1.51195 -2.66835 -0.44777
-1.50515 -2.66938 -0.455014
-1.49982 -2.66995 -0.462183
-1.49438 -2.67054 -0.469361
-1.48882 -2.67118 -0.476549
-1.4809 -2.67255 -0.483873
-1.47501 -2.67329 -0.491089
-1.46899 -2.67407 -0.498315
-1.46015 -2.67573 -0.505713
-1.33664 -2.75769 -0.178548
-1.39147 -2.73908 -0.184627
-1.4254 -2.72713 -0.191074
-1.43933 -2.72155 -0.197921
-1.44663 -2.71808 -0.204897
-1.44321 -2.71802 -0.212121
-1.44738 -2.71555 -0.219149
-1.45151 -2.71309 -0.226166
-1.45574 -2.7106 -0.233167
-1.46029 -2.70802 -0.240147
-1.45646 -2.70809 -0.247355
-1.46111 -2.70548 -0.254311
-1.46561 -2.70291 -0.261258
-1.46176 -2.70299 -0.268454
-1.46683 -2.70025 -0.275363
-1.4717 -2.69758 -0.282264
-1.47659 -2.6949 -0.28915
-1.47249 -2.69506 -0.296334
-1.47765 -2.6923 -0.30319
-1.48253 -2.68963 -0.310042
-1.48762 -2.68689 -0.316872
-1.48352 -2.68706 -0.324038
-1.48881 -2.68426 -0.330839
-1.49348 -2.68166 -0.337651
-1.49832 -2.67901 -0.344441
-1.49447 -2.67911 -0.351578
-1.4992 -2.6765 -0.358353
-1.50381 -2.67392 -0.36512
-1.50794 -2.6715 -0.371894
-1.50402 -2.67162 -0.379015
-1.50875 -2.66902 -0.385744
-1.51298 -2.66657 -0.392482
-1.51709 -2.66417 -0.399213
-1.52024 -2.66207 -0.405977
-1.51997 -2.66104 -0.412898
-1.51536 -2.66138 -0.420027
-1.51066 -2.66174 -0.427163
-1.51019 -2.66078 -0.434085
-1.50386 -2.66166 -0.441306
-1.49876 -2.66214 -0.448466
-1.49356 -2.66266 -0.455635
-1.48825 -2.66322 -0.462812
-1.48084 -2.66443 -0.470108
-1.47519 -2.66509 -0.477312
-1.46943 -2.66578 -0.484525
-1.46112 -2.66727 -0.491889
-1.45502 -2.66807 -0.499131
-1.4488 -2.6689 -0.506385
-1.36394 -2.73715 -0.185218
-1.39381 -2.72653 -0.191778
-1.42159 -2.71658 -0.198331
-1.43581 -2.71093 -0.205156
-1.45048 -2.70514 -0.21194
-1.45447 -2.70274 -0.218968
-1.45858 -2.7003 -0.225979
-1.45617 -2.69992 -0.233156
-1.46076 -2.69733 -0.240133
-1.4652 -2.69479 -0.247102
-1.46136 -2.69487 -0.254304
-1.46636 -2.69216 -0.261235
-1.47093 -2.68958 -0.268165
-1.4758 -2.68692 -0.275073
-1.47196 -2.687 -0.282255
-1.47711 -2.68425 -0.289132
-1.48201 -2.68158 -0.296004
-1.48688 -2.67892 -0.302862
-1.48305 -2.679 -0.310023
-1.48814 -2.67627 -0.316853
-1.49292 -2.67365 -0.32368
-0.82238 -2.88318 -0.356744
-1.49404 -2.67105 -0.337628
-1.49891 -2.66841 -0.344418
-1.50338 -2.66589 -0.35121
-1.50803 -2.66331 -0.357981
-1.50415 -2.66341 -0.365105
-1.51003 -2.66045 -0.371802
-1.51374 -2.65818 -0.378581
-1.51376 -2.65706 -0.385516
-1.51721 -2.65488 -0.392286
-1.51287 -2.65512 -0.399411
-1.50844 -2.6554 -0.406542
-1.50391 -2.65571 -0.41368
-1.50359 -2.6547 -0.42061
-1.49764 -2.65545 -0.427818
-1.49275 -2.65587 -0.434977
-1.48774 -2.65633 -0.442143
-1.48708 -2.65543 -0.449083
-1.48015 -2.65649 -0.456354
-1.47475 -2.65706 -0.463547
-1.46923 -2.65768 -0.470749
-1.46361 -2.65832 -0.47796
-1.45558 -2.65972 -0.485312
-1.44962 -2.66047 -0.492551
-1.44355 -2.66125 -0.499801
-1.43461 -2.66293 -0.507225
-1.3163 -2.7415 -0.18624
-1.36574 -2.72473 -0.192404
-1.39316 -2.71493 -0.198988
-1.40704 -2.70941 -0.205845
-1.43231 -2.7003 -0.212391
-1.43979 -2.69681 -0.219344
-1.45107 -2.69211 -0.226178
-1.46281 -2.68729 -0.232975
-1.46315 -2.68604 -0.240066
-1.46751 -2.68354 -0.247035
-1.47193 -2.68102 -0.253989
-1.4764 -2.67849 -0.260928
-1.47685 -2.67722 -0.267979
-1.47632 -2.67626 -0.275056
-1.48121 -2.6736 -0.281949
-1.4861 -2.67094 -0.288827
-1.48227 -2.67102 -0.295995
-1.4874 -2.66829 -0.302843
-1.49224 -2.66565 -0.309689
-0.812393 -2.87745 -0.342008
-1.49661 -2.66205 -0.32354
-1.50093 -2.65958 -0.330368
-1.50127 -2.65836 -0.337341
-1.50545 -2.65594 -0.344152
-1.50572 -2.65474 -0.351113
-1.50972 -2.65238 -0.357909
-1.5099 -2.65121 -0.364858
-1.50591 -2.65135 -0.371983
-1.50599 -2.65022 -0.378927
-1.50186 -2.6504 -0.386056
-1.50113 -2.64952 -0.39303
-1.49676 -2.64977 -0.40017
-1.49658 -2.64872 -0.40711
-1.49206 -2.64903 -0.414257
-1.48627 -2.64972 -0.421467
-1.48584 -2.64875 -0.428412
-1.48095 -2.64917 -0.43558
-1.47596 -2.64962 -0.442755
-1.46922 -2.65061 -0.450025
-1.46391 -2.65115 -0.457223
-1.46305 -2.65032 -0.464183
-1.45551 -2.65155 -0.471506
-1.4498 -2.65222 -0.478734
-1.44398 -2.65293 -0.485971
-1.43555 -2.65443 -0.493362
-1.42939 -2.65524 -0.500628
-1.42312 -2.65608 -0.507906
-1.27896 -2.74249 -0.187041
-1.33768 -2.72287 -0.193029
-1.36105 -2.71438 -0.199731
-1.38531 -2.70561 -0.206366
-1.40314 -2.69887 -0.213114
-1.42142 -2.692 -0.219815
-1.42894 -2.6885 -0.226763
-1.44416 -2.68259 -0.233483
-1.45205 -2.67899 -0.240378
-1.46006 -2.67535 -0.24725
-1.46818 -2.67168 -0.2541
-1.4686 -2.67042 -0.261166
-1.47307 -2.6679 -0.268098
-1.48137 -2.66418 -0.274893
-1.48184 -2.66292 -0.281928
-1.48636 -2.66038 -0.288818
-1.48683 -2.65912 -0.295836
-1.49133 -2.6566 -0.302704
-1.49177 -2.65534 -0.309706
-1.4962 -2.65285 -0.316553
-1.49264 -2.65285 -0.323691
-1.49693 -2.6504 -0.330524
-1.49726 -2.64918 -0.337501
-1.49352 -2.64924 -0.344636
-1.49758 -2.64686 -0.351449
-1.49368 -2.64697 -0.358586
-1.49384 -2.64581 -0.365548
-1.49345 -2.64483 -0.372529
-1.48928 -2.64502 -0.379672
-1.48926 -2.64392 -0.386629
-1.48495 -2.64415 -0.393778
-1.48393 -2.64336 -0.400773
-1.47938 -2.64367 -0.407934
-1.47474 -2.64401 -0.4151
-1.47438 -2.64302 -0.422056
-1.46957 -2.64341 -0.429231
-1.46321 -2.64427 -0.436487
-1.46258 -2.64337 -0.44345
-1.4574 -2.64387 -0.450649
-1.45211 -2.64441 -0.457855
-1.44477 -2.64557 -0.465176
-1.43916 -2.64621 -0.472408
-1.43809 -2.64544 -0.479389
-1.42994 -2.64686 -0.486768
-1.42392 -2.64762 -0.494032
-1.4151 -2.64924 -0.501463
-1.40874 -2.6501 -0.508757
-1.23797 -2.74453 -0.18792
-1.30588 -2.72211 -0.193738
-1.33936 -2.71048 -0.200232
-1.35641 -2.704 -0.207058
-1.38112 -2.69513 -0.21366
-1.39925 -2.68832 -0.220383
-1.40663 -2.68488 -0.227353
-1.41792 -2.68023 -0.234199
-1.43322 -2.67432 -0.240908
-1.44112 -2.67073 -0.247799
-1.44142 -2.66951 -0.254897
-1.44949 -2.66587 -0.261751
-1.45382 -2.6634 -0.268704
-1.46203 -2.65972 -0.275517
-1.46244 -2.65847 -0.28257
-1.46685 -2.65598 -0.28948
-1.47125 -2.6535 -0.296377
-1.47165 -2.65226 -0.303404
-1.47601 -2.64979 -0.31028
-1.47638 -2.64856 -0.317291
-1.48065 -2.64613 -0.324147
-1.48097 -2.64492 -0.331144
-1.47722 -2.64497 -0.338296
-1.4813 -2.6426 -0.345131
-1.4774 -2.6427 -0.352284
-1.47757 -2.64154 -0.359265
-1.47771 -2.64039 -0.366241
-1.47727 -2.63942 -0.373237
-1.47307 -2.63962 -0.380396
-1.47304 -2.63853 -0.387366
-1.47213 -2.63771 -0.394371
-1.46764 -2.63799 -0.40154
-1.46306 -2.63831 -0.408715
-1.46277 -2.6373 -0.415683
-1.45676 -2.63805 -0.422928
-1.45629 -2.6371 -0.429899
-1.45129 -2.63754 -0.437097
-1.44619 -2.63802 -0.444302
-1.4438 -2.63765 -0.451366
-1.43842 -2.63821 -0.458588
-1.43294 -2.6388 -0.46582
-1.42521 -2.64008 -0.473178
-1.41941 -2.64077 -0.480435
-1.41349 -2.6415 -0.487703
-1.40489 -2.64304 -0.495128
-1.40345 -2.64239 -0.502144
-1.39424 -2.64412 -0.509616
-1.19701 -2.74646 -0.188798
-1.274 -2.72129 -0.194448
-1.307 -2.70985 -0.20098
-1.33443 -2.70016 -0.207585
-1.35183 -2.6936 -0.214386
-1.36968 -2.68691 -0.22114
-1.38796 -2.68008 -0.227847
-1.39538 -2.67665 -0.234815
-1.4105 -2.67082 -0.241547
-1.41828 -2.66727 -0.24846
-1.42617 -2.66369 -0.255351
-1.43418 -2.66009 -0.26222
-1.43448 -2.65888 -0.269312
-1.4426 -2.65524 -0.276144
-1.44689 -2.65279 -0.283085
-1.44723 -2.65157 -0.290146
-1.45548 -2.6479 -0.296926
-1.45583 -2.64668 -0.303967
-1.46012 -2.64424 -0.310858
-1.46045 -2.64302 -0.317884
-1.46062 -2.64186 -0.324909
-1.4609 -2.64067 -0.331924
-1.46497 -2.6383 -0.338782
-1.46106 -2.63841 -0.345951
-1.46124 -2.63725 -0.352952
-1.46508 -2.63495 -0.359791
-1.46097 -2.63512 -0.366961
-1.46101 -2.63401 -0.373949
-1.4603 -2.63312 -0.380965
-1.45592 -2.63337 -0.388143
-1.45579 -2.63231 -0.395126
-1.4546 -2.63158 -0.402154
-1.44993 -2.63192 -0.409344
-1.44516 -2.63229 -0.41654
-1.44476 -2.63132 -0.423522
-1.43983 -2.63173 -0.430727
-1.43779 -2.63127 -0.437787
-1.4326 -2.63176 -0.445008
-1.4273 -2.63229 -0.452236
-1.42191 -2.63285 -0.459473
-1.41904 -2.63264 -0.466576
-1.41336 -2.63329 -0.473832
-1.40524 -2.63468 -0.481228
-1.39924 -2.63542 -0.488512
-1.39312 -2.6362 -0.495806
-1.38414 -2.63786 -0.503272
-1.37769 -2.63874 -0.510596
-1.15606 -2.74829 -0.189676
-1.24203 -2.72042 -0.195161
-1.28505 -2.70592 -0.201488
-1.31232 -2.69631 -0.208114
-1.32956 -2.68982 -0.214938
-1.34726 -2.6832 -0.221715
-1.3654 -2.67644 -0.228444
-1.37268 -2.67306 -0.235434
-1.39147 -2.66611 -0.242082
-1.39914 -2.66261 -0.249014
-1.40692 -2.65908 -0.255925
-1.41482 -2.65552 -0.262813
-1.41505 -2.65433 -0.269923
-1.42308 -2.65073 -0.276774
-1.42724 -2.64833 -0.283735
-1.43538 -2.6447 -0.290548
-1.43568 -2.6435 -0.297613
-1.43987 -2.6411 -0.304534
-1.44016 -2.6399 -0.311585
-1.4443 -2.63751 -0.318485
-1.44456 -2.63633 -0.32552
-1.44862 -2.63397 -0.332402
-1.44469 -2.63408 -0.339587
-1.44486 -2.63292 -0.346607
-1.44872 -2.63063 -0.353469
-1.44461 -2.6308 -0.360654
-1.44466 -2.62968 -0.367662
-1.44469 -2.62857 -0.374664
-1.44393 -2.6277 -0.381696
-1.43951 -2.62796 -0.388889
-1.43937 -2.62691 -0.395886
-1.43814 -2.62619 -0.402928
-1.43344 -2.62653 -0.410133
-1.4331 -2.62554 -0.417128
-1.42686 -2.62636 -0.424408
-1.42634 -2.62542 -0.431406
-1.42123 -2.62589 -0.438634
-1.41888 -2.62552 -0.44572
-1.4135 -2.62607 -0.452965
-1.40801 -2.62665 -0.460217
-1.40242 -2.62727 -0.467479
-1.39924 -2.62715 -0.474611
-1.39336 -2.62785 -0.481894
-1.38486 -2.62935 -0.489329
-1.37866 -2.63015 -0.496639
-1.37235 -2.63099 -0.50396
-1.36297 -2.63275 -0.511467
-1.13039 -2.74528 -0.190227
-1.21625 -2.71756 -0.195735
-1.26297 -2.70196 -0.201998
-1.29008 -2.69244 -0.208647
-1.30716 -2.68602 -0.215493
-1.32471 -2.67947 -0.222293
-1.34271 -2.67278 -0.229045
-1.35372 -2.66826 -0.235952
-1.3685 -2.66257 -0.242728
-1.37603 -2.65913 -0.249684
-1.38368 -2.65565 -0.256617
-1.39146 -2.65214 -0.263528
-1.39933 -2.6486 -0.270417
-1.40347 -2.64621 -0.277407
-1.4075 -2.64385 -0.284388
-1.41556 -2.64026 -0.29122
-1.4158 -2.63908 -0.298305
-1.41987 -2.63672 -0.305246
-1.42392 -2.63437 -0.312176
-1.42414 -2.6332 -0.319235
-1.42434 -2.63203 -0.326289
-1.42831 -2.62971 -0.333191
-1.42847 -2.62856 -0.340231
-1.43232 -2.62628 -0.347115
-1.4282 -2.62644 -0.354317
-1.43188 -2.62421 -0.361191
-1.4276 -2.62442 -0.368395
-1.42756 -2.62334 -0.375414
-1.42749 -2.62226 -0.382429
-1.42645 -2.62148 -0.389482
-1.42186 -2.62179 -0.396695
-1.42161 -2.62077 -0.403706
-1.4201 -2.62014 -0.410772
-1.41522 -2.62054 -0.417998
-1.41476 -2.61959 -0.425008
-1.40972 -2.62003 -0.432243
-1.40752 -2.61961 -0.439334
-1.40222 -2.62013 -0.446585
-1.39681 -2.62069 -0.453845
-1.39399 -2.62046 -0.460968
-1.38831 -2.6211 -0.468246
-1.38252 -2.62177 -0.475533
-1.37423 -2.6232 -0.482965
-1.37296 -2.6225 -0.490005
-1.36407 -2.62411 -0.497479
-1.35767 -2.62496 -0.504818
-1.34814 -2.62677 -0.512346
-1.11997 -2.73751 -0.19045
-1.19422 -2.71348 -0.196226
-1.23684 -2.6992 -0.202603
-1.2638 -2.68976 -0.209277
-1.28464 -2.68221 -0.216052
-1.30203 -2.67573 -0.222874
-1.31988 -2.66911 -0.229649
-1.33814 -2.66238 -0.236377
-1.34538 -2.65903 -0.243378
-1.35672 -2.65442 -0.250243
-1.36426 -2.65099 -0.257195
-1.37192 -2.64753 -0.264126
-1.37968 -2.64403 -0.271035
-1.38754 -2.64051 -0.277921
-1.38768 -2.63935 -0.285044
-1.39565 -2.6358 -0.291896
-1.39961 -2.63348 -0.298867
-1.39978 -2.63233 -0.305961
-1.40783 -2.62875 -0.312761
-1.41178 -2.62645 -0.319696
-1.41193 -2.6253 -0.326762
-1.41207 -2.62415 -0.333822
-1.41169 -2.62317 -0.340897
-1.41177 -2.62205 -0.347948
-1.41545 -2.61982 -0.354844
-1.41546 -2.61872 -0.361883
-1.41113 -2.61895 -0.369103
-1.41457 -2.61681 -0.375983
-1.41007 -2.61708 -0.383206
-1.4099 -2.61604 -0.390234
-1.40859 -2.61535 -0.397309
-1.40382 -2.61571 -0.404543
-1.40346 -2.61472 -0.411568
-1.40167 -2.61418 -0.418658
-1.39659 -2.61463 -0.425907
-1.39602 -2.61371 -0.432932
-1.39079 -2.61421 -0.44019
-1.3883 -2.61388 -0.447308
-1.3828 -2.61446 -0.454584
-1.37721 -2.61507 -0.461867
-1.37407 -2.61493 -0.46902
-1.3682 -2.61562 -0.476324
-1.36222 -2.61634 -0.483637
-1.35354 -2.61789 -0.491107
-1.34936 -2.61806 -0.498327
-1.34288 -2.61894 -0.505682
-1.33628 -2.61984 -0.513048
-1.10543 -2.73098 -0.190762
-1.1743 -2.7087 -0.19667
-1.21449 -2.69522 -0.203119
-1.24128 -2.68587 -0.209816
-1.26892 -2.67626 -0.216441
-1.28631 -2.6698 -0.223277
-1.29692 -2.66543 -0.230256
-1.31503 -2.65876 -0.237007
-1.3261 -2.65425 -0.24392
-1.33337 -2.65091 -0.250919
-1.34834 -2.64521 -0.257669
-1.35231 -2.64289 -0.264726
-1.35996 -2.63943 -0.271654
-1.36772 -2.63596 -0.278561
-1.37149 -2.63369 -0.28558
-1.37938 -2.63018 -0.292447
-1.37949 -2.62904 -0.299566
-1.38745 -2.62551 -0.306399
-1.38757 -2.62437 -0.313499
-1.3914 -2.6221 -0.320454
-1.3915 -2.62097 -0.327539
-1.39527 -2.61873 -0.334475
-1.39533 -2.61761 -0.341546
-1.399 -2.6154 -0.348465
-1.3947 -2.61561 -0.355702
-1.39821 -2.61345 -0.36261
-1.39812 -2.61238 -0.369662
-1.39363 -2.61265 -0.3769
-1.39687 -2.61058 -0.383795
-1.3922 -2.6109 -0.391038
-1.39192 -2.6099 -0.39808
-1.39034 -2.60929 -0.405178
-1.38539 -2.6097 -0.412434
-1.38491 -2.60875 -0.419473
-1.38283 -2.60829 -0.426588
-1.37758 -2.6088 -0.43386
-1.37689 -2.60792 -0.440901
-1.37147 -2.60847 -0.448183
-1.36867 -2.60823 -0.455329
-1.36299 -2.60886 -0.462629
-1.3572 -2.60952 -0.469938
-1.35376 -2.60947 -0.477121
-1.34769 -2.61022 -0.484451
-1.33884 -2.6118 -0.491943
-1.33245 -2.61264 -0.499301
-1.32296 -2.61442 -0.506845
-1.32128 -2.61384 -0.513936
-1.09314 -2.72373 -0.191026
-1.15819 -2.7027 -0.197029
-1.19451 -2.69046 -0.203581
-1.22536 -2.6799 -0.210198
-1.24212 -2.67365 -0.217106
-1.26334 -2.66605 -0.223865
-1.28101 -2.65953 -0.230677
-1.2918 -2.65512 -0.237641
-1.31015 -2.64841 -0.244369
-1.31735 -2.6451 -0.251382
-1.32468 -2.64175 -0.258374
-1.3362 -2.63713 -0.265219
-1.34378 -2.63371 -0.272163
-1.35146 -2.63027 -0.279085
-1.35146 -2.62916 -0.286243
-1.35926 -2.62569 -0.29313
-1.36296 -2.62346 -0.30014
-1.36717 -2.62108 -0.307121
-1.3709 -2.61885 -0.314106
-1.37094 -2.61774 -0.321216
-1.37463 -2.61552 -0.328181
-1.37465 -2.61442 -0.335277
-1.37826 -2.61223 -0.342224
-1.37823 -2.61114 -0.349307
-1.38173 -2.60899 -0.356238
-1.38164 -2.60792 -0.363309
-1.37714 -2.60819 -0.370563
-1.38041 -2.60611 -0.377479
-1.38019 -2.60509 -0.384539
-1.37879 -2.60443 -0.391647
-1.37394 -2.6048 -0.398911
-1.37356 -2.60383 -0.405967
-1.37314 -2.60287 -0.41302
-1.37117 -2.60238 -0.420143
-1.36598 -2.60286 -0.427422
-1.3636 -2.60249 -0.434563
-1.35816 -2.60304 -0.441858
-1.35735 -2.6022 -0.448916
-1.35175 -2.6028 -0.456222
-1.34865 -2.60265 -0.463397
-1.34277 -2.60334 -0.470722
-1.33432 -2.6048 -0.478194
-1.32813 -2.60557 -0.485546
-1.32678 -2.6049 -0.492628
-1.31755 -2.60659 -0.50016
-1.31097 -2.60748 -0.507546
-1.3011 -2.60936 -0.515132
-0.962601 -2.75363 -0.186257
-1.08666 -2.71468 -0.191165
-1.14195 -2.6967 -0.197391
-1.17185 -2.68646 -0.204105
-1.19853 -2.67721 -0.21084
-1.22603 -2.66772 -0.217504
-1.24728 -2.66013 -0.224277
-1.25777 -2.65582 -0.231292
-1.2757 -2.64926 -0.238081
-1.28664 -2.64482 -0.24503
-1.2937 -2.64156 -0.252067
-1.30497 -2.63703 -0.258961
-1.31231 -2.6337 -0.265951
-1.31976 -2.63033 -0.272919
-1.32731 -2.62694 -0.279865
-1.33495 -2.62352 -0.286789
-1.34267 -2.62008 -0.293693
-1.34264 -2.61899 -0.300847
-1.35043 -2.61553 -0.307716
-1.35042 -2.61444 -0.314851
-1.35401 -2.61225 -0.321846
-1.36185 -2.60879 -0.328667
-1.36182 -2.60771 -0.335776
-1.36177 -2.60663 -0.342879
-1.36171 -2.60556 -0.349976
-1.36078 -2.60474 -0.357104
-1.3641 -2.60265 -0.364048
-1.36391 -2.60162 -0.371132
-1.3637 -2.60059 -0.378211
-1.36232 -2.59992 -0.385336
-1.36201 -2.59893 -0.39241
-1.36033 -2.59835 -0.399541
-1.35989 -2.5974 -0.406611
-1.35481 -2.59784 -0.413897
-1.35428 -2.59691 -0.420965
-1.35203 -2.59651 -0.428113
-1.34665 -2.59704 -0.435416
-1.34398 -2.59676 -0.442583
-1.33835 -2.59736 -0.449903
-1.33743 -2.59656 -0.456977
-1.32934 -2.5979 -0.464431
-1.32335 -2.59861 -0.471778
-1.32216 -2.59789 -0.478865
-1.31332 -2.59945 -0.486375
-1.30908 -2.59964 -0.493633
-1.30252 -2.60052 -0.501025
-1.29586 -2.60144 -0.508428
-1.28582 -2.60336 -0.516036
-0.999836 -2.73113 -0.18549
-1.07603 -2.70687 -0.191393
-1.12556 -2.6907 -0.197756
-1.15555 -2.68048 -0.204482
-1.18226 -2.67125 -0.21123
-1.20293 -2.66387 -0.218077
-1.22404 -2.65635 -0.224872
-1.24153 -2.64994 -0.231722
-1.25219 -2.6456 -0.238722
-1.27035 -2.63899 -0.245488
-1.27734 -2.63577 -0.252541
-1.28859 -2.63126 -0.259449
-1.29585 -2.62796 -0.266455
-1.30737 -2.62338 -0.273308
-1.31487 -2.62001 -0.280266
-1.31473 -2.61895 -0.287459
-1.32234 -2.61556 -0.294382
-1.33002 -2.61214 -0.301285
-1.32994 -2.61107 -0.308445
-1.33342 -2.60893 -0.31547
-1.34118 -2.6055 -0.322323
-1.3411 -2.60443 -0.329457
-1.34453 -2.6023 -0.336447
-1.34441 -2.60125 -0.343567
-1.34776 -2.59915 -0.350542
-1.34759 -2.59812 -0.357649
-1.3474 -2.59709 -0.364752
-1.3461 -2.59639 -0.371897
-1.34581 -2.59539 -0.378994
-1.34879 -2.59341 -0.38594
-1.34386 -2.5938 -0.393234
-1.34344 -2.59285 -0.400322
-1.34149 -2.59235 -0.407477
-1.34094 -2.59143 -0.414562
-1.33568 -2.59192 -0.421871
-1.33504 -2.59103 -0.428954
-1.33249 -2.59071 -0.436128
-1.32693 -2.59129 -0.443455
-1.32397 -2.5911 -0.45065
-1.31815 -2.59176 -0.457994
-1.3171 -2.59099 -0.465087
-1.30865 -2.59244 -0.472578
-1.30476 -2.59252 -0.479825
-1.2984 -2.59333 -0.48721
-1.29194 -2.59418 -0.494607
-1.28231 -2.59597 -0.502189
-1.28063 -2.59539 -0.509318
-1.27043 -2.59735 -0.516947
-1.00418 -2.71868 -0.1854
-1.06535 -2.69905 -0.191622
-1.10489 -2.68596 -0.198217
-1.13498 -2.67575 -0.204958
-1.16585 -2.6653 -0.211623
-1.18654 -2.65794 -0.218483
-1.20356 -2.65169 -0.225397
-1.22513 -2.64407 -0.232156
-1.23576 -2.63975 -0.23917
-1.24658 -2.63538 -0.246156
-1.25756 -2.63096 -0.253113
-1.27202 -2.6255 -0.259942
-1.27921 -2.62224 -0.266964
-1.28311 -2.61996 -0.274071
-1.29047 -2.61665 -0.281054
-1.29792 -2.61331 -0.288015
-1.30545 -2.60995 -0.294956
-1.30528 -2.60891 -0.302145
-1.31289 -2.60553 -0.309052
-1.32056 -2.60213 -0.315938
-1.32042 -2.60108 -0.323096
-1.32376 -2.59899 -0.330116
-1.3236 -2.59795 -0.337261
-1.32687 -2.59588 -0.344264
-1.32666 -2.59486 -0.351396
-1.32983 -2.59282 -0.358383
-1.32957 -2.59181 -0.365504
-1.32929 -2.59081 -0.37262
-1.33227 -2.58884 -0.379587
-1.32735 -2.58923 -0.386897
-1.33012 -2.58732 -0.393858
-1.32502 -2.58776 -0.401174
-1.32449 -2.58683 -0.408277
-1.32393 -2.58592 -0.415376
-1.3216 -2.58554 -0.422556
-1.31903 -2.58523 -0.429747
-1.31344 -2.58581 -0.437087
-1.31257 -2.58499 -0.444189
-1.30683 -2.58562 -0.45154
-1.30356 -2.58552 -0.458764
-1.30001 -2.5855 -0.466002
-1.29383 -2.58626 -0.473383
-1.28756 -2.58704 -0.480774
-1.28337 -2.58721 -0.488052
-1.27681 -2.58808 -0.495465
-1.27016 -2.58898 -0.502889
-1.26016 -2.59087 -0.510514
-1.25493 -2.59134 -0.517865
-0.929786 -2.73108 -0.179331
-1.00572 -2.70707 -0.185369
-1.05882 -2.68995 -0.191762
-1.09452 -2.67807 -0.198448
-1.1207 -2.66907 -0.205288
-1.14929 -2.65935 -0.21202
-1.17 -2.65201 -0.218893
-1.18699 -2.64579 -0.225821
-1.20148 -2.64033 -0.232781
-1.21918 -2.6339 -0.239623
-1.22997 -2.62956 -0.246624
-1.24092 -2.62517 -0.253595
-1.24784 -2.62199 -0.260663
-1.2591 -2.61751 -0.26758
-1.26628 -2.61426 -0.2746
-1.27356 -2.61098 -0.281599
-1.28092 -2.60768 -0.288578
-1.28494 -2.60538 -0.295651
-1.29244 -2.60205 -0.302591
-1.29566 -2.59999 -0.309665
-1.29979 -2.59767 -0.316694
-1.30303 -2.59561 -0.323744
-1.30281 -2.59459 -0.330914
-1.31042 -2.59123 -0.337774
-1.31019 -2.59022 -0.344926
-1.31333 -2.5882 -0.351936
-1.31305 -2.58719 -0.359077
-1.31275 -2.5862 -0.366213
-1.31119 -2.58558 -0.373397
-1.31404 -2.58365 -0.380386
-1.3136 -2.5827 -0.38751
-1.30851 -2.58313 -0.39484
-1.31108 -2.58129 -0.401818
-1.3105 -2.58039 -0.408935
-1.30813 -2.58001 -0.416132
-1.30266 -2.58056 -0.423479
-1.30189 -2.57971 -0.430595
-1.29902 -2.57949 -0.437813
-1.29325 -2.58012 -0.445177
-1.29226 -2.57934 -0.452297
-1.28886 -2.57927 -0.459539
-1.28276 -2.58 -0.466926
-1.27891 -2.58007 -0.474195
-1.27255 -2.58088 -0.481602
-1.26608 -2.58172 -0.48902
-1.26158 -2.58198 -0.496331
-1.25484 -2.58289 -0.503772
-1.24467 -2.58482 -0.511418
-1.23409 -2.58687 -0.519099
-0.943524 -2.71572 -0.17906
-1.00467 -2.69624 -0.18539
-1.04806 -2.6821 -0.191993
-1.07772 -2.67209 -0.198822
-1.10813 -2.66185 -0.205578
-1.1326 -2.65341 -0.21242
-1.14912 -2.64734 -0.219411
-1.17028 -2.6399 -0.22625
-1.18478 -2.63445 -0.233223
-1.20244 -2.62806 -0.24008
-1.2132 -2.62375 -0.247095
-1.22412 -2.61938 -0.254082
-1.23096 -2.61623 -0.261165
-1.24218 -2.61179 -0.268097
-1.24928 -2.60857 -0.275135
-1.25647 -2.60533 -0.282151
-1.26042 -2.60306 -0.289256
-1.26775 -2.59978 -0.296234
-1.27516 -2.59648 -0.303192
-1.28262 -2.59317 -0.310129
-1.28235 -2.59217 -0.317329
-1.28545 -2.59016 -0.324398
-1.28959 -2.58784 -0.331416
-1.29268 -2.58584 -0.338463
-1.29238 -2.58484 -0.345633
-1.29538 -2.58287 -0.352664
-1.29503 -2.58189 -0.359822
-1.29792 -2.57995 -0.366838
-1.2975 -2.579 -0.373986
-1.29707 -2.57805 -0.381129
-1.29511 -2.57755 -0.388335
-1.29457 -2.57663 -0.395473
-1.294 -2.57572 -0.402608
-1.29167 -2.57534 -0.409821
-1.29098 -2.57447 -0.416954
-1.28832 -2.57418 -0.424177
-1.28268 -2.57477 -0.431546
-1.28179 -2.57396 -0.43868
-1.27863 -2.57382 -0.445925
-1.27267 -2.5745 -0.453314
-1.27157 -2.57376 -0.460452
-1.26786 -2.57378 -0.467724
-1.26158 -2.57456 -0.475137
-1.25236 -2.5762 -0.482716
-1.25087 -2.57557 -0.489872
-1.2411 -2.57738 -0.497494
-1.23612 -2.57777 -0.50485
-1.22908 -2.57877 -0.512329
-1.21834 -2.58086 -0.520032
-0.88987 -2.72167 -0.172478
-0.952113 -2.70193 -0.17889
-0.999478 -2.68665 -0.185497
-1.03724 -2.67425 -0.192225
