ply
format ascii 1.0
comment Created by Open3D
element vertex 1864
property double x
property double y
property double z
end_header
-1.93042 -1.69217 2.31188
-1.8992 -1.69192 2.31784
-1.93006 -1.6915 2.29296
-1.92308 -1.69116 2.2869
-1.92873 -1.69102 2.27432
-1.85293 -1.69114 2.3022
-1.87562 -1.69101 2.28109
-1.84746 -1.69098 2.28532
-1.91226 -1.69132 2.24266
-1.85435 -1.69136 2.26168
-1.83862 -1.6915 2.25949
-1.84103 -1.69205 2.24779
-1.77819 -1.69236 2.26897
-1.8516 -1.69276 2.22192
-1.85803 -1.69357 2.20792
-1.78564 -1.69414 2.23357
-1.80606 -1.69511 2.21237
-1.76502 -1.69585 2.22215
-1.84802 -1.69666 2.16981
-1.77395 -1.69787 2.19555
-1.79217 -1.69946 2.1747
-1.79534 -1.70075 2.1617
-1.76456 -1.70282 2.16477
-1.78147 -1.70468 2.1442
-1.76575 -1.70709 2.1393
-1.72022 -1.70988 2.14882
-1.65784 -1.7138 2.16542
-1.69073 -1.71978 2.13191
-1.88705 -1.72255 2.52397
-1.85511 -1.71677 2.53497
-1.8206 -1.71167 2.54671
-1.91316 -1.70796 2.49371
-1.86179 -1.70525 2.51181
-1.87825 -1.70261 2.49595
-1.83379 -1.70006 2.51051
-1.85536 -1.69842 2.49124
-1.83613 -1.69604 2.49307
-1.89698 -1.69453 2.45408
-1.87755 -1.69306 2.4552
-1.87478 -1.69166 2.44795
-1.8614 -1.69032 2.44596
-1.94171 -1.68904 2.39708
-1.92987 -1.68783 2.39423
-1.9294 -1.68669 2.38563
-1.95927 -1.68563 2.36181
-1.85825 -1.68497 2.40304
-1.91859 -1.68405 2.36385
-1.87862 -1.68362 2.37434
-1.92636 -1.68282 2.34136
-1.81472 -1.6821 2.388
-1.91836 -1.68177 2.3266
-1.89409 -1.68151 2.3291
-1.93365 -1.681 2.29994
-1.88425 -1.68057 2.31518
-1.8813 -1.68039 2.30694
-1.87337 -1.68042 2.30097
-1.89638 -1.68021 2.27979
-1.89207 -1.68008 2.27218
-1.87571 -1.68038 2.27015
-1.81525 -1.68037 2.29049
-1.87303 -1.68042 2.25164
-1.79437 -1.68055 2.28092
-1.95477 -1.6811 2.19023
-1.8919 -1.68141 2.21142
-1.85415 -1.68191 2.21983
-1.81006 -1.68235 2.23148
-1.7879 -1.68287 2.23207
-1.82623 -1.68379 2.20196
-1.88153 -1.68479 2.16327
-1.75603 -1.68587 2.21487
-1.77484 -1.68686 2.1944
-1.75206 -1.68813 2.19441
-1.71609 -1.68978 2.20055
-1.70988 -1.69116 2.1921
-1.72856 -1.69331 2.1703
-1.82466 -1.6956 2.1096
-1.62354 -1.69847 2.19681
-1.67267 -1.70215 2.1579
-1.61129 -1.70772 2.17196
-1.73654 -1.71459 2.59572
-1.86499 -1.70563 2.5294
-1.85692 -1.70056 2.52792
-1.86744 -1.69779 2.5151
-1.79105 -1.69418 2.54654
-1.82169 -1.69156 2.52359
-1.86384 -1.68987 2.49406
-1.8541 -1.6874 2.49122
-1.78314 -1.68581 2.51819
-1.89206 -1.68353 2.45589
-1.83588 -1.68208 2.47538
-1.90761 -1.68068 2.43087
-1.88914 -1.67935 2.43143
-1.93845 -1.67808 2.39805
-1.92552 -1.67687 2.39573
-1.94029 -1.67574 2.37952
-1.97955 -1.67502 2.35067
-1.9337 -1.67451 2.36416
-1.91906 -1.67356 2.3625
-1.86972 -1.67268 2.37812
-1.91927 -1.67189 2.34423
-1.95279 -1.6715 2.31794
-1.89494 -1.67117 2.33729
-1.91437 -1.67058 2.31828
-1.86531 -1.67006 2.33343
-1.88187 -1.66984 2.31547
-1.9666 -1.66978 2.26326
-1.87329 -1.66948 2.30032
-1.92685 -1.66927 2.26387
-1.95845 -1.66919 2.23824
-1.82064 -1.66943 2.29699
-1.86099 -1.66942 2.26692
-1.835 -1.66947 2.26996
-1.86639 -1.66992 2.24387
-1.88814 -1.67014 2.22285
-1.8697 -1.67028 2.222
-1.88659 -1.67094 2.20291
-1.88535 -1.67137 2.19314
-1.81766 -1.6722 2.21614
-1.83105 -1.6728 2.19885
-1.85764 -1.67379 2.1745
-1.77387 -1.67455 2.2056
-1.84109 -1.6757 2.16074
-1.7981 -1.6771 2.17068
-1.78794 -1.67843 2.16427
-1.81494 -1.6801 2.13887
-1.6869 -1.68223 2.19043
-1.76348 -1.6845 2.13949
-1.76793 -1.68691 2.12443
-1.67478 -1.69051 2.15673
-1.62279 -1.69568 2.16653
-1.71468 -1.70527 2.60431
-1.81876 -1.69543 2.55102
-1.80407 -1.69073 2.55253
-1.85406 -1.68669 2.52115
-1.90053 -1.684 2.49033
-1.81409 -1.68137 2.52594
-1.91521 -1.67882 2.46773
-1.89594 -1.67637 2.46965
-1.84955 -1.67479 2.48432
-1.92829 -1.67327 2.43641
-1.84738 -1.67108 2.46897
-1.9179 -1.66969 2.42507
-1.85929 -1.66837 2.44569
-1.85347 -1.6671 2.43987
-1.91827 -1.66625 2.39836
-1.84576 -1.66567 2.42523
-1.85578 -1.66458 2.41136
-1.92055 -1.66355 2.37005
-1.93701 -1.66261 2.35284
-1.8845 -1.66173 2.37005
-1.9728 -1.66127 2.31644
-1.86361 -1.6609 2.3615
-1.78736 -1.66023 2.39039
-1.88218 -1.65963 2.33368
-1.84206 -1.65912 2.34436
-1.89161 -1.65923 2.30957
-1.87414 -1.65884 2.3088
-1.88271 -1.65854 2.29492
-1.83473 -1.65842 2.30913
-1.87118 -1.65857 2.28084
-1.95296 -1.65848 2.23013
-1.83841 -1.65847 2.27751
-1.93315 -1.65883 2.21984
-1.83791 -1.65889 2.25749
-1.79863 -1.65906 2.26703
-1.81349 -1.65963 2.24906
-1.92879 -1.65997 2.18111
-1.78207 -1.66071 2.24372
-1.75738 -1.66121 2.24557
-1.76398 -1.66211 2.23133
-1.79203 -1.66279 2.20661
-1.73634 -1.66354 2.22366
-1.71685 -1.66467 2.22215
-1.80241 -1.66588 2.16803
-1.78025 -1.66738 2.16741
-1.73619 -1.66877 2.17785
-1.78491 -1.67053 2.14145
-1.70701 -1.67273 2.16781
-1.6967 -1.67567 2.15948
-1.74058 -1.67889 2.12369
-1.70325 -1.68312 2.12723
-1.673 -1.69446 2.11862
-1.8316 -1.68521 2.54311
-1.78156 -1.68052 2.5623
-1.80406 -1.67684 2.54435
-1.79538 -1.67291 2.54227
-1.8654 -1.6703 2.49964
-1.86241 -1.66777 2.49347
-1.81211 -1.66614 2.51015
-1.87335 -1.66377 2.47177
-1.91355 -1.66225 2.44312
-1.85459 -1.66079 2.46401
-1.88064 -1.65938 2.44237
-1.89362 -1.65803 2.42722
-1.88728 -1.65674 2.42169
-1.88516 -1.65586 2.41366
-1.89357 -1.6547 2.40065
-1.90234 -1.65361 2.3874
-1.96556 -1.65259 2.34687
-1.85785 -1.65165 2.39174
-1.96779 -1.65078 2.32773
-1.84286 -1.6507 2.38034
-1.81087 -1.64995 2.38718
-1.89795 -1.64928 2.33441
-1.82672 -1.64868 2.36073
-1.82344 -1.64875 2.35238
-1.83106 -1.64828 2.33915
-1.90221 -1.64789 2.29407
-1.81622 -1.64773 2.32733
-1.85848 -1.64759 2.29643
-1.88044 -1.64761 2.27551
-1.88975 -1.64752 2.26104
-1.91769 -1.64783 2.23683
-1.91114 -1.64784 2.23017
-1.89911 -1.64792 2.22619
-1.82048 -1.6484 2.25505
-1.75907 -1.64865 2.27556
-1.90286 -1.6493 2.19302
-1.7174 -1.6495 2.2756
-1.7264 -1.64996 2.26066
-1.80164 -1.65081 2.21213
-1.84728 -1.65143 2.17867
-1.75473 -1.65275 2.21348
-1.77416 -1.65364 2.19279
-1.78776 -1.65484 2.17464
-1.75507 -1.65611 2.17954
-1.78963 -1.6577 2.15043
-1.73535 -1.65944 2.16553
-1.70276 -1.66158 2.16929
-1.68185 -1.66425 2.16655
-1.7007 -1.66699 2.14382
-1.71771 -1.67113 2.12027
-1.62004 -1.67843 2.15018
-1.72108 -1.67497 2.59687
-1.82916 -1.6703 2.537
-1.85343 -1.66663 2.51817
-1.90089 -1.66304 2.48771
-1.86997 -1.66008 2.4959
-1.88249 -1.65754 2.482
-1.83744 -1.65509 2.49682
-1.90557 -1.65351 2.45425
-1.94306 -1.65123 2.4277
-1.85988 -1.64977 2.46071
-1.86783 -1.64837 2.44811
-1.86897 -1.64737 2.43854
-1.89794 -1.64609 2.41535
-1.8923 -1.64487 2.40942
-1.953 -1.64372 2.37026
-1.88482 -1.64263 2.39548
-1.93444 -1.64162 2.36176
-1.79398 -1.64068 2.423
-1.8778 -1.64057 2.37126
-1.93554 -1.63974 2.33331
-1.76978 -1.63899 2.40704
-1.97908 -1.63832 2.29316
-1.85134 -1.63801 2.34743
-1.91968 -1.63779 2.30357
-1.81766 -1.63732 2.34516
-1.90315 -1.63711 2.29271
-1.93509 -1.63693 2.26702
-1.88921 -1.63683 2.28015
-1.87073 -1.63665 2.27967
-1.8779 -1.63659 2.26623
-1.82457 -1.63686 2.28268
-1.82158 -1.63687 2.27426
-1.8563 -1.63726 2.24654
-1.80925 -1.63742 2.25996
-1.77335 -1.63753 2.26786
-1.85615 -1.63813 2.21586
-1.79539 -1.6385 2.2359
-1.75142 -1.63927 2.24708
-1.85431 -1.6398 2.18509
-1.8525 -1.64072 2.17499
-1.76753 -1.64141 2.20673
-1.85883 -1.64249 2.14988
-1.82565 -1.64364 2.15516
-1.74471 -1.64505 2.18401
-1.75512 -1.64638 2.16726
-1.71671 -1.64805 2.17449
-1.75877 -1.65017 2.14093
-1.72999 -1.65243 2.1426
-1.65134 -1.65554 2.16814
-1.65224 -1.65916 2.15326
-1.64996 -1.66546 2.13663
-1.74707 -1.66598 2.58119
-1.84496 -1.65914 2.52846
-1.80815 -1.6555 2.54017
-1.80635 -1.65282 2.5335
-1.84903 -1.64933 2.50539
-1.87782 -1.64647 2.48368
-1.8735 -1.64483 2.47737
-1.80787 -1.64246 2.50245
-1.90208 -1.64094 2.44681
-1.88298 -1.6398 2.44746
-1.90103 -1.63769 2.43051
-1.8728 -1.63636 2.43596
-1.84887 -1.63508 2.43922
-1.96983 -1.63387 2.36998
-1.87421 -1.63273 2.40898
-1.92454 -1.63165 2.37495
-1.89159 -1.63113 2.38199
-1.9249 -1.63049 2.35604
-1.91037 -1.62959 2.3543
-1.89455 -1.62877 2.35312
-1.90615 -1.62838 2.33778
-1.82099 -1.62768 2.37118
-1.86413 -1.62737 2.34
-1.85945 -1.62682 2.333
-1.83154 -1.62658 2.33729
-1.87578 -1.62615 2.3057
-1.88726 -1.62612 2.29006
-1.8844 -1.62586 2.28186
-1.86567 -1.62576 2.28141
-1.88333 -1.62594 2.26246
-1.79721 -1.62589 2.29566
-1.78199 -1.62589 2.29335
-1.87161 -1.62623 2.23823
-1.78751 -1.62635 2.27022
-1.79494 -1.62686 2.25601
-1.84525 -1.62714 2.22061
-1.81505 -1.6275 2.22536
-1.83573 -1.62826 2.20422
-1.77798 -1.62878 2.22255
-1.72946 -1.6297 2.2358
-1.79209 -1.63038 2.19374
-1.79286 -1.63145 2.18215
-1.7252 -1.63259 2.20467
-1.77042 -1.6338 2.17066
-1.75515 -1.6353 2.16653
-1.73334 -1.63698 2.16543
-1.65604 -1.63874 2.19197
-1.70508 -1.64093 2.15479
-1.71838 -1.64367 2.13479
-1.66051 -1.64749 2.149
-1.64481 -1.65255 2.14056
-1.83974 -1.65661 2.5325
-1.82416 -1.64889 2.53736
-1.78596 -1.64525 2.54977
-1.77007 -1.64169 2.55099
-1.8843 -1.63909 2.48629
-1.8581 -1.63655 2.49176
-1.7944 -1.6341 2.51593
-1.80191 -1.63252 2.50368
-1.82272 -1.63023 2.48549
-1.93012 -1.62876 2.42322
-1.93674 -1.62735 2.41131
-1.94085 -1.626 2.4006
-1.90739 -1.6247 2.40865
-1.85633 -1.62346 2.42545
-1.86651 -1.62229 2.41158
-1.9186 -1.62118 2.3767
-1.84483 -1.62047 2.40435
-1.85047 -1.61951 2.39258
-1.81459 -1.61861 2.4015
-1.88912 -1.61819 2.35473
-1.85361 -1.61741 2.36337
-1.96948 -1.61703 2.29589
-1.8721 -1.6164 2.33532
-1.85425 -1.61611 2.33461
-1.85792 -1.6156 2.3234
-1.87664 -1.61549 2.30422
-1.89804 -1.61515 2.28397
-1.8665 -1.615 2.28998
-1.82874 -1.61488 2.29906
-1.88551 -1.61496 2.26067
-1.87955 -1.61492 2.25377
-1.7861 -1.61522 2.29023
-1.82486 -1.61524 2.2609
-1.89983 -1.61535 2.21336
-1.92616 -1.61586 2.18969
-1.77631 -1.61613 2.25436
-1.74805 -1.61661 2.25801
-1.83588 -1.61701 2.2037
-1.84713 -1.61779 2.18721
-1.82919 -1.61835 2.18559
-1.7839 -1.61929 2.19717
-1.79419 -1.62031 2.18087
-1.78879 -1.6214 2.17231
-1.73697 -1.62273 2.18667
-1.74725 -1.624 2.17002
-1.81071 -1.62559 2.12639
-1.68007 -1.62762 2.17924
-1.77132 -1.62979 2.12095
-1.68784 -1.6321 2.14985
-1.60298 -1.63555 2.17798
-1.68816 -1.63999 2.11983
-1.78164 -1.64845 2.55801
-1.84014 -1.63987 2.52667
-1.82078 -1.63499 2.53086
-1.80012 -1.63144 2.53448
-1.80991 -1.62797 2.52283
-1.7622 -1.62546 2.53905
-1.82573 -1.62382 2.49882
-1.79998 -1.62145 2.50398
-1.92017 -1.61992 2.43536
-1.82925 -1.61772 2.47298
-1.89844 -1.61631 2.42978
-1.90133 -1.61497 2.41969
-1.80947 -1.61367 2.45694
-1.9217 -1.61245 2.39209
-1.90515 -1.61128 2.39158
-1.87372 -1.61051 2.39811
-1.85704 -1.60947 2.39756
-1.87134 -1.60898 2.38096
-1.8727 -1.60806 2.3713
-1.88344 -1.6072 2.35688
-1.91211 -1.60675 2.33308
-1.85862 -1.60604 2.35063
-1.85906 -1.60572 2.34082
-1.84338 -1.60513 2.33935
-1.90049 -1.60486 2.30115
-1.8712 -1.60471 2.30602
-1.91617 -1.60433 2.27403
-1.76264 -1.60416 2.34105
-1.84428 -1.60411 2.29035
-1.89721 -1.60403 2.25405
-1.89685 -1.60397 2.24437
-1.83566 -1.60422 2.26474
-1.84305 -1.60425 2.25109
-1.89292 -1.60466 2.21575
-1.86805 -1.60475 2.21815
-1.87309 -1.60498 2.20543
-1.77857 -1.60559 2.24203
-1.85475 -1.60599 2.19355
-1.76872 -1.60676 2.2257
-1.79468 -1.60762 2.20176
-1.85671 -1.60825 2.16005
-1.7386 -1.60926 2.20794
-1.80803 -1.61004 2.16233
-1.68244 -1.61149 2.21341
-1.76099 -1.61291 2.16243
-1.75125 -1.61423 2.1557
-1.74328 -1.61591 2.14765
-1.60383 -1.61801 2.20477
-1.79608 -1.62055 2.09549
-1.71925 -1.62363 2.12004
-1.65627 -1.62797 2.13604
-1.6394 -1.63597 2.12435
-1.78559 -1.62957 2.55244
-1.90121 -1.62382 2.48999
-1.85926 -1.62029 2.50425
-1.88398 -1.6177 2.48431
-1.84113 -1.61518 2.49812
-1.83529 -1.61273 2.49338
-1.84302 -1.61114 2.48102
-1.97082 -1.60885 2.40937
-1.87536 -1.60738 2.44854
-1.74494 -1.60596 2.50516
-1.9637 -1.60393 2.38783
-1.89973 -1.60264 2.41113
-1.91512 -1.60142 2.3947
-1.90424 -1.60083 2.39076
-1.89333 -1.60003 2.38707
-1.84197 -1.59897 2.40388
-1.95568 -1.59798 2.3381
-1.89355 -1.59705 2.36018
-1.77967 -1.59653 2.40773
-1.95885 -1.59613 2.3086
-1.8579 -1.59539 2.34993
-1.78854 -1.59472 2.37538
-1.82976 -1.59442 2.34515
-1.82076 -1.59419 2.33996
-1.79681 -1.59372 2.34251
-1.83822 -1.59333 2.3123
-1.84218 -1.59334 2.30038
-1.82334 -1.59322 2.3
-1.89643 -1.59303 2.25373
-1.93354 -1.59324 2.225
-1.86409 -1.59322 2.24981
-1.83065 -1.59353 2.25624
-1.90288 -1.59359 2.21013
-1.87825 -1.59373 2.21234
-1.87424 -1.59427 2.20378
-1.84205 -1.59457 2.20958
-1.7933 -1.59526 2.2232
-1.81931 -1.59573 2.19969
-1.79268 -1.59629 2.20238
-1.80903 -1.59718 2.1832
-1.75576 -1.59813 2.19872
-1.78433 -1.59917 2.17322
-1.81432 -1.60011 2.14711
-1.7046 -1.60132 2.1905
-1.68402 -1.60312 2.18859
-1.69871 -1.6048 2.16919
-1.70282 -1.60654 2.15496
-1.70508 -1.60901 2.14073
-1.63842 -1.61172 2.16062
-1.72064 -1.61569 2.10447
-1.62152 -1.62214 2.13579
-1.73905 -1.61926 2.57419
-1.80444 -1.61476 2.53567
-1.77504 -1.61001 2.54486
-1.78076 -1.60741 2.53443
-1.81876 -1.60488 2.50782
-1.83563 -1.60243 2.49175
-1.85686 -1.60005 2.47344
-1.88487 -1.59852 2.45092
-1.78647 -1.59631 2.49232
-1.82304 -1.5949 2.46544
-1.86272 -1.59354 2.43697
-1.83613 -1.59223 2.4416
-1.86298 -1.59132 2.41913
-1.93152 -1.59013 2.37609
-1.92713 -1.58901 2.36948
-1.88401 -1.58795 2.38217
-1.84756 -1.58696 2.39147
-1.86605 -1.5865 2.37276
-1.96407 -1.58594 2.31439
-1.98472 -1.58512 2.29497
-1.88746 -1.58438 2.33445
-1.92656 -1.58372 2.30567
-1.86826 -1.58374 2.32485
-1.86047 -1.58319 2.3194
-1.84665 -1.58272 2.31689
-1.87913 -1.58284 2.29058
-1.83292 -1.58249 2.30414
-1.88286 -1.58222 2.26953
-1.81325 -1.58234 2.29426
-1.71939 -1.58228 2.33132
-1.81703 -1.58221 2.27263
-1.84491 -1.58252 2.2484
-1.80492 -1.58258 2.25839
-1.76425 -1.58302 2.26826
-1.86159 -1.58312 2.20953
-1.82285 -1.58338 2.21865
-1.73571 -1.58402 2.25151
-1.78716 -1.58474 2.21497
-1.86134 -1.58524 2.16733
-1.81085 -1.58612 2.18156
-1.70078 -1.58677 2.22584
-1.76294 -1.58779 2.18355
-1.75034 -1.58889 2.17853
-1.73351 -1.59022 2.17532
-1.66004 -1.59149 2.2005
-1.70076 -1.59337 2.1678
-1.72243 -1.5954 2.14443
-1.68215 -1.59755 2.15183
-1.65463 -1.60012 2.15231
-1.72309 -1.60371 2.10348
-1.61907 -1.60923 2.13837
-1.69237 -1.61015 2.59483
-1.8094 -1.60445 2.53168
-1.75312 -1.60004 2.55398
-1.79533 -1.59626 2.52648
-1.80456 -1.59375 2.51426
-1.73523 -1.59131 2.54128
-1.83293 -1.58973 2.48395
-1.86842 -1.58743 2.45847
-1.825 -1.58595 2.47164
-1.78476 -1.58383 2.4839
-1.93162 -1.58248 2.40184
-1.87433 -1.58151 2.42148
-1.81469 -1.58027 2.44258
-1.88102 -1.57909 2.40066
-1.84466 -1.57798 2.41002
-1.86641 -1.57693 2.39028
-1.86434 -1.57642 2.38187
-1.84974 -1.5758 2.37987
-1.7852 -1.57492 2.40312
-1.95841 -1.57411 2.30743
-1.93753 -1.57337 2.30871
-1.80128 -1.57335 2.36691
-1.85999 -1.57273 2.32828
-1.86293 -1.57218 2.31747
-1.85686 -1.57194 2.31083
-1.82727 -1.57183 2.3158
-1.80903 -1.57148 2.31537
-1.87444 -1.57133 2.27289
-1.76439 -1.57141 2.31788
-1.81729 -1.57126 2.28165
-1.78786 -1.5715 2.28615
-1.84865 -1.5715 2.24581
-1.81193 -1.57182 2.25385
-1.76572 -1.57192 2.2669
-1.77915 -1.57209 2.25003
-1.71276 -1.57265 2.27261
-1.81837 -1.57298 2.20946
-1.90018 -1.57369 2.15774
-1.79004 -1.57418 2.20226
-1.81071 -1.57505 2.18091
-1.68104 -1.57596 2.23467
-1.78475 -1.57671 2.17192
-1.80035 -1.57779 2.1528
-1.7418 -1.57865 2.17102
-1.75376 -1.58037 2.15291
-1.72938 -1.58169 2.15344
-1.72676 -1.58365 2.14228
-1.68658 -1.58575 2.14969
-1.66979 -1.58826 2.14486
-1.61759 -1.59159 2.15665
-1.53583 -1.59638 2.18131
-1.67463 -1.60066 2.60131
-1.76659 -1.59411 2.55156
-1.78464 -1.58972 2.53671
-1.79917 -1.58628 2.52273
-1.75921 -1.58377 2.53511
-1.87865 -1.58098 2.4681
-1.91774 -1.57861 2.44088
-1.81702 -1.57708 2.48273
-1.86737 -1.57486 2.44978
-1.8061 -1.57377 2.4715
-1.85626 -1.5724 2.43781
-1.84525 -1.57109 2.43467
-1.90237 -1.56983 2.39742
-1.86446 -1.56862 2.40764
-1.80135 -1.56748 2.43041
-1.86062 -1.5664 2.39193
-1.84923 -1.56571 2.38839
-1.86704 -1.56477 2.37053
-1.91831 -1.56389 2.33587
-1.84903 -1.56348 2.36099
-1.83021 -1.56303 2.36093
-1.8534 -1.56233 2.34014
-1.8402 -1.56171 2.33747
-1.81935 -1.56143 2.33826
-1.86437 -1.56124 2.30601
-1.78603 -1.56081 2.33571
-1.84922 -1.56062 2.29438
-1.89427 -1.56062 2.2619
-1.89752 -1.56039 2.2506
-1.85124 -1.56031 2.26389
-1.88031 -1.5605 2.23917
-1.83543 -1.56047 2.25171
-1.77652 -1.56079 2.27083
-1.76572 -1.56088 2.26618
-1.78838 -1.56135 2.24433
-1.74286 -1.56147 2.257
-1.83714 -1.56175 2.19956
-1.86609 -1.56242 2.17432
-1.80822 -1.56316 2.19239
-1.78132 -1.56368 2.19523
-1.70612 -1.56458 2.22177
-1.77092 -1.56525 2.17856
-1.83149 -1.56658 2.13664
-1.80823 -1.56769 2.13689
-1.75898 -1.56905 2.14982
-1.69505 -1.57061 2.16981
-1.7419 -1.57222 2.13433
-1.73009 -1.57425 2.12763
-1.64553 -1.57669 2.15674
-1.65491 -1.57966 2.13817
-1.57931 -1.58358 2.16083
-1.54595 -1.59076 2.15808
-1.69396 -1.59409 2.58637
-1.74308 -1.58409 2.56146
-1.69978 -1.57938 2.57762
-1.85352 -1.57595 2.49404
-1.85324 -1.57343 2.4866
-1.78925 -1.57098 2.51098
-1.80815 -1.5686 2.49387
-1.88992 -1.5663 2.44527
-1.79615 -1.56482 2.48363
-1.82753 -1.56338 2.45938
-1.86072 -1.56132 2.4349
-1.79129 -1.56001 2.46096
-1.83156 -1.55876 2.43214
-1.90562 -1.55756 2.38637
-1.81593 -1.55643 2.42243
-1.79249 -1.55568 2.42496
-1.86513 -1.55467 2.37974
-1.84655 -1.55419 2.37957
-1.90207 -1.55328 2.34282
-1.88478 -1.55245 2.34241
-1.79654 -1.552 2.37706
-1.86653 -1.55164 2.33249
-1.88327 -1.55099 2.31489
-1.88999 -1.55069 2.30191
-1.87051 -1.55021 2.30223
-1.84467 -1.54999 2.30545
-1.8629 -1.54978 2.28661
-1.83661 -1.5496 2.29002
-1.81578 -1.54936 2.29075
-1.82802 -1.54958 2.27442
-1.84951 -1.54947 2.25385
-1.85899 -1.54944 2.2392
-1.83982 -1.54975 2.23846
-1.80577 -1.54984 2.24543
-1.72272 -1.55021 2.27655
-1.82922 -1.55041 2.21309
-1.82236 -1.551 2.20586
-1.75765 -1.55136 2.22781
-1.80347 -1.55209 2.19404
-1.8162 -1.5529 2.1767
-1.81104 -1.55348 2.16859
-1.79822 -1.5544 2.16387
-1.83431 -1.55548 2.13449
-1.72783 -1.55628 2.17673
-1.89778 -1.55774 2.07991
-1.67523 -1.55918 2.17935
-1.66703 -1.5608 2.17137
-1.72027 -1.56276 2.1322
-1.70896 -1.56486 2.12511
-1.69143 -1.56775 2.12007
-1.60293 -1.57112 2.14985
-1.55778 -1.57701 2.15461
-1.75756 -1.57459 2.55182
-1.70625 -1.56903 2.57286
-1.711 -1.56561 2.56379
-1.78971 -1.56226 2.51769
-1.78912 -1.55982 2.51037
-1.82608 -1.55746 2.48424
-1.81184 -1.55592 2.48286
-1.87234 -1.5537 2.44485
-1.8397 -1.55228 2.45261
-1.80647 -1.5509 2.46064
-1.80463 -1.54957 2.45292
-1.86826 -1.5483 2.41244
-1.85473 -1.5465 2.41112
-1.83313 -1.54593 2.41253
-1.91289 -1.54515 2.36349
-1.83368 -1.54411 2.39423
-1.84001 -1.54314 2.38214
-1.86443 -1.54224 2.36094
-1.84376 -1.54172 2.36187
-1.9712 -1.54133 2.28861
-1.7996 -1.5406 2.36525
-1.82465 -1.54026 2.34314
-1.78184 -1.53968 2.35524
-1.85187 -1.53942 2.31056
-1.82131 -1.53895 2.31642
-1.83892 -1.53887 2.29774
-1.83597 -1.53871 2.28945
-1.7797 -1.53856 2.3078
-1.89735 -1.53854 2.23904
-1.74939 -1.53848 2.30314
-1.86753 -1.5387 2.23384
-1.76118 -1.53869 2.27707
-1.74859 -1.53904 2.27299
-1.79332 -1.53916 2.24052
-1.83805 -1.53965 2.20759
-1.75871 -1.53978 2.23713
-1.73602 -1.5404 2.23776
-1.8147 -1.54079 2.18797
-1.84212 -1.54155 2.16334
-1.80864 -1.5421 2.16942
-1.77723 -1.54301 2.174
-1.75514 -1.54399 2.17382
-1.64679 -1.54504 2.21667
-1.73842 -1.54632 2.15923
-1.68725 -1.54754 2.17324
-1.66385 -1.54935 2.17259
-1.681 -1.55129 2.15147
-1.80485 -1.55337 2.0768
-1.66883 -1.55586 2.13151
-1.63281 -1.55915 2.13512
-1.63467 -1.56415 2.1175
-1.72441 -1.56418 2.56686
-1.82926 -1.55899 2.50949
-1.71337 -1.55524 2.56108
-1.77213 -1.5519 2.52498
-1.73978 -1.54946 2.53355
-1.77931 -1.54708 2.50614
-1.78602 -1.54479 2.49509
-1.75967 -1.54331 2.49975
-1.84203 -1.54187 2.45002
-1.84697 -1.5398 2.4397
-1.80747 -1.53848 2.45082
-1.76554 -1.53721 2.46311
-1.92169 -1.53632 2.37597
-1.82987 -1.53517 2.41312
-1.81864 -1.53408 2.40992
-1.79446 -1.53305 2.41314
-1.837 -1.53208 2.38294
-1.84456 -1.53194 2.36933
-1.74372 -1.53108 2.41073
-1.87982 -1.53028 2.33359
-1.83695 -1.52956 2.34587
-1.85819 -1.52954 2.3253
-1.79887 -1.52892 2.34569
-1.77254 -1.52838 2.34951
-1.83423 -1.52822 2.30888
-1.84592 -1.52801 2.29331
-1.84453 -1.52766 2.28445
-1.86727 -1.52769 2.26308
-1.80799 -1.52759 2.28289
-1.87178 -1.5275 2.24114
-1.78885 -1.52765 2.27246
-1.83417 -1.52764 2.23985
-1.85495 -1.52798 2.21908
-1.89406 -1.52803 2.1895
-1.8471 -1.52848 2.20246
-1.80848 -1.52871 2.21152
-1.78931 -1.52932 2.21038
-1.73819 -1.53 2.22512
-1.81124 -1.53046 2.17804
-1.81629 -1.53129 2.16449
-1.76931 -1.53217 2.17689
-1.72712 -1.53287 2.18709
-1.71559 -1.53391 2.18153
-1.74933 -1.53502 2.15323
-1.68737 -1.53648 2.17231
-1.72929 -1.53766 2.13981
-1.69757 -1.53954 2.14318
-1.66101 -1.54153 2.14882
-1.7174 -1.54398 2.10734
-1.63318 -1.5472 2.13512
-1.56493 -1.55134 2.15364
-1.53301 -1.55922 2.14895
-1.61947 -1.5558 2.61573
-1.76563 -1.54859 2.53977
-1.82752 -1.54519 2.50214
-1.87817 -1.54153 2.47044
-1.77113 -1.53908 2.51637
-1.79471 -1.5367 2.49695
-1.79722 -1.53439 2.48802
-1.8637 -1.53217 2.44705
-1.79519 -1.53074 2.47276
-1.78334 -1.52936 2.4701
-1.79826 -1.52802 2.45403
-1.88848 -1.52706 2.39992
-1.89243 -1.52583 2.38926
-1.94387 -1.52465 2.3548
-1.79082 -1.52354 2.42254
-1.88174 -1.52248 2.36823
-1.83393 -1.52149 2.38325
-1.88573 -1.52088 2.34803
-1.85354 -1.52002 2.35511
-1.90471 -1.51923 2.32044
-1.75432 -1.51917 2.38571
-1.76978 -1.51848 2.36879
-1.81989 -1.51787 2.33447
-1.82032 -1.51759 2.3246
-1.79428 -1.51739 2.32787
-1.86062 -1.51696 2.28524
-1.82925 -1.51708 2.29081
-1.86669 -1.51677 2.2625
-1.82031 -1.51653 2.276
-1.82887 -1.51667 2.26158
-1.83479 -1.51662 2.24872
-1.81934 -1.51688 2.24617
-1.70588 -1.51688 2.29292
-1.75671 -1.51725 2.25708
-1.76946 -1.5174 2.24055
-1.72298 -1.5178 2.25332
-1.70809 -1.51807 2.25046
-1.8051 -1.5187 2.19118
-1.67522 -1.51912 2.24562
-1.78017 -1.5199 2.18216
-1.74682 -1.52076 2.18776
-1.77112 -1.5214 2.1648
-1.73663 -1.52239 2.17076
-1.74983 -1.52375 2.15241
-1.69351 -1.52504 2.16887
-1.72356 -1.52627 2.14221
-1.70664 -1.52781 2.13863
-1.66805 -1.53004 2.14493
-1.59495 -1.53212 2.16866
-1.6581 -1.53499 2.1232
-1.49357 -1.53859 2.19054
-1.65118 -1.5444 2.0938
-1.64553 -1.54905 2.59738
-1.70956 -1.53903 2.56539
-1.76067 -1.53479 2.53403
-1.75209 -1.53146 2.53162
-1.76801 -1.52789 2.51725
-1.70271 -1.52552 2.54227
-1.77407 -1.52399 2.49812
-1.81724 -1.52175 2.46882
-1.73333 -1.52031 2.50224
-1.73635 -1.51823 2.49291
-1.86507 -1.51723 2.41959
-1.81297 -1.51595 2.43698
-1.81352 -1.51473 2.42801
-1.79896 -1.51356 2.42655
-1.80144 -1.51245 2.41652
-1.82014 -1.5114 2.39833
-1.75232 -1.51073 2.42299
-1.87355 -1.51026 2.3529
-1.85092 -1.50937 2.35523
-1.80368 -1.50854 2.3698
-1.84983 -1.5081 2.33724
-1.83801 -1.50742 2.33396
-1.83645 -1.5071 2.32512
-1.78563 -1.50683 2.34087
-1.80327 -1.50633 2.32266
-1.74699 -1.50611 2.34109
-1.79531 -1.50602 2.30706
-1.77328 -1.50571 2.30848
-1.75587 -1.50588 2.307
-1.75881 -1.50568 2.2958
-1.88465 -1.50561 2.223
-1.75976 -1.5058 2.27523
-1.84481 -1.50581 2.22273
-1.73536 -1.50613 2.26708
-1.76349 -1.50624 2.2429
-1.71601 -1.50672 2.25607
-1.78476 -1.50727 2.21102
-1.74116 -1.5076 2.22242
-1.75997 -1.50831 2.20214
-1.74041 -1.50879 2.20131
-1.78053 -1.50964 2.17017
-1.71213 -1.51052 2.19323
-1.73681 -1.51147 2.16965
-1.71063 -1.51231 2.17164
-1.63896 -1.51343 2.19599
-1.64051 -1.51509 2.183
-1.69569 -1.51637 2.14368
-1.66381 -1.51826 2.14706
-1.63815 -1.52056 2.14677
-1.63403 -1.52297 2.13551
-1.64799 -1.5266 2.11354
-1.6017 -1.53152 2.11989
-1.82427 -1.52976 2.50528
-1.79089 -1.52437 2.51737
-1.80881 -1.52105 2.50172
-1.79967 -1.5178 2.49956
-1.72401 -1.51543 2.52978
-1.84733 -1.51313 2.46046
-1.81148 -1.51164 2.46989
-1.82861 -1.50948 2.45357
-1.8257 -1.50809 2.44646
-1.9002 -1.50675 2.40061
-1.79655 -1.50546 2.4438
-1.86029 -1.50422 2.40326
-1.81475 -1.50245 2.41796
-1.88424 -1.50135 2.37442
-1.88969 -1.50114 2.36192
-1.83117 -1.50012 2.38231
-1.8788 -1.49917 2.34957
-1.81737 -1.49829 2.37129
-1.83787 -1.49778 2.35163
-1.78193 -1.49739 2.37005
-1.86632 -1.49668 2.3187
-1.77427 -1.49634 2.35513
-1.80115 -1.49576 2.33238
-1.79226 -1.4955 2.32715
-1.79198 -1.49526 2.3176
-1.80193 -1.49495 2.30302
-1.81634 -1.49478 2.28604
-1.81543 -1.49481 2.27649
-1.80715 -1.4946 2.2709
-1.85994 -1.49483 2.23425
-1.79076 -1.49474 2.25898
-1.85096 -1.49502 2.21855
-1.83086 -1.49505 2.21859
-1.73384 -1.49544 2.25663
-1.73708 -1.49562 2.2448
-1.68007 -1.49603 2.2628
-1.82188 -1.49632 2.18154
-1.78083 -1.49698 2.19123
-1.70777 -1.49771 2.21684
-1.72875 -1.49822 2.19568
-1.68749 -1.49909 2.20518
-1.81144 -1.50004 2.13197
-1.75334 -1.50104 2.14968
-1.7101 -1.50212 2.15986
-1.79222 -1.50343 2.10703
-1.70911 -1.50495 2.13652
-1.67659 -1.50678 2.14029
-1.67124 -1.50873 2.13027
-1.62499 -1.51109 2.14014
-1.64462 -1.51394 2.11634
-1.54871 -1.51798 2.14868
-1.49435 -1.52834 2.15148
-1.74819 -1.52014 2.5409
-1.76844 -1.51509 2.52584
-1.74942 -1.51063 2.52988
-1.75314 -1.50738 2.5213
-1.81949 -1.50501 2.48052
-1.72128 -1.5027 2.52199
-1.80576 -1.50047 2.47206
-1.75719 -1.49903 2.48782
-1.85334 -1.49763 2.4312
-1.80887 -1.49561 2.44558
-1.84479 -1.49433 2.41899
-1.84172 -1.49309 2.41185
-1.84837 -1.49191 2.39981
-1.74992 -1.4911 2.43991
-1.81797 -1.49003 2.39707
-1.80046 -1.48902 2.39696
-1.85929 -1.48808 2.35861
-1.79089 -1.48794 2.38296
-1.82248 -1.48709 2.35815
-1.74101 -1.48631 2.38979
-1.85321 -1.4859 2.32417
-1.79885 -1.48557 2.34175
-1.84989 -1.48496 2.30696
-1.84477 -1.48468 2.29987
-1.84639 -1.48449 2.28931
-1.74157 -1.48406 2.33225
-1.79049 -1.48387 2.29803
-1.75374 -1.48372 2.30661
-1.81988 -1.48391 2.26332
-1.71594 -1.48374 2.30552
-1.88607 -1.48369 2.21054
-1.71431 -1.48393 2.28614
-1.77696 -1.48423 2.24446
-1.6727 -1.48429 2.28653
-1.78898 -1.48442 2.21823
-1.82577 -1.48492 2.18921
-1.75805 -1.4855 2.21234
-1.67635 -1.48586 2.24273
-1.78848 -1.48635 2.17603
-1.72916 -1.48711 2.1947
-1.73146 -1.48794 2.18247
-1.79951 -1.48883 2.13725
-1.76939 -1.4898 2.14102
-1.70189 -1.49095 2.16322
-1.69929 -1.49207 2.15298
-1.75255 -1.49355 2.11433
-1.70225 -1.49503 2.12743
-1.63612 -1.49693 2.14786
-1.66318 -1.49922 2.12112
-1.64348 -1.502 2.11707
-1.61298 -1.50594 2.11678
-1.55299 -1.51193 2.12836
-1.71083 -1.51162 2.55595
-1.74865 -1.50463 2.53418
-1.74553 -1.50018 2.53027
-1.77574 -1.49695 2.50847
-1.86415 -1.49457 2.45667
-1.77444 -1.49226 2.4939
-1.74476 -1.49002 2.50107
-1.776 -1.48857 2.47694
-1.78252 -1.48647 2.46591
-1.82947 -1.48512 2.43386
-1.76949 -1.48382 2.45523
-1.8239 -1.48257 2.41938
-1.84658 -1.48168 2.39899
-1.8365 -1.48053 2.39529
-1.80986 -1.47944 2.39982
-1.80393 -1.47841 2.39394
-1.83255 -1.47744 2.37073
-1.81075 -1.47684 2.37232
-1.85752 -1.47599 2.33991
-1.79592 -1.4756 2.36117
-1.87078 -1.47516 2.31426
-1.86208 -1.47448 2.30941
-1.86676 -1.47387 2.2978
-1.75034 -1.4739 2.34599
-1.84807 -1.4734 2.28774
-1.7407 -1.47317 2.3317
-1.76936 -1.47308 2.3075
-1.82638 -1.47276 2.26939
-1.8463 -1.47282 2.24938
-1.81497 -1.47265 2.25527
-1.7456 -1.47289 2.27967
-1.7848 -1.47283 2.25016
-1.86395 -1.47312 2.20022
-1.76258 -1.47318 2.24085
-1.72039 -1.47353 2.25151
-1.72828 -1.4737 2.23736
-1.78571 -1.47423 2.19796
-1.75275 -1.47483 2.20366
-1.74517 -1.47522 2.19694
-1.77442 -1.47597 2.17133
-1.72028 -1.47679 2.18731
-1.67142 -1.47739 2.20092
-1.69894 -1.47835 2.17587
-1.64191 -1.47937 2.19299
-1.66271 -1.48073 2.17072
-1.79468 -1.48206 2.09289
-1.64562 -1.48358 2.15531
-1.65273 -1.48541 2.13918
-1.5768 -1.48737 2.16438
-1.59397 -1.48972 2.14246
-1.63998 -1.49324 2.10446
-1.61378 -1.49803 2.10074
-1.78048 -1.49415 2.51671
-1.78331 -1.49004 2.5095
-1.71788 -1.48649 2.53585
-1.76908 -1.48412 2.50267
-1.76052 -1.4818 2.49935
-1.78448 -1.47955 2.47971
-1.72798 -1.47738 2.50026
-1.83762 -1.47598 2.4369
-1.77169 -1.47396 2.46204
-1.77032 -1.47266 2.45411
-1.77647 -1.47173 2.44203
-1.80025 -1.47054 2.42145
-1.72239 -1.4694 2.45163
-1.76402 -1.46832 2.42203
-1.91577 -1.46729 2.33731
-1.83493 -1.46711 2.36791
-1.76182 -1.46617 2.39554
-1.73407 -1.4653 2.40043
-1.82026 -1.46479 2.34792
-1.85132 -1.46405 2.32326
-1.80412 -1.46371 2.33727
-1.83049 -1.46337 2.31449
-1.82385 -1.4628 2.30851
-1.80541 -1.4623 2.30834
-1.82667 -1.46238 2.28762
-1.85185 -1.46198 2.26552
-1.78029 -1.46182 2.29152
-1.73653 -1.46183 2.30339
-1.75211 -1.46172 2.28575
-1.76491 -1.46178 2.26928
-1.71028 -1.46174 2.28665
-1.7724 -1.46201 2.24526
-1.78571 -1.46203 2.22859
-1.70229 -1.46241 2.25981
-1.77932 -1.46286 2.21072
-1.69573 -1.4631 2.2422
-1.74963 -1.46353 2.20469
-1.73874 -1.46388 2.19967
-1.71749 -1.46458 2.19936
-1.71842 -1.46536 2.18785
-1.76542 -1.4662 2.15321
-1.6994 -1.46683 2.17535
-1.74687 -1.46808 2.13989
-1.72817 -1.46926 2.13761
-1.6373 -1.47039 2.17145
-1.63168 -1.47208 2.1619
-1.60129 -1.47364 2.16488
-1.59606 -1.47554 2.15479
-1.60289 -1.47783 2.1381
-1.57483 -1.48099 2.13759
-1.62977 -1.48523 2.09403
-1.58351 -1.49304 2.09597
-1.73106 -1.4856 2.53776
-1.71902 -1.48037 2.5392
-1.69451 -1.47634 2.54565
-1.80557 -1.47397 2.48255
-1.77302 -1.47058 2.4924
-1.72665 -1.46834 2.50794
-1.8545 -1.46689 2.43551
-1.83048 -1.46479 2.43977
-1.71224 -1.46375 2.48998
-1.8252 -1.46245 2.4249
-1.7712 -1.46119 2.44326
-1.74474 -1.45998 2.44782
-1.74251 -1.45882 2.44021
-1.74905 -1.45771 2.42818
-1.78347 -1.45697 2.4018
-1.77368 -1.45598 2.39782
-1.82333 -1.45505 2.36407
-1.81397 -1.45461 2.35925
-1.70403 -1.45407 2.40483
-1.75084 -1.4533 2.37234
-1.71016 -1.4526 2.38353
-1.77118 -1.45226 2.34342
-1.8384 -1.45197 2.30016
-1.80917 -1.45169 2.30511
-1.80955 -1.45127 2.29544
-1.82486 -1.45106 2.27805
-1.72107 -1.451 2.32002
-1.84846 -1.45072 2.24668
-1.77273 -1.45081 2.27445
-1.73687 -1.45073 2.28248
-1.73067 -1.45067 2.27566
-1.80827 -1.4509 2.22658
-1.77372 -1.4512 2.23346
-1.71854 -1.45123 2.25101
-1.7468 -1.45164 2.22634
-1.70959 -1.45184 2.23469
-1.76876 -1.45239 2.19437
-1.66371 -1.45302 2.23606
-1.69403 -1.45349 2.21025
-1.71691 -1.45419 2.18786
-1.69989 -1.45502 2.18523
-1.72246 -1.45589 2.16275
-1.63308 -1.45682 2.19613
-1.71737 -1.45765 2.14281
-1.7218 -1.45902 2.12867
-1.68691 -1.46036 2.1342
-1.59079 -1.46188 2.17008
-1.69317 -1.46372 2.10625
-1.60362 -1.46595 2.13781
-1.57651 -1.46865 2.13745
-1.53379 -1.47248 2.14325
-1.53185 -1.47756 2.12683
-1.70114 -1.477 2.54906
-1.70754 -1.47099 2.54215
-1.79592 -1.46585 2.49339
-1.73339 -1.46348 2.51709
-1.75761 -1.46116 2.49739
-1.74076 -1.4589 2.4982
-1.80778 -1.45671 2.45702
-1.74127 -1.45459 2.48255
-1.76291 -1.45323 2.46318
-1.79627 -1.45191 2.43792
-1.71946 -1.45002 2.46842
-1.7166 -1.44881 2.46118
-1.76591 -1.44766 2.4278
-1.8055 -1.44687 2.39888
-1.78703 -1.44583 2.3993
-1.77807 -1.44533 2.39433
-1.85154 -1.44437 2.3487
-1.80663 -1.44378 2.36183
-1.81676 -1.44295 2.34774
-1.81141 -1.44218 2.34133
-1.71745 -1.44212 2.37837
-1.7974 -1.44145 2.3292
-1.87429 -1.44085 2.28148
-1.75547 -1.44087 2.33086
-1.75218 -1.44038 2.32312
-1.80407 -1.44015 2.28745
-1.83687 -1.43989 2.26138
-1.7503 -1.43974 2.29485
-1.72729 -1.43978 2.2963
-1.80941 -1.43969 2.24537
-1.65354 -1.43984 2.31311
-1.7122 -1.4398 2.27383
-1.70985 -1.44005 2.26467
-1.76579 -1.4401 2.22664
-1.70637 -1.4405 2.24581
-1.7759 -1.44087 2.20055
-1.74449 -1.4411 2.20594
-1.7427 -1.44168 2.19605
-1.77008 -1.44233 2.17147
-1.79148 -1.44277 2.15015
-1.68041 -1.44356 2.19459
-1.73819 -1.44442 2.1545
-1.67117 -1.44534 2.17671
-1.68348 -1.44633 2.15915
-1.70908 -1.44766 2.13447
-1.63241 -1.44894 2.16095
-1.57949 -1.45041 2.17528
-1.6415 -1.45219 2.1317
-1.59737 -1.45409 2.14099
-1.61972 -1.45637 2.11646
-1.48194 -1.45979 2.17034
-1.49936 -1.46446 2.14478
-1.74378 -1.46046 2.52246
-1.75739 -1.45645 2.50987
-1.73164 -1.45298 2.5164
-1.80405 -1.4499 2.47347
-1.73582 -1.44766 2.49997
-1.72153 -1.4462 2.49863
-1.77575 -1.44407 2.46382
-1.80408 -1.4427 2.44112
-1.7414 -1.44072 2.46465
-1.74704 -1.43945 2.45321
-1.80279 -1.43824 2.41668
-1.75931 -1.43737 2.42936
-1.8953 -1.43625 2.35263
-1.816 -1.43519 2.38349
-1.8187 -1.43418 2.3733
-1.77696 -1.43353 2.3849
-1.8149 -1.43264 2.35697
-1.8166 -1.43222 2.3466
-1.81786 -1.43142 2.33692
-1.83685 -1.43099 2.31793
-1.66822 -1.43032 2.39305
-1.79128 -1.43002 2.32189
-1.84376 -1.42975 2.28598
-1.7672 -1.42925 2.31487
-1.70854 -1.42932 2.3341
-1.83127 -1.42893 2.26322
-1.77701 -1.4289 2.28039
-1.74572 -1.42865 2.28634
-1.82656 -1.42885 2.23567
-1.7015 -1.4287 2.28838
-1.77275 -1.42892 2.24246
-1.73583 -1.42892 2.25093
-1.81682 -1.42921 2.20003
-1.72858 -1.42929 2.23404
-1.81234 -1.42972 2.18157
-1.73995 -1.43023 2.20708
-1.74813 -1.43052 2.19258
-1.70038 -1.43097 2.20582
-1.6955 -1.43165 2.19732
-1.69568 -1.43212 2.18656
-1.71124 -1.43293 2.16762
-1.66702 -1.43381 2.17848
-1.55655 -1.43503 2.22198
-1.68902 -1.43604 2.14428
-1.7123 -1.43726 2.12087
-1.68572 -1.43869 2.12207
-1.65064 -1.44041 2.12709
-1.60594 -1.44225 2.13673
-1.62038 -1.44447 2.11622
-1.63925 -1.44717 2.09278
-1.64326 -1.45098 2.07511
-1.50665 -1.45825 2.12267
-1.72964 -1.45182 2.52584
-1.75103 -1.44592 2.51148
-1.79175 -1.44247 2.48478
-1.6906 -1.43939 2.52865
-1.71409 -1.43714 2.5093
-1.81353 -1.43496 2.45193
-1.80177 -1.43354 2.44931
-1.789 -1.43149 2.44795
-1.789 -1.43016 2.43938
-1.76127 -1.42889 2.44465
-1.82694 -1.42795 2.40283
-1.81009 -1.42677 2.40257
-1.81913 -1.42563 2.38934
-1.77855 -1.42455 2.40086
-1.79571 -1.42352 2.38347
-1.83111 -1.42284 2.35654
-1.82688 -1.42193 2.34972
-1.77666 -1.42107 2.36584
-1.80529 -1.42097 2.34163
-1.79462 -1.42021 2.33787
-1.76611 -1.41951 2.34297
-1.7752 -1.41918 2.32882
-1.81986 -1.41861 2.29719
-1.73914 -1.41865 2.32749
-1.76969 -1.41819 2.30278
-1.77098 -1.41798 2.29239
-1.76386 -1.41792 2.28602
-1.8081 -1.41763 2.25426
-1.82308 -1.41771 2.23666
-1.68958 -1.41763 2.29351
-1.7659 -1.41781 2.2451
-1.78547 -1.41778 2.22534
-1.79565 -1.41806 2.20986
-1.80689 -1.41837 2.19381
-1.80076 -1.41848 2.18672
-1.749 -1.41894 2.20196
-1.69894 -1.41948 2.21625
-1.69778 -1.4198 2.20636
-1.69555 -1.42047 2.19653
-1.68864 -1.4212 2.18894
-1.73321 -1.42174 2.15588
-1.67584 -1.42257 2.17335
-1.70233 -1.42354 2.1487
-1.56945 -1.42454 2.20369
-1.59124 -1.4256 2.18123
-1.68128 -1.42717 2.1239
-1.60175 -1.42864 2.15148
-1.61591 -1.43042 2.13175
-1.60008 -1.43259 2.12643
-1.58496 -1.43521 2.12006
-1.51151 -1.43827 2.14218
-1.5594 -1.44316 2.1009
-1.62832 -1.44202 2.57404
-1.6655 -1.43616 2.55178
-1.69645 -1.43224 2.53052
-1.72009 -1.42993 2.51113
-1.73623 -1.42661 2.49669
-1.74243 -1.42442 2.48595
-1.6809 -1.4223 2.50904
-1.81965 -1.42093 2.43114
-1.71631 -1.4196 2.47426
-1.75169 -1.41861 2.44763
-1.7926 -1.41676 2.41928
-1.66426 -1.41558 2.47477
-1.83683 -1.41445 2.37977
-1.78825 -1.41337 2.39529
-1.79081 -1.41265 2.38483
-1.76832 -1.41168 2.3872
-1.85179 -1.41122 2.33599
-1.67027 -1.41063 2.41743
-1.88657 -1.40981 2.30025
-1.84612 -1.40906 2.31139
-1.83282 -1.4087 2.30846
-1.73409 -1.40833 2.34825
-1.82102 -1.40774 2.29552
-1.79458 -1.4075 2.29902
-1.76771 -1.40727 2.30275
-1.74446 -1.40704 2.30464
-1.79485 -1.40677 2.26978
-1.7045 -1.40691 2.30476
-1.81609 -1.40666 2.23928
-1.71749 -1.40656 2.2787
-1.74515 -1.40665 2.25473
-1.77906 -1.40691 2.22742
-1.82355 -1.4069 2.19517
-1.66713 -1.40721 2.26294
-1.74185 -1.4076 2.21504
-1.73456 -1.40768 2.20855
-1.7663 -1.40817 2.18199
-1.76163 -1.40845 2.17391
-1.68986 -1.40907 2.19889
-1.67388 -1.40977 2.19588
-1.66789 -1.41053 2.18778
-1.64617 -1.41134 2.18745
-1.68005 -1.41198 2.15956
-1.72326 -1.41293 2.12654
-1.66098 -1.41422 2.14578
-1.55543 -1.41546 2.18671
-1.64828 -1.41689 2.12813
-1.67056 -1.41861 2.1044
-1.66567 -1.42046 2.09406
-1.55145 -1.42294 2.13742
-1.60056 -1.42562 2.09878
-1.5021 -1.43009 2.13124
-1.38578 -1.43939 2.16539
-1.69955 -1.42668 2.53194
-1.73693 -1.42246 2.50782
-1.70985 -1.41938 2.51468
-1.72067 -1.41637 2.50256
-1.69001 -1.41418 2.51027
-1.73777 -1.41275 2.47791
-1.6729 -1.41067 2.50265
-1.85325 -1.40933 2.40393
-1.73948 -1.40739 2.45301
-1.77741 -1.40615 2.42543
-1.68083 -1.40496 2.46507
-1.7619 -1.40381 2.41584
-1.75797 -1.40301 2.4087
-1.77584 -1.40197 2.39097
-1.74022 -1.40098 2.39994
-1.76557 -1.40005 2.37837
-1.77093 -1.39947 2.36636
-1.69566 -1.39905 2.39447
-1.86476 -1.39827 2.30086
-1.76654 -1.39784 2.34048
-1.7065 -1.39718 2.36131
-1.7606 -1.39716 2.32425
-1.78739 -1.3966 2.30154
-1.77822 -1.39635 2.29643
-1.8019 -1.39618 2.27479
-1.76616 -1.39579 2.28315
-1.80334 -1.39575 2.25459
-1.76149 -1.39562 2.26568
-1.77134 -1.39568 2.25064
-1.711 -1.3956 2.2709
-1.77658 -1.39574 2.2279
-1.79416 -1.39601 2.20873
-1.74127 -1.39602 2.22514
-1.71815 -1.39636 2.2262
-1.73401 -1.3965 2.20806
-1.71924 -1.39698 2.20475
-1.73442 -1.39739 2.18657
-1.65503 -1.3977 2.2158
-1.70779 -1.39835 2.17847
-1.70367 -1.39907 2.16947
-1.69408 -1.39985 2.16311
-1.72136 -1.4007 2.1382
-1.66918 -1.40161 2.15293
-1.58882 -1.40286 2.18125
-1.67292 -1.40403 2.12743
-1.64904 -1.40516 2.12764
-1.67396 -1.40682 2.10266
-1.61894 -1.40861 2.11745
-1.5874 -1.41077 2.11991
-1.61347 -1.41364 2.09248
-1.51388 -1.41668 2.12758
-1.51043 -1.42153 2.11186
-1.68765 -1.41685 2.53541
-1.70635 -1.41219 2.52117
-1.67339 -1.40881 2.53133
-1.69731 -1.40581 2.51268
-1.7005 -1.40362 2.50347
-1.77469 -1.40148 2.45874
-1.70691 -1.4001 2.48413
-1.79958 -1.39809 2.43006
-1.76142 -1.39679 2.44057
-1.80407 -1.39554 2.41064
-1.75875 -1.39374 2.42539
-1.86297 -1.39347 2.36353
-1.6808 -1.39235 2.44589
-1.81327 -1.39129 2.37089
-1.76208 -1.39028 2.38767
-1.7537 -1.38962 2.38263
-1.79823 -1.38872 2.35144
-1.82559 -1.38788 2.32877
-1.8781 -1.38777 2.2926
-1.72051 -1.38702 2.36231
-1.75429 -1.38633 2.33626
-1.75946 -1.386 2.32407
-1.79391 -1.38544 2.29754
-1.74302 -1.38547 2.31291
-1.84097 -1.38502 2.25451
-1.74844 -1.38481 2.29101
-1.7606 -1.38474 2.275
-1.75066 -1.38459 2.27015
-1.77867 -1.38452 2.24622
-1.75916 -1.38472 2.24568
-1.6972 -1.3846 2.26679
-1.87667 -1.38484 2.16671
-1.68052 -1.38484 2.25475
-1.82997 -1.38514 2.16959
-1.67013 -1.38551 2.23896
-1.7503 -1.38568 2.18862
-1.69653 -1.38619 2.20475
-1.68608 -1.38677 2.19912
-1.70689 -1.38721 2.17804
-1.69702 -1.38789 2.17197
-1.72824 -1.38862 2.14526
-1.69755 -1.38944 2.14938
-1.61589 -1.39031 2.17889
-1.64643 -1.39124 2.1522
-1.71931 -1.39236 2.10405
-1.64121 -1.3937 2.13104
-1.59539 -1.39504 2.14188
-1.52619 -1.39677 2.16382
-1.56954 -1.39859 2.12931
-1.58276 -1.40108 2.10884
-1.54377 -1.40401 2.11378
-1.51526 -1.40803 2.11179
-1.66066 -1.40807 2.54519
-1.73698 -1.40236 2.50338
-1.65321 -1.39853 2.53949
-1.67793 -1.39523 2.52079
-1.74926 -1.39304 2.47754
-1.74738 -1.3909 2.47085
-1.7995 -1.38883 2.43712
-1.66473 -1.38749 2.49597
-1.73314 -1.38619 2.45322
-1.78434 -1.38431 2.41979
-1.8026 -1.3834 2.40166
-1.79823 -1.38225 2.39517
-1.82068 -1.38114 2.37523
-1.80432 -1.38008 2.37464
-1.80253 -1.37937 2.36635
-1.77499 -1.37842 2.37125
-1.8351 -1.37797 2.33171
-1.78042 -1.3771 2.35009
-1.7832 -1.37659 2.33931
-1.7864 -1.37584 2.32862
-1.79265 -1.37578 2.31553
-1.72808 -1.37513 2.33862
-1.80602 -1.37454 2.29038
-1.64796 -1.3743 2.35969
-1.81758 -1.37406 2.26516
-1.81813 -1.37392 2.25504
-1.72619 -1.37357 2.29146
-1.72849 -1.3737 2.2801
-1.77574 -1.37344 2.24679
-1.65314 -1.37354 2.29793
-1.78757 -1.37347 2.22078
-1.73951 -1.37367 2.23451
-1.70682 -1.37365 2.24084
-1.67032 -1.37395 2.24865
-1.77321 -1.37432 2.18665
-1.75315 -1.37439 2.18655
-1.6915 -1.37486 2.20667
-1.69904 -1.37539 2.1921
-1.73298 -1.376 2.16423
-1.74965 -1.37666 2.14488
-1.69415 -1.37716 2.16187
-1.67468 -1.37792 2.16044
-1.65235 -1.37879 2.16027
-1.65463 -1.37971 2.14771
-1.6757 -1.3807 2.12565
-1.65282 -1.382 2.12507
-1.63213 -1.38328 2.12342
-1.56376 -1.38499 2.14495
-1.64874 -1.38673 2.08973
-1.56047 -1.38885 2.12054
-1.48705 -1.3914 2.14322
-1.57443 -1.39503 2.08384
-1.53282 -1.40125 2.08492
-1.68117 -1.3928 2.52844
-1.73985 -1.38868 2.49369
-1.6887 -1.38568 2.5126
-1.75396 -1.38347 2.4724
-1.69595 -1.38031 2.49502
-1.77513 -1.37823 2.44777
-1.76399 -1.37688 2.44482
-1.8299 -1.37586 2.40297
-1.75345 -1.37397 2.4334
-1.78427 -1.37275 2.40937
-1.77744 -1.37158 2.40413
-1.80326 -1.37046 2.38253
-1.77118 -1.36939 2.38982
-1.75519 -1.36865 2.38866
-1.8383 -1.36768 2.33827
-1.75577 -1.36677 2.37063
-1.82314 -1.3662 2.32761
-1.68331 -1.36579 2.388
-1.79875 -1.36502 2.32122
-1.84547 -1.36459 2.28837
-1.77292 -1.36394 2.31545
-1.81839 -1.36392 2.28269
-1.71786 -1.36337 2.32365
-1.7746 -1.36312 2.28558
-1.72096 -1.36294 2.30259
-1.7608 -1.36274 2.27291
-1.71753 -1.36251 2.28482
-1.72462 -1.36265 2.27105
-1.66059 -1.36243 2.29333
-1.72331 -1.36256 2.25176
-1.75242 -1.36251 2.22724
-1.74887 -1.36273 2.21867
-1.64593 -1.36273 2.2601
-1.69365 -1.36306 2.22574
-1.7024 -1.36346 2.21077
-1.75471 -1.36381 2.17406
-1.76778 -1.36404 2.15716
-1.65963 -1.3646 2.20038
-1.67701 -1.36523 2.18073
-1.58691 -1.36592 2.21471
-1.72432 -1.36667 2.13484
-1.68376 -1.36723 2.14424
-1.67333 -1.36811 2.13808
-1.71415 -1.36905 2.10619
-1.6511 -1.37032 2.12574
-1.61265 -1.37164 2.1329
-1.62915 -1.3732 2.11218
-1.59378 -1.37489 2.11719
-1.67691 -1.37669 2.06276
-1.5481 -1.37943 2.11282
-1.57515 -1.38235 2.08465
-1.53806 -1.38633 2.08685
-1.66002 -1.3829 2.53652
-1.67041 -1.37806 2.52681
-1.74359 -1.37507 2.48356
-1.69612 -1.37286 2.49973
-1.83169 -1.36999 2.42522
-1.78662 -1.3686 2.43928
-1.74714 -1.36656 2.45136
-1.73589 -1.36459 2.44926
-1.78257 -1.36333 2.41734
-1.75728 -1.3621 2.42139
-1.68925 -1.36092 2.44677
-1.77023 -1.35978 2.39761
-1.75811 -1.35898 2.39459
-1.67889 -1.35793 2.42544
-1.74566 -1.35694 2.38323
-1.7485 -1.35629 2.37257
-1.71886 -1.35541 2.37847
-1.73707 -1.35458 2.36038
-1.75061 -1.35448 2.34368
-1.70837 -1.35374 2.35571
-1.81575 -1.35306 2.29287
-1.65414 -1.35273 2.36407
-1.76066 -1.35245 2.30113
-1.8133 -1.35221 2.26509
-1.79801 -1.35175 2.26331
-1.79321 -1.35183 2.25557
-1.78534 -1.35147 2.24995
-1.66768 -1.35146 2.29875
-1.72564 -1.35134 2.2599
-1.71641 -1.35143 2.25435
-1.74355 -1.35136 2.23084
-1.69704 -1.35153 2.24382
-1.66515 -1.3518 2.24934
-1.70988 -1.35182 2.21691
-1.65647 -1.35217 2.23306
-1.7362 -1.35259 2.18254
-1.7127 -1.35296 2.18371
-1.71297 -1.35322 2.17316
-1.64418 -1.3538 2.19664
-1.63663 -1.35445 2.1894
-1.61464 -1.35517 2.18927
-1.60091 -1.35595 2.18491
-1.61021 -1.35679 2.16894
-1.58153 -1.35769 2.17185
-1.64862 -1.35891 2.12638
-1.63269 -1.36007 2.12249
-1.59148 -1.36143 2.13091
-1.53523 -1.36306 2.14643
-1.64303 -1.3648 2.07972
-1.50352 -1.36691 2.13608
-1.54294 -1.36971 2.10187
-1.48608 -1.37332 2.1145
-1.428 -1.37972 2.1233
-1.60777 -1.37477 2.55801
-1.5528 -1.36846 2.58276
-1.75283 -1.36443 2.47734
-1.72506 -1.36223 2.48367
-1.71968 -1.35937 2.47966
-1.74272 -1.35728 2.46051
-1.70425 -1.35592 2.47126
-1.67655 -1.35395 2.4774
-1.7276 -1.35267 2.44333
-1.80667 -1.35084 2.39596
-1.79362 -1.35024 2.39312
-1.76216 -1.34882 2.40054
-1.76307 -1.34774 2.39137
-1.74835 -1.3467 2.38996
-1.71548 -1.3462 2.39695
-1.77172 -1.34553 2.35962
-1.68871 -1.34462 2.39223
-1.75658 -1.34377 2.34934
-1.74061 -1.34327 2.34793
-1.66238 -1.34253 2.37795
-1.72088 -1.34247 2.33873
-1.64442 -1.34182 2.36777
-1.79498 -1.34152 2.28284
-1.77229 -1.34126 2.2845
-1.67945 -1.34077 2.32153
-1.76073 -1.34063 2.27104
-1.80677 -1.34044 2.23823
-1.7697 -1.34039 2.24679
-1.69924 -1.34026 2.27216
-1.75013 -1.34022 2.23673
-1.71746 -1.34042 2.24273
-1.69814 -1.34037 2.24242
-1.69441 -1.34059 2.23394
-1.68106 -1.34085 2.23017
-1.76046 -1.3409 2.18036
-1.73977 -1.34128 2.1801
-1.71509 -1.34173 2.18173
-1.6713 -1.34224 2.19282
-1.64787 -1.34266 2.19387
-1.69113 -1.343 2.16166
-1.66354 -1.34368 2.16439
-1.63361 -1.34441 2.16818
-1.58082 -1.34521 2.1833
-1.63298 -1.34607 2.14583
-1.55726 -1.34725 2.17181
-1.59538 -1.34835 2.14097
-1.62129 -1.34967 2.11588
-1.56765 -1.35099 2.13056
-1.54521 -1.35269 2.12901
-1.62542 -1.35471 2.07563
-1.56415 -1.35714 2.0923
-1.49029 -1.36 2.11456
-1.54864 -1.36456 2.06798
-1.65465 -1.35957 2.52807
-1.72089 -1.35481 2.49045
-1.66533 -1.35188 2.51158
-1.68452 -1.34873 2.49565
-1.66205 -1.34664 2.49928
-1.75107 -1.34528 2.44629
-1.69467 -1.34329 2.46681
-1.76168 -1.34201 2.42476
-1.87556 -1.34106 2.35889
-1.7543 -1.33926 2.41168
-1.80994 -1.33812 2.3752
-1.70419 -1.33702 2.41938
-1.74131 -1.33596 2.39209
-1.70167 -1.33525 2.40274
-1.76405 -1.33429 2.36271
-1.8044 -1.33339 2.33364
-1.77295 -1.33325 2.33948
-1.74885 -1.33243 2.34254
-1.8087 -1.33167 2.30356
-1.71489 -1.33125 2.34097
-1.71844 -1.33092 2.32957
-1.77704 -1.33059 2.29067
-1.74575 -1.33004 2.29701
-1.71043 -1.33007 2.30457
-1.74197 -1.32962 2.27938
-1.67275 -1.3295 2.3041
-1.7729 -1.32933 2.24421
-1.77859 -1.32932 2.23134
-1.76684 -1.3292 2.22733
-1.74142 -1.32921 2.22998
-1.72832 -1.32942 2.22617
-1.68934 -1.32936 2.23569
-1.6753 -1.32963 2.23228
-1.69164 -1.32991 2.21365
-1.82366 -1.32998 2.13747
-1.72893 -1.33039 2.17418
-1.74202 -1.33086 2.15688
-1.69479 -1.3314 2.16963
-1.72874 -1.33183 2.14195
-1.69529 -1.33241 2.14773
-1.69456 -1.33314 2.13692
-1.62982 -1.33391 2.15804
-1.62973 -1.33473 2.14674
-1.63516 -1.33561 2.13259
-1.61927 -1.33666 2.12882
-1.60485 -1.33793 2.12395
-1.63143 -1.33927 2.09847
-1.53894 -1.34086 2.1321
-1.61941 -1.34256 2.07904
-1.51696 -1.34463 2.11685
-1.48322 -1.34737 2.1192
-1.55174 -1.3509 2.06912
-1.39777 -1.35718 2.12583
-1.58556 -1.34959 2.5601
-1.67489 -1.34487 2.51094
-1.64475 -1.34194 2.51937
-1.68889 -1.33907 2.49064
-1.64071 -1.33696 2.50715
-1.77474 -1.33491 2.43252
-1.65205 -1.33292 2.4862
-1.68601 -1.33163 2.4607
-1.69872 -1.32976 2.44658
-1.72673 -1.32856 2.42398
-1.66009 -1.32741 2.44866
-1.73698 -1.32629 2.40154
-1.76883 -1.32551 2.37653
-1.73518 -1.32449 2.38459
-1.80143 -1.32351 2.34265
-1.79509 -1.32288 2.33658
-1.83119 -1.32201 2.30961
-1.80241 -1.3212 2.31501
-1.6948 -1.32109 2.35888
-1.77558 -1.32037 2.3094
-1.72704 -1.31997 2.32414
-1.69103 -1.31966 2.3325
-1.78693 -1.31909 2.27528
-1.76794 -1.31885 2.27505
-1.75371 -1.31861 2.27244
-1.82207 -1.31847 2.22841
-1.79064 -1.31828 2.23433
-1.74405 -1.31809 2.24783
-1.71156 -1.31824 2.25381
-1.72208 -1.31805 2.23878
-1.80181 -1.31819 2.18865
-1.76963 -1.31842 2.19435
-1.72369 -1.31839 2.20731
-1.72486 -1.31867 2.19626
-1.60401 -1.31896 2.24619
-1.73085 -1.31907 2.17255
-1.71331 -1.3195 2.17062
-1.71627 -1.32 2.15832
-1.68461 -1.32056 2.16323
-1.60081 -1.32118 2.19411
-1.62618 -1.32165 2.17064
-1.75145 -1.32236 2.09683
-1.54701 -1.32315 2.18776
-1.6137 -1.32404 2.14293
-1.65005 -1.32497 2.11321
-1.61304 -1.32621 2.11967
-1.5645 -1.3275 2.13179
-1.61783 -1.32903 2.09258
-1.53529 -1.33045 2.12147
-1.47167 -1.33269 2.13955
-1.4604 -1.3348 2.13164
-1.52539 -1.3376 2.08447
-1.46354 -1.34207 2.09795
-1.67444 -1.3445 2.50709
-1.62114 -1.33519 2.53493
-1.68226 -1.33126 2.499
-1.68955 -1.32839 2.4887
-1.64083 -1.32629 2.50549
-1.69275 -1.32424 2.47193
-1.71549 -1.32224 2.45292
-1.69166 -1.32094 2.45632
-1.78435 -1.31906 2.40224
-1.82305 -1.31786 2.37431
-1.74672 -1.31669 2.40386
-1.77448 -1.31584 2.38096
-1.67114 -1.31476 2.42394
-1.79795 -1.31372 2.35179
-1.74603 -1.31273 2.36897
-1.67787 -1.31207 2.39383
-1.73877 -1.31118 2.35449
-1.70741 -1.31063 2.36084
-1.75599 -1.30985 2.32752
-1.83028 -1.30948 2.28081
-1.65406 -1.30906 2.35942
-1.76652 -1.30843 2.29399
-1.71717 -1.30841 2.30863
-1.73518 -1.30786 2.29032
-1.70024 -1.30762 2.29807
-1.64151 -1.30724 2.31792
-1.71731 -1.30732 2.26984
-1.75839 -1.307 2.2397
-1.69708 -1.30701 2.26028
-1.72552 -1.30717 2.23576
-1.63784 -1.30701 2.26978
-1.62322 -1.30718 2.26678
-1.64709 -1.30715 2.24482
-1.64083 -1.30741 2.2375
-1.71086 -1.30771 2.19198
-1.67075 -1.30801 2.20152
-1.65112 -1.30824 2.20093
-1.6723 -1.30861 2.17971
-1.70324 -1.30913 2.15337
-1.60787 -1.30971 2.19008
-1.59749 -1.31036 2.1842
-1.5939 -1.31107 2.17481
-1.59526 -1.31183 2.16286
-1.58305 -1.31263 2.15762
-1.65758 -1.31348 2.10891
-1.59303 -1.3145 2.12947
-1.5821 -1.31575 2.12283
-1.57891 -1.31698 2.11234
-1.60699 -1.31861 2.08556
-1.51952 -1.32028 2.11646
-1.58195 -1.3223 2.07182
-1.55735 -1.32498 2.06958
-1.47957 -1.32844 2.09264
-1.40118 -1.33459 2.11152
-1.54889 -1.32619 2.56726
-1.71861 -1.32156 2.47793
-1.62024 -1.31869 2.52048
-1.69013 -1.3156 2.47924
-1.70048 -1.31355 2.46647
-1.71702 -1.31155 2.45058
-1.71697 -1.30961 2.44293
-1.72565 -1.30836 2.43005
-1.69049 -1.30714 2.43907
-1.74416 -1.30624 2.40327
-1.71658 -1.30455 2.40916
-1.65021 -1.30347 2.43365
-1.78458 -1.30244 2.35773
-1.70423 -1.30223 2.38809
-1.75023 -1.30127 2.35627
-1.80545 -1.30036 2.3198
-1.79191 -1.29978 2.31727
-1.74521 -1.29898 2.33163
