ply
format ascii 1.0
comment Created by Open3D
element vertex 1811
property double x
property double y
property double z
end_header
-0.682491 0.922551 1.02274
-0.680362 0.922346 1.01411
-0.680013 0.921965 1.00529
-0.681468 0.921405 0.99628
-0.680286 0.921107 0.987563
-0.677441 0.920974 0.979028
-0.675633 0.920738 0.970387
-0.671265 0.920755 0.962014
-0.668622 0.920602 0.953465
-0.665546 0.920491 0.944962
-0.661747 0.920452 0.936534
-0.658015 0.920407 0.928101
-0.653888 0.9204 0.919707
-0.649497 0.92042 0.911339
-0.642656 0.92068 0.903206
-0.637403 0.920784 0.894918
-0.631712 0.920931 0.886668
-0.623636 0.921313 0.87864
-0.617093 0.921543 0.870462
-0.606675 0.922153 0.862635
-0.597208 0.92267 0.85471
-0.585322 0.923424 0.846993
-0.576734 0.923853 0.838968
-0.563409 0.924746 0.831353
-0.549267 0.925719 0.823791
-0.529435 0.927248 0.816702
-0.504783 0.929247 0.809994
-0.472634 0.931977 0.803882
-0.51345 0.961354 1.24193
-0.554761 0.956731 1.22735
-0.576998 0.954044 1.21533
-0.594343 0.951855 1.20398
-0.606753 0.950166 1.1933
-0.618939 0.948502 1.18268
-0.628292 0.947126 1.17245
-0.63983 0.94553 1.16197
-0.646709 0.944407 1.15209
-0.652514 0.943392 1.14237
-0.661317 0.942076 1.13231
-0.664906 0.941287 1.12289
-0.668244 0.940524 1.11352
-0.673748 0.939544 1.10391
-0.676516 0.93884 1.09464
-0.678986 0.938166 1.08542
-0.683528 0.937285 1.07597
-0.682976 0.936916 1.06713
-0.684013 0.936389 1.0581
-0.685312 0.935835 1.04906
-0.688576 0.935085 1.03981
-0.689127 0.934608 1.03088
-0.68716 0.934383 1.02223
-0.68714 0.933964 1.01337
-0.686727 0.933584 1.00456
-0.685912 0.933245 0.995804
-0.683253 0.933091 0.987249
-0.681822 0.932815 0.978568
-0.679972 0.93258 0.969935
-0.677698 0.932388 0.96135
-0.674994 0.932239 0.952814
-0.671384 0.932181 0.944371
-0.66803 0.932098 0.935904
-0.66424 0.932058 0.927482
-0.660085 0.932054 0.919097
-0.653581 0.932285 0.91094
-0.648713 0.932352 0.902622
-0.643406 0.932463 0.894344
-0.637663 0.932618 0.886105
-0.62951 0.933012 0.878089
-0.622919 0.93325 0.869921
-0.612405 0.933879 0.862109
-0.602868 0.93441 0.854196
-0.594836 0.93479 0.846137
-0.58227 0.935621 0.838475
-0.568867 0.936534 0.830872
-0.554653 0.937527 0.823322
-0.534717 0.939087 0.816246
-0.515268 0.940597 0.8091
-0.479404 0.943733 0.803311
-0.521226 0.973204 1.24091
-0.55996 0.968786 1.22668
-0.582176 0.966066 1.21466
-0.599502 0.96385 1.20332
-0.6119 0.962141 1.19264
-0.624069 0.960457 1.18203
-0.63594 0.958805 1.17149
-0.644893 0.957453 1.16134
-0.651764 0.956316 1.15147
-0.655893 0.95546 1.14196
-0.663806 0.954218 1.132
-0.669859 0.953167 1.1223
-0.675635 0.952145 1.11264
-0.678648 0.951406 1.10333
-0.683823 0.950447 1.09379
-0.686233 0.949771 1.08458
-0.685215 0.949445 1.07578
-0.687151 0.948819 1.06665
-0.691139 0.947984 1.05729
-0.692375 0.94743 1.04827
-0.693252 0.946913 1.03929
-0.691452 0.946668 1.03062
-0.691774 0.946209 1.02172
-0.694011 0.945555 1.01262
-0.693533 0.945177 1.00383
-0.691047 0.945004 0.995255
-0.689964 0.944688 0.986538
-0.688469 0.944414 0.977869
-0.686556 0.944183 0.96925
-0.684218 0.943996 0.960678
-0.680795 0.943918 0.952221
-0.677814 0.943796 0.94372
-0.674399 0.943717 0.935265
-0.67055 0.943683 0.926855
-0.666367 0.943683 0.918479
-0.659777 0.943925 0.910337
-0.654853 0.944 0.902029
-0.649493 0.944118 0.893762
-0.643697 0.94428 0.885534
-0.635466 0.944687 0.877531
-0.628826 0.944934 0.869373
-0.619799 0.945421 0.86143
-0.61054 0.945932 0.853498
-0.600536 0.946516 0.845625
-0.587886 0.947367 0.837975
-0.574404 0.9483 0.830384
-0.560118 0.949313 0.822845
-0.541882 0.950723 0.815628
-0.520562 0.952441 0.808648
-0.488562 0.95523 0.802538
-0.526476 0.985297 1.24022
-0.565209 0.980822 1.226
-0.590037 0.977796 1.21365
-0.607333 0.975554 1.20232
-0.617096 0.974097 1.19198
-0.629248 0.972393 1.18138
-0.641098 0.970722 1.17084
-0.64566 0.969808 1.16124
-0.656865 0.968207 1.15084
-0.663511 0.967079 1.14103
-0.667378 0.96624 1.13157
-0.673542 0.965164 1.12185
-0.678121 0.964253 1.11235
-0.681114 0.963507 1.10304
-0.685343 0.962634 1.09361
-0.687866 0.961937 1.08439
-0.69253 0.961021 1.07493
-0.694404 0.960393 1.06582
-0.695943 0.9598 1.05675
-0.697136 0.959243 1.04773
-0.697884 0.958733 1.03877
-0.698514 0.958235 1.02984
-0.69877 0.957777 1.02095
-0.698642 0.957358 1.01212
-0.696334 0.957164 1.00353
-0.695614 0.956807 0.994767
-0.696764 0.956258 0.985817
-0.695205 0.955987 0.977162
-0.692175 0.955869 0.968665
-0.689986 0.955663 0.960083
-0.687372 0.955502 0.951549
-0.684329 0.955385 0.943061
-0.680853 0.955312 0.934618
-0.67686 0.955292 0.926228
-0.670601 0.955505 0.918062
-0.666057 0.955541 0.909724
-0.661528 0.955576 0.901385
-0.656329 0.95568 0.893109
-0.650697 0.955828 0.884872
-0.641503 0.956339 0.876965
-0.634814 0.956594 0.868818
-0.625713 0.957096 0.860887
-0.6182 0.957435 0.852802
-0.606315 0.958219 0.845105
-0.5978 0.958659 0.837093
-0.584493 0.959587 0.829495
-0.565661 0.961077 0.822362
-0.550536 0.962189 0.814882
-0.525934 0.964264 0.80819
-0.495583 0.966922 0.801945
-0.527151 0.997858 1.24014
-0.570509 0.992839 1.22531
-0.592682 0.990053 1.2133
-0.607914 0.988 1.20224
-0.62498 0.985757 1.19098
-0.634475 0.98431 1.18072
-0.646304 0.982621 1.17019
-0.65344 0.981425 1.16028
-0.662013 0.98008 1.15021
-0.668648 0.978939 1.1404
-0.672479 0.978093 1.13095
-0.678629 0.977005 1.12124
-0.681965 0.976213 1.11189
-0.687559 0.975185 1.10228
-0.690335 0.974453 1.09302
-0.695308 0.973491 1.08352
-0.697461 0.972826 1.07437
-0.699292 0.972194 1.06526
-0.703228 0.971344 1.05592
-0.701736 0.971061 1.04721
-0.702687 0.970523 1.03824
-0.703274 0.970024 1.02931
-0.705858 0.969317 1.02017
-0.703714 0.969103 1.01157
-0.703325 0.968707 1.00277
-0.702538 0.968352 0.994027
-0.701347 0.96804 0.985332
-0.698504 0.9679 0.976816
-0.696692 0.967653 0.968195
-0.694461 0.96745 0.959622
-0.691804 0.967291 0.951096
-0.688719 0.967177 0.942616
-0.684923 0.967137 0.93421
-0.681189 0.96709 0.925798
-0.677068 0.967084 0.917426
-0.672682 0.967105 0.909079
-0.667862 0.967171 0.900773
-0.662607 0.967282 0.892509
-0.656919 0.967438 0.884283
-0.648736 0.967851 0.876288
-0.642209 0.968094 0.868132
-0.631706 0.968747 0.860336
-0.624147 0.969095 0.852261
-0.616178 0.969485 0.844217
-0.603617 0.970349 0.836575
-0.590229 0.971298 0.82899
-0.57604 0.972328 0.821457
-0.557958 0.973759 0.814242
-0.536732 0.975513 0.807269
-0.506677 0.978175 0.801009
-0.527913 1.01041 1.24004
-0.571112 1.00534 1.22523
-0.595953 1.00224 1.21288
-0.613257 0.999938 1.20156
-0.627633 0.997952 1.19065
-0.63975 0.996209 1.18006
-0.647125 0.994971 1.17009
-0.658685 0.99329 1.15963
-0.665623 0.992102 1.14976
-0.673829 0.99078 1.13977
-0.680214 0.989653 1.13002
-0.683759 0.988828 1.12063
-0.68962 0.987758 1.11097
-0.692634 0.986991 1.10168
-0.697903 0.985985 1.09213
-0.700323 0.985283 1.08294
-0.702434 0.984613 1.07379
-0.704223 0.983979 1.06469
-0.705362 0.983414 1.05568
-0.706623 0.982836 1.04666
-0.709967 0.982039 1.03742
-0.710488 0.98154 1.02851
-0.708512 0.981306 1.01988
-0.708468 0.980868 1.01105
-0.710404 0.980222 1.00201
-0.70955 0.97987 0.993277
-0.70688 0.979711 0.984745
-0.705417 0.979424 0.97609
-0.70354 0.979181 0.967482
-0.701244 0.978982 0.958922
-0.697846 0.9789 0.950479
-0.694911 0.978769 0.941989
-0.691547 0.978683 0.933546
-0.687752 0.978642 0.925146
-0.683601 0.978639 0.916783
-0.679155 0.978667 0.908448
-0.674276 0.97874 0.900154
-0.668964 0.978859 0.891901
-0.663221 0.979023 0.883686
-0.654958 0.979451 0.875705
-0.648379 0.979701 0.867559
-0.641379 0.979996 0.859448
-0.630171 0.980731 0.851714
-0.622158 0.981131 0.843679
-0.60951 0.982016 0.83605
-0.59604 0.982985 0.828478
-0.581776 0.984037 0.820957
-0.566749 0.985167 0.813484
-0.547615 0.986725 0.806341
-0.516016 0.989583 0.800221
-0.52605 1.02324 1.24028
-0.576521 1.01732 1.22453
-0.601365 1.01418 1.21218
-0.618649 1.01186 1.20087
-0.631052 1.01006 1.19021
-0.643231 1.00829 1.17962
-0.655116 1.00655 1.16909
-0.661324 1.00542 1.1593
-0.670903 1.00394 1.14911
-0.674979 1.00304 1.13963
-0.682815 1.00174 1.1297
-0.688934 1.00063 1.12
-0.694778 0.999551 1.11036
-0.697752 0.998778 1.10107
-0.700447 0.998037 1.09184
-0.702846 0.997328 1.08264
-0.706886 0.996444 1.07328
-0.708775 0.995791 1.06417
-0.710334 0.995174 1.05511
-0.71403 0.994328 1.04583
-0.714871 0.993789 1.03688
-0.71306 0.993534 1.02823
-0.715784 0.992795 1.01908
-0.715672 0.992359 1.01026
-0.715171 0.991965 1.00149
-0.71268 0.991785 0.992943
-0.711581 0.991455 0.984247
-0.712416 0.99092 0.975355
-0.709406 0.990795 0.966872
-0.707254 0.990579 0.958303
-0.70468 0.990408 0.94978
-0.701681 0.990282 0.941304
-0.698253 0.990202 0.932873
-0.694394 0.990168 0.924486
-0.690214 0.990169 0.916132
-0.685926 0.990181 0.907788
-0.681203 0.990238 0.899486
-0.676048 0.990342 0.891224
-0.670463 0.990492 0.883001
-0.662324 0.990912 0.875014
-0.654626 0.991285 0.86698
-0.647575 0.991589 0.858879
-0.638054 0.992155 0.850997
-0.630198 0.992544 0.842956
-0.617747 0.993419 0.835317
-0.604473 0.99438 0.827735
-0.592359 0.995218 0.820035
-0.577495 0.996345 0.812557
-0.553283 0.99846 0.805857
-0.527241 1.00077 0.799274
-0.508138 1.03783 1.24262
-0.577255 1.0298 1.22443
-0.602103 1.02662 1.21209
-0.619409 1.02426 1.20077
-0.636477 1.02194 1.18952
-0.648638 1.02014 1.17893
-0.657802 1.01868 1.16875
-0.665001 1.01743 1.15884
-0.67356 1.01604 1.14879
-0.682931 1.01456 1.13865
-0.686747 1.01368 1.12922
-0.692973 1.01255 1.11952
-0.696302 1.01172 1.11018
-0.70198 1.01065 1.10057
-0.704758 1.00989 1.09133
-0.709822 1.00888 1.08183
-0.711985 1.00819 1.07269
-0.716374 1.00726 1.0633
-0.717868 1.00664 1.05426
-0.71652 1.00633 1.04555
-0.719864 1.00552 1.03632
-0.720458 1.005 1.02741
-0.720681 1.00452 1.01855
-0.718558 1.0043 1.00995
-0.720637 1.00362 1.0009
-0.719871 1.00325 0.992174
-0.718703 1.00293 0.983493
-0.715878 1.00278 0.974991
-0.714097 1.00252 0.966384
-0.714237 1.00205 0.957582
-0.711596 1.00189 0.949074
-0.70803 1.00182 0.940661
-0.704751 1.00173 0.932221
-0.701044 1.00168 0.923826
-0.696942 1.00167 0.91547
-0.692589 1.00169 0.907139
-0.687805 1.00175 0.898849
-0.682591 1.00187 0.890598
-0.676947 1.00202 0.882387
-0.668727 1.00246 0.874414
-0.662253 1.0027 0.866272
-0.655359 1.003 0.858164
-0.648051 1.00333 0.850089
-0.63635 1.00414 0.842403
-0.628049 1.00458 0.8344
-0.61494 1.00553 0.826813
-0.601032 1.00658 0.819279
-0.583348 1.00802 0.812052
-0.564358 1.0096 0.804912
-0.538548 1.01191 0.79832
-0.490711 1.01658 0.793526
-0.580006 1.04206 1.22407
-0.604856 1.03884 1.21173
-0.624908 1.03615 1.20007
-0.637344 1.0343 1.18941
-0.649571 1.03248 1.17882
-0.661518 1.03069 1.16829
-0.673116 1.02895 1.15784
-0.677405 1.02801 1.14831
-0.685604 1.02664 1.13833
-0.694742 1.02516 1.12825
-0.698276 1.02431 1.11888
-0.704215 1.02319 1.10923
-0.707226 1.0224 1.09995
-0.712579 1.02135 1.09041
-0.715005 1.02062 1.08123
-0.717125 1.01992 1.07209
-0.718928 1.01926 1.06301
-0.720161 1.01867 1.054
-0.723982 1.01779 1.04471
-0.72489 1.01723 1.03576
-0.725439 1.01671 1.02686
-0.725976 1.01619 1.01797
-0.725942 1.01574 1.00915
-0.725523 1.01533 1.00038
-0.724711 1.01496 0.991656
-0.724489 1.01452 0.982879
-0.72305 1.01422 0.974238
-0.721202 1.01397 0.965644
-0.718034 1.01386 0.957191
-0.71556 1.01367 0.948669
-0.714994 1.01328 0.939956
-0.711649 1.01319 0.93153
-0.707877 1.01315 0.923147
-0.703744 1.01314 0.9148
-0.699504 1.01315 0.906465
-0.694873 1.0132 0.898166
-0.689813 1.0133 0.889908
-0.684324 1.01344 0.881689
-0.676224 1.01387 0.873712
-0.668676 1.01423 0.865676
-0.66173 1.01454 0.857579
-0.654372 1.01488 0.849514
-0.644508 1.0155 0.841669
-0.63423 1.01616 0.833849
-0.621034 1.01714 0.826276
-0.61175 1.01769 0.818345
-0.592293 1.01934 0.811281
-0.573546 1.02092 0.804129
-0.548001 1.02323 0.797523
-0.512677 1.0266 0.791693
-0.580843 1.05452 1.22396
-0.608482 1.05095 1.21127
-0.625786 1.04853 1.19995
-0.642876 1.04615 1.18871
-0.655085 1.04431 1.17812
-0.667009 1.0425 1.1676
-0.674272 1.04121 1.15769
-0.682836 1.03979 1.14764
-0.689623 1.03856 1.13784
-0.696181 1.03735 1.12808
-0.700944 1.03635 1.11856
-0.706873 1.03522 1.10892
-0.709864 1.03442 1.09964
-0.714442 1.03344 1.09019
-0.716973 1.03269 1.081
-0.721823 1.03169 1.07155
-0.723723 1.03101 1.06246
-0.727879 1.03008 1.05312
-0.729092 1.02948 1.04413
-0.727474 1.0292 1.03547
-0.730695 1.02838 1.02627
-0.730991 1.02788 1.01742
-0.730911 1.02742 1.00861
-0.731126 1.02694 0.999773
-0.730443 1.02655 0.991044
-0.729362 1.02621 0.982363
-0.727877 1.02591 0.973731
-0.727311 1.02551 0.965008
-0.725186 1.02528 0.956453
-0.722644 1.0251 0.947945
-0.71968 1.02497 0.939482
-0.715954 1.02492 0.931098
-0.712352 1.02486 0.922702
-0.710623 1.02459 0.914124
-0.706353 1.0246 0.905797
-0.701659 1.02466 0.897511
-0.696536 1.02476 0.889265
-0.690988 1.02492 0.881058
-0.682805 1.02536 0.873095
-0.67643 1.0256 0.864957
-0.669637 1.02589 0.856853
-0.662432 1.02622 0.848781
-0.650828 1.02704 0.8411
-0.642634 1.02748 0.833101
-0.629629 1.02845 0.825519
-0.617877 1.02928 0.817811
-0.603281 1.03042 0.810334
-0.584748 1.03199 0.803173
-0.563008 1.03391 0.796256
-0.528458 1.03724 0.790376
-0.581754 1.06697 1.22385
-0.609408 1.06335 1.21115
-0.628582 1.0607 1.1996
-0.643855 1.05849 1.18859
-0.656125 1.05662 1.17799
-0.668129 1.05478 1.16746
-0.679798 1.05299 1.15701
-0.686871 1.05171 1.14715
-0.695084 1.0503 1.13717
-0.701628 1.04909 1.12742
-0.707923 1.0479 1.11772
-0.711242 1.04706 1.10839
-0.716996 1.04593 1.0988
-0.719771 1.04515 1.08957
-0.724918 1.04409 1.08007
-0.727086 1.04338 1.07094
-0.728942 1.0427 1.06186
-0.730471 1.04205 1.05283
-0.731606 1.04146 1.04385
-0.735179 1.04058 1.03461
-0.735795 1.04005 1.02571
-0.736429 1.03951 1.01682
-0.736469 1.03903 1.008
-0.736129 1.0386 0.999233
-0.735398 1.03822 0.990514
-0.735279 1.03776 0.981736
-0.733927 1.03745 0.973096
-0.732169 1.03718 0.964503
-0.731482 1.03679 0.955804
-0.72908 1.03659 0.947287
-0.726259 1.03644 0.938816
-0.723015 1.03634 0.93039
-0.719346 1.03628 0.922008
-0.715269 1.03627 0.913666
-0.71096 1.03629 0.905348
-0.706562 1.03631 0.897038
-0.701611 1.0364 0.88878
-0.696234 1.03653 0.880562
-0.690433 1.03672 0.87238
-0.68421 1.03694 0.864235
-0.67757 1.03722 0.856124
-0.668921 1.03772 0.848191
-0.661258 1.03811 0.840162
-0.648978 1.03901 0.832536
-0.64035 1.0395 0.824574
-0.626706 1.04055 0.817041
-0.612291 1.04169 0.809557
-0.594 1.04325 0.802384
-0.574462 1.04495 0.79529
-0.544152 1.04785 0.789067
-0.578089 1.07994 1.22432
-0.610399 1.07575 1.21102
-0.632384 1.07274 1.19911
-0.646668 1.07062 1.18823
-0.661743 1.06841 1.17728
-0.670921 1.06687 1.16711
-0.681051 1.06523 1.15685
-0.692428 1.06345 1.14646
-0.69651 1.0625 1.137
-0.703154 1.06126 1.12723
-0.710653 1.05992 1.11739
-0.713952 1.05906 1.10807
-0.719697 1.05793 1.09848
-0.72245 1.05714 1.08925
-0.727586 1.05607 1.07976
-0.729268 1.0554 1.07069
-0.733894 1.0544 1.06129
-0.735522 1.05374 1.05225
-0.739436 1.05282 1.04297
-0.737852 1.05252 1.03431
-0.741197 1.05167 1.02511
-0.741562 1.05115 1.01626
-0.741555 1.05068 1.00745
-0.741868 1.05017 0.998614
-0.741263 1.04977 0.989887
-0.740265 1.04941 0.981208
-0.740027 1.04896 0.972455
-0.738403 1.04867 0.963854
-0.736369 1.04843 0.9553
-0.736354 1.04796 0.946544
-0.732879 1.04788 0.938146
-0.729778 1.04776 0.929711
-0.726255 1.04769 0.921321
-0.722306 1.04767 0.912974
-0.71809 1.04767 0.904653
-0.713502 1.04772 0.896368
-0.708488 1.04782 0.888123
-0.703049 1.04796 0.879917
-0.697188 1.04815 0.871747
-0.690907 1.04839 0.863614
-0.68421 1.04867 0.855515
-0.677102 1.04901 0.847448
-0.669588 1.04938 0.839412
-0.657496 1.05027 0.831778
-0.649014 1.05076 0.823811
-0.63767 1.05156 0.816085
-0.623408 1.05269 0.808598
-0.605328 1.05425 0.801417
-0.585994 1.05595 0.794317
-0.559754 1.05842 0.787765
-0.579173 1.09237 1.22418
-0.613261 1.08793 1.21065
-0.633436 1.08509 1.19897
-0.650581 1.08262 1.18773
-0.662889 1.0807 1.17714
-0.674946 1.07881 1.16661
-0.686681 1.07697 1.15615
-0.693824 1.07565 1.14629
-0.702075 1.07421 1.13631
-0.708703 1.07296 1.12656
-0.715089 1.07173 1.11686
-0.721214 1.07054 1.1072
-0.724308 1.0697 1.09793
-0.729868 1.06857 1.08838
-0.732397 1.0678 1.0792
-0.737329 1.06675 1.06976
-0.739233 1.06605 1.06068
-0.740645 1.0654 1.05167
-0.742041 1.06476 1.04267
-0.745733 1.06386 1.03343
-0.746413 1.0633 1.02453
-0.744531 1.06303 1.01593
-0.747252 1.06224 1.00683
-0.746985 1.06179 0.998062
-0.747183 1.06129 0.989254
-0.746312 1.06091 0.980567
-0.745044 1.06058 0.971928
-0.745869 1.06001 0.963077
-0.742786 1.05989 0.954638
-0.740475 1.05967 0.946123
-0.737748 1.05951 0.937653
-0.737024 1.05912 0.928985
-0.733201 1.05908 0.920631
-0.729397 1.05904 0.912276
-0.725255 1.05904 0.903955
-0.720814 1.05907 0.895662
-0.715948 1.05915 0.88741
-0.710658 1.05928 0.879196
-0.704945 1.05945 0.87102
-0.698813 1.05968 0.86288
-0.692265 1.05995 0.854775
-0.685306 1.06027 0.846702
-0.677939 1.06063 0.838661
-0.668226 1.06126 0.830823
-0.657698 1.06199 0.823046
-0.646566 1.06278 0.81531
-0.632483 1.0639 0.807815
-0.619753 1.06487 0.800187
-0.598862 1.06677 0.793231
-0.575259 1.06897 0.786471
-0.533816 1.07319 0.781147
-0.572858 1.10567 1.225
-0.612582 1.10051 1.21074
-0.634546 1.09744 1.19883
-0.651722 1.09493 1.18759
-0.665744 1.09279 1.17678
-0.67779 1.09088 1.16625
-0.688032 1.08919 1.15598
-0.696649 1.08768 1.14594
-0.706418 1.08605 1.13578
-0.710315 1.0851 1.12637
-0.71787 1.08373 1.11652
-0.723985 1.08252 1.10687
-0.727059 1.08167 1.0976
-0.732608 1.08054 1.08806
-0.735116 1.07976 1.07889
-0.739609 1.07874 1.0695
-0.744341 1.07771 1.0601
-0.746019 1.07702 1.05106
-0.747369 1.07638 1.04207
-0.748494 1.07576 1.03312
-0.749306 1.07518 1.02421
-0.752389 1.07434 1.01507
-0.752452 1.07385 1.00626
-0.75286 1.07332 0.997428
-0.75233 1.07289 0.988703
-0.753973 1.07222 0.979755
-0.751271 1.07205 0.971274
-0.74973 1.07175 0.962675
-0.750293 1.0712 0.953864
-0.747074 1.07109 0.945449
-0.744484 1.07091 0.936971
-0.741477 1.07078 0.928538
-0.740486 1.07041 0.919907
-0.736613 1.07038 0.911566
-0.732439 1.07038 0.903255
-0.72816 1.07039 0.894953
-0.72344 1.07046 0.886694
-0.718296 1.07057 0.878474
-0.712731 1.07073 0.870291
-0.706747 1.07095 0.862144
-0.700346 1.0712 0.854033
-0.693533 1.07151 0.845954
-0.684634 1.07205 0.838059
-0.676816 1.07247 0.830058
-0.668607 1.07294 0.822085
-0.655481 1.07397 0.814533
-0.643729 1.07484 0.806845
-0.629048 1.07605 0.799394
-0.610458 1.0777 0.792253
-0.590663 1.07949 0.785185
-0.554029 1.08321 0.779479
-0.557677 1.12004 1.22698
-0.610842 1.11322 1.21096
-0.635717 1.10977 1.19868
-0.652917 1.10723 1.18743
-0.666966 1.10506 1.17662
-0.681966 1.10278 1.16573
-0.690892 1.10123 1.15563
-0.700972 1.09953 1.14541
-0.707993 1.0982 1.13559
-0.715966 1.09676 1.12568
-0.722439 1.0955 1.11597
-0.728656 1.09427 1.10632
-0.734598 1.09308 1.09671
-0.73746 1.09224 1.08749
-0.742816 1.09112 1.07799
-0.745092 1.09036 1.06886
-0.747064 1.08963 1.05979
-0.74872 1.08894 1.05075
-0.752743 1.08798 1.04147
-0.753855 1.08736 1.03252
-0.754877 1.08675 1.0236
-0.755441 1.08619 1.01473
-0.758285 1.08537 1.00563
-0.758089 1.0849 0.996864
-0.758382 1.08438 0.988056
-0.757586 1.08398 0.979372
-0.756397 1.08363 0.970736
-0.756136 1.08318 0.962008
-0.754321 1.0829 0.953449
-0.752096 1.08267 0.944935
-0.751958 1.0822 0.936214
-0.748394 1.08214 0.927845
-0.745106 1.08203 0.919448
-0.741398 1.08198 0.911095
-0.739745 1.08169 0.902543
-0.735381 1.08171 0.894256
-0.730593 1.08179 0.88601
-0.725965 1.08184 0.877748
-0.720545 1.08199 0.869559
-0.714707 1.08219 0.861406
-0.708452 1.08243 0.853288
-0.700378 1.08289 0.845332
-0.693102 1.08325 0.837297
-0.685428 1.08366 0.829291
-0.677361 1.08411 0.821314
-0.666625 1.08488 0.813561
-0.652868 1.08599 0.806057
-0.638359 1.08719 0.7986
-0.625264 1.08823 0.791003
-0.605962 1.08998 0.783909
-0.575958 1.09298 0.777669
-0.60913 1.12594 1.21118
-0.636948 1.12209 1.19852
-0.655838 1.11932 1.18706
-0.671159 1.11697 1.1761
-0.683329 1.11501 1.16556
-0.69521 1.11308 1.15509
-0.702494 1.11171 1.14522
-0.710861 1.1102 1.13524
-0.720535 1.10854 1.12513
-0.724238 1.1076 1.11576
-0.730564 1.10634 1.10609
-0.736622 1.10512 1.09647
-0.739576 1.10426 1.08724
-0.74506 1.10311 1.07773
-0.750226 1.102 1.06827
-0.752286 1.10125 1.05919
-0.756784 1.10022 1.04984
-0.75546 1.09988 1.04116
-0.759398 1.09891 1.0319
-0.760268 1.09832 1.023
-0.763469 1.09744 1.01385
-0.761496 1.09718 1.00528
-0.764097 1.09638 0.996216
-0.763639 1.09594 0.987494
-0.762794 1.09554 0.97882
-0.76275 1.09506 0.970069
-0.761288 1.09474 0.961472
-0.760905 1.09429 0.95277
-0.758813 1.09404 0.944249
-0.75631 1.09385 0.935774
-0.755904 1.09341 0.927091
-0.752201 1.09335 0.918744
-0.748632 1.09328 0.910383
-0.744643 1.09326 0.902065
-0.742864 1.09298 0.893534
-0.738219 1.09304 0.885281
-0.733154 1.09315 0.877067
-0.727669 1.09331 0.868891
-0.721767 1.09351 0.860751
-0.715451 1.09377 0.852646
-0.708724 1.09407 0.844573
-0.701592 1.09442 0.836533
-0.69406 1.09482 0.828523
-0.686135 1.09526 0.820541
-0.675607 1.09601 0.812778
-0.666733 1.09657 0.804862
-0.649876 1.09806 0.797617
-0.634787 1.09934 0.7902
-0.615705 1.10109 0.783096
-0.591815 1.1034 0.77636
-0.549955 1.10782 0.771055
-0.605793 1.13885 1.21161
-0.635265 1.13476 1.19874
-0.657114 1.1316 1.1869
-0.672505 1.12922 1.17593
-0.684736 1.12723 1.16538
-0.696695 1.12527 1.15491
-0.705399 1.12371 1.14486
-0.715403 1.12199 1.13469
-0.722289 1.12065 1.12491
-0.7271 1.11956 1.11541
-0.733415 1.11829 1.10575
-0.739463 1.11705 1.09614
-0.745225 1.11585 1.08658
-0.747867 1.11503 1.0774
-0.75302 1.1139 1.06795
-0.755058 1.11315 1.05887
-0.759421 1.11213 1.04954
-0.763707 1.11111 1.04023
-0.764872 1.11047 1.03129
-0.763242 1.11016 1.02267
-0.766604 1.10926 1.01351
-0.769566 1.1084 1.0044
-0.767468 1.10815 0.995853
-0.767151 1.10769 0.987119
-0.769097 1.10696 0.978153
-0.767983 1.1066 0.969519
-0.767818 1.10612 0.960793
-0.766082 1.10583 0.952236
-0.76394 1.10559 0.943725
-0.763204 1.10518 0.935076
-0.760421 1.10501 0.926638
-0.759745 1.1046 0.917994
-0.755903 1.10456 0.909668
-0.752054 1.10453 0.901343
-0.747897 1.10453 0.893048
-0.745877 1.10427 0.884549
-0.740953 1.10437 0.876329
-0.735611 1.10451 0.868147
-0.729852 1.1047 0.860001
-0.723679 1.10494 0.85189
-0.717095 1.10523 0.843813
-0.710105 1.10557 0.835767
-0.702715 1.10596 0.827752
-0.69493 1.10639 0.819766
-0.684608 1.10712 0.811994
-0.675871 1.10766 0.804074
-0.661933 1.10883 0.796589
-0.649459 1.10981 0.788962
-0.630878 1.11152 0.78183
-0.607577 1.11379 0.77506
-0.576579 1.11697 0.768883
-0.599589 1.15213 1.21241
-0.636592 1.14707 1.19857
-0.656827 1.14407 1.18694
-0.6739 1.14146 1.17575
-0.686186 1.13944 1.1652
-0.698218 1.13745 1.15472
-0.709928 1.1355 1.14431
-0.717097 1.13411 1.13448
-0.725198 1.13261 1.12456
-0.731852 1.13128 1.11484
-0.738263 1.12999 1.10517
-0.744412 1.12872 1.09555
-0.750281 1.1275 1.08598
-0.752998 1.12666 1.0768
-0.75827 1.12551 1.06734
-0.760393 1.12474 1.05826
-0.762209 1.12401 1.04922
-0.766492 1.12298 1.03992
-0.767779 1.12232 1.03097
-0.771483 1.12136 1.02176
-0.769733 1.12107 1.01316
-0.772858 1.12018 1.00404
-0.772866 1.11968 0.99527
-0.773351 1.11911 0.986456
-0.77277 1.11868 0.977763
-0.774461 1.11797 0.968839
-0.773075 1.11764 0.960246
-0.772786 1.11717 0.951545
-0.770773 1.11691 0.943027
-0.768354 1.1167 0.934555
-0.76749 1.1163 0.925929
-0.764427 1.11617 0.917529
-0.76348 1.11579 0.908922
-0.759499 1.11577 0.900617
-0.755414 1.11576 0.892323
-0.751073 1.11578 0.884053
-0.748783 1.11556 0.875588
-0.743582 1.11569 0.8674
-0.737964 1.11586 0.859248
-0.731932 1.11609 0.851132
-0.72549 1.11637 0.843049
-0.718641 1.11669 0.834999
-0.711391 1.11707 0.82698
-0.703746 1.11749 0.818989
-0.693628 1.1182 0.811208
-0.685027 1.11874 0.803284
-0.673516 1.11962 0.795601
-0.658979 1.12087 0.788159
-0.64594 1.12193 0.780573
-0.626652 1.12374 0.773486
-0.596663 1.12684 0.767244
-0.591976 1.16559 1.2134
-0.634966 1.15974 1.19878
-0.655222 1.1567 1.18714
-0.675344 1.15369 1.17557
-0.689166 1.15146 1.16483
-0.699781 1.14962 1.15452
-0.711576 1.14764 1.1441
-0.720043 1.14607 1.13412
-0.727009 1.14469 1.12434
-0.736696 1.14298 1.11426
-0.740271 1.14202 1.10493
-0.746529 1.14073 1.0953
-0.752514 1.13948 1.08572
-0.755854 1.13855 1.07647
-0.760724 1.13744 1.06706
-0.765801 1.1363 1.05764
-0.767706 1.13555 1.0486
-0.769295 1.13484 1.0396
-0.773493 1.13381 1.03033
-0.774542 1.13317 1.02142
-0.778014 1.13224 1.01225
-0.776142 1.13195 1.00368
-0.779025 1.13109 0.994606
-0.778774 1.13061 0.985876
-0.779141 1.13006 0.977088
-0.778294 1.12965 0.968436
-0.779725 1.12897 0.959554
-0.776871 1.12881 0.951123
-0.777651 1.12821 0.942324
-0.775361 1.12798 0.933845
-0.772661 1.1278 0.925411
-0.771669 1.12742 0.916809
-0.768325 1.12732 0.908445
-0.767106 1.12697 0.899876
-0.762986 1.12696 0.891592
-0.758762 1.12697 0.883318
-0.756235 1.12678 0.874883
-0.751582 1.12684 0.86665
-0.746104 1.127 0.858493
-0.740212 1.12721 0.850372
-0.73391 1.12748 0.842284
-0.727201 1.12779 0.834229
-0.720827 1.12806 0.82614
-0.714942 1.12827 0.818003
-0.702668 1.12926 0.81042
-0.694201 1.12978 0.802493
-0.682887 1.13065 0.794801
-0.673514 1.13129 0.786932
-0.655663 1.13295 0.779761
-0.642087 1.13409 0.772212
-0.616376 1.1367 0.765635
-0.581186 1.14045 0.759784
-0.631783 1.17261 1.19919
-0.656667 1.16896 1.18696
-0.673806 1.16629 1.17576
-0.689221 1.16383 1.16482
-0.702776 1.16161 1.15415
-0.71326 1.15977 1.1439
-0.721797 1.15818 1.1339
-0.731823 1.1564 1.12376
-0.738655 1.15503 1.11402
-0.743199 1.15394 1.10458
-0.749447 1.15263 1.09495
-0.75542 1.15137 1.08538
-0.760575 1.15021 1.07592
-0.763596 1.14931 1.06673
-0.768396 1.14819 1.05734
-0.773272 1.14707 1.04797
-0.774953 1.14634 1.03897
-0.776428 1.14564 1.03
-0.777598 1.14498 1.02108
-0.781226 1.14401 1.0119
-0.78168 1.14344 1.00308
-0.782464 1.14283 0.994235
-0.785102 1.14198 0.9852
-0.784587 1.14153 0.976511
-0.784835 1.14099 0.967749
-0.783718 1.14061 0.959138
-0.784887 1.13996 0.950297
-0.781898 1.13981 0.94189
-0.78241 1.13924 0.933132
-0.77984 1.13904 0.924691
-0.77686 1.1389 0.916294
-0.775739 1.13853 0.907716
-0.772112 1.13847 0.899388
-0.768074 1.13845 0.891101
-0.766484 1.13814 0.88258
-0.762 1.13818 0.874337
-0.759061 1.13803 0.865949
-0.754271 1.13811 0.857735
-0.748518 1.13831 0.849609
-0.742354 1.13856 0.841516
-0.735783 1.13886 0.833457
-0.731219 1.13891 0.825214
-0.723829 1.13931 0.81722
-0.716049 1.13976 0.809253
-0.705736 1.14052 0.801498
-0.69469 1.14136 0.793794
-0.683031 1.14228 0.786129
-0.670594 1.1433 0.778515
-0.652005 1.14507 0.771394
-0.63792 1.14628 0.763878
-0.607655 1.14948 0.757648
-0.62564 1.18586 1.19997
-0.655108 1.18159 1.18716
-0.675324 1.1785 1.17557
-0.690806 1.17601 1.16462
-0.703028 1.17393 1.15412
-0.71498 1.17189 1.14368
-0.723582 1.17027 1.13369
-0.733717 1.16847 1.12353
-0.740638 1.16706 1.11378
-0.748223 1.16558 1.10398
-0.754566 1.16425 1.09435
-0.76064 1.16296 1.08477
-0.763498 1.16207 1.07558
-0.768997 1.16086 1.0661
-0.771283 1.16005 1.05701
-0.776008 1.15893 1.04766
-0.777799 1.15818 1.03865
-0.782129 1.15711 1.02937
-0.783502 1.15642 1.02043
-0.784432 1.15578 1.01155
-0.787825 1.15483 1.00241
-0.788027 1.15429 0.993635
-0.788696 1.15368 0.984815
-0.791084 1.15286 0.975823
-0.790303 1.15244 0.967175
-0.790429 1.15191 0.95844
-0.78904 1.15157 0.949868
-0.787254 1.15127 0.941343
-0.786817 1.15081 0.932685
-0.78706 1.15026 0.923967
-0.78421 1.1501 0.915564
-0.780562 1.15004 0.907241
-0.779697 1.14963 0.898649
-0.775788 1.1496 0.890356
-0.774184 1.14929 0.881844
-0.76989 1.14931 0.87359
-0.765125 1.14939 0.865381
-0.762089 1.14925 0.85701
-0.757171 1.14935 0.848814
-0.75116 1.14958 0.840716
-0.744742 1.14986 0.832651
-0.73792 1.1502 0.824618
-0.730699 1.15058 0.816614
-0.723086 1.15101 0.80864
-0.713017 1.15175 0.80087
-0.704454 1.15229 0.792961
-0.693002 1.1532 0.785288
-0.683544 1.15386 0.777435
-0.667774 1.1553 0.770092
-0.648025 1.15723 0.763053
-0.62763 1.15923 0.756037
-0.592181 1.1631 0.750192
-0.618107 1.19931 1.20094
-0.652045 1.19442 1.18754
-0.672325 1.19129 1.17595
-0.689361 1.18857 1.16481
-0.704714 1.18608 1.15391
-0.716737 1.184 1.14347
-0.7254 1.18236 1.13346
-0.73564 1.18052 1.12329
-0.743642 1.17897 1.11342
-0.750331 1.17758 1.10373
-0.756776 1.17623 1.09409
-0.76296 1.17491 1.0845
-0.768866 1.17362 1.07496
-0.771528 1.17276 1.06581
-0.776838 1.17155 1.05638
-0.77891 1.17076 1.04733
-0.783556 1.16964 1.038
-0.785121 1.16891 1.02903
-0.789229 1.16786 1.01979
-0.790109 1.16723 1.01093
-0.791182 1.16656 1.00205
-0.794336 1.16564 0.992955
-0.794281 1.16512 0.984218
-0.794833 1.16453 0.975425
-0.796966 1.16373 0.966475
-0.794419 1.16353 0.958024
-0.795918 1.16282 0.949159
-0.794255 1.16251 0.940628
-0.792193 1.16224 0.932141
-0.791627 1.16179 0.923509
-0.788931 1.16161 0.915094
-0.788221 1.16118 0.906488
-0.784903 1.16108 0.898141
-0.784015 1.16067 0.889562
-0.779925 1.16066 0.881295
-0.775563 1.16069 0.873053
-0.773991 1.16037 0.86455
-0.768999 1.16048 0.856369
-0.763593 1.16064 0.848224
-0.759581 1.16062 0.839951
-0.754346 1.16076 0.831787
-0.747705 1.16108 0.823747
-0.740662 1.16144 0.815737
-0.733223 1.16186 0.807756
-0.725395 1.16232 0.799803
-0.715009 1.1631 0.792061
-0.706241 1.16368 0.784171
-0.694488 1.16463 0.776521
-0.681961 1.16568 0.768922
-0.665972 1.16716 0.761589
-0.648615 1.16881 0.754344
-0.617201 1.17222 0.748196
-0.595726 1.21469 1.2038
-0.649064 1.20725 1.18792
-0.670844 1.20389 1.17614
-0.691014 1.20074 1.1646
-0.703348 1.19861 1.15408
-0.718531 1.19611 1.14325
-0.72725 1.19444 1.13324
-0.737593 1.19257 1.12306
-0.745679 1.19098 1.11318
-0.75246 1.18957 1.10348
-0.759005 1.18819 1.09382
-0.765296 1.18685 1.08422
-0.771314 1.18554 1.07467
-0.777043 1.18426 1.06517
-0.779504 1.18341 1.05607
-0.784618 1.18222 1.04668
-0.786471 1.18145 1.03767
-0.788113 1.18071 1.0287
-0.792366 1.17963 1.01945
-0.793724 1.17892 1.01053
-0.794533 1.17829 1.00168
-0.797844 1.17733 0.992576
-0.797922 1.17679 0.983829
-0.798571 1.17618 0.975029
-0.800871 1.17536 0.966065
-0.799963 1.17494 0.957447
-0.800177 1.17439 0.94872
-0.798681 1.17405 0.940175
-0.798589 1.17353 0.931494
-0.796491 1.17327 0.923021
-0.796847 1.1727 0.914308
-0.79393 1.17255 0.905926
-0.7931 1.17213 0.897342
-0.789558 1.17205 0.889027
-0.7856 1.17203 0.880752
-0.784306 1.17167 0.872226
-0.779926 1.1717 0.863994
-0.77513 1.17179 0.8558
-0.772731 1.17157 0.847385
-0.767098 1.17176 0.839267
-0.761053 1.172 0.831184
-0.7546 1.1723 0.823133
-0.750527 1.17229 0.814868
-0.743265 1.17269 0.806881
-0.73561 1.17313 0.798922
-0.727568 1.17363 0.79099
-0.716868 1.17446 0.783274
-0.707897 1.17507 0.775402
-0.69031 1.17677 0.768233
-0.677266 1.17789 0.760667
-0.663514 1.17911 0.753143
-0.639215 1.18165 0.746441
-0.602653 1.18574 0.740669
-0.643042 1.22048 1.18869
-0.667924 1.21668 1.1765
-0.689595 1.21331 1.16478
-0.705093 1.21074 1.15387
-0.717256 1.2086 1.1434
-0.729135 1.20651 1.13301
-0.739575 1.2046 1.12282
-0.747741 1.20299 1.11293
-0.754611 1.20156 1.10322
-0.761253 1.20015 1.09356
-0.767648 1.19878 1.08395
-0.773777 1.19744 1.07438
-0.779622 1.19614 1.06488
-0.785167 1.19488 1.05542
-0.787421 1.19405 1.04636
-0.78938 1.19325 1.03734
-0.791106 1.19249 1.02836
-0.795502 1.19138 1.0191
-0.799531 1.19032 1.00989
-0.800291 1.18969 1.00106
-0.801345 1.18902 0.992199
-0.804449 1.18808 0.983131
-0.80429 1.18757 0.974423
-0.80489 1.18695 0.965643
-0.807046 1.18614 0.95671
-0.80447 1.18594 0.948277
-0.806034 1.18521 0.939424
-0.804326 1.18489 0.930913
-0.804119 1.18439 0.922256
-0.801804 1.18415 0.913816
-0.79908 1.18397 0.905419
-0.798348 1.18354 0.896831
-0.795001 1.18344 0.888502
-0.794072 1.18303 0.879943
-0.789969 1.18302 0.87169
-0.788398 1.18269 0.8632
-0.78398 1.18273 0.854979
-0.778956 1.18285 0.846814
-0.773516 1.18302 0.838684
-0.771379 1.18276 0.830255
-0.764191 1.18315 0.822279
-0.757514 1.18348 0.814252
-0.750437 1.18386 0.806256
-0.742963 1.18429 0.798288
-0.735099 1.18476 0.790347
-0.724656 1.18557 0.782617
-0.715852 1.18617 0.774739
-0.704044 1.18715 0.767099
-0.691461 1.18822 0.759509
-0.678143 1.1894 0.751962
-0.657998 1.19144 0.744943
-0.633 1.19409 0.738277
-0.632557 1.23432 1.19002
-0.665073 1.22947 1.17686
-0.686783 1.22606 1.16513
-0.703745 1.22327 1.15403
-0.7191 1.22069 1.14318
-0.731053 1.21857 1.13277
-0.741588 1.21663 1.12257
-0.749829 1.215 1.11268
-0.756786 1.21353 1.10296
-0.763522 1.2121 1.09329
-0.770685 1.21061 1.08359
-0.776253 1.20933 1.0741
-0.782212 1.208 1.06458
-0.787877 1.20672 1.05511
-0.790229 1.20586 1.04604
-0.795272 1.20466 1.03668
-0.797078 1.20388 1.0277
-0.798638 1.20313 1.01875
-0.802783 1.20205 1.00954
-0.804106 1.20133 1.00064
-0.804836 1.20069 0.991822
-0.80811 1.19973 0.98274
-0.808127 1.19918 0.974017
-0.808815 1.19855 0.965231
-0.811151 1.19771 0.956283
-0.810222 1.19729 0.947684
-0.810416 1.19673 0.938976
-0.811759 1.19602 0.93016
-0.808784 1.19587 0.921788
-0.806661 1.19561 0.913333
-0.806979 1.19503 0.904642
-0.804034 1.19487 0.896277
-0.803181 1.19445 0.887712
-0.79961 1.19438 0.879413
-0.795622 1.19436 0.871155
-0.794323 1.19399 0.862645
-0.789912 1.19403 0.854429
-0.787378 1.19383 0.84604
-0.78264 1.19391 0.837855
-0.776973 1.19411 0.829751
-0.770895 1.19436 0.821682
-0.768424 1.19415 0.813291
-0.761727 1.19448 0.805272
-0.752991 1.19507 0.797423
-0.745301 1.19554 0.789477
-0.737224 1.19605 0.781557
-0.726467 1.1969 0.773853
-0.717461 1.19753 0.765992
-0.705356 1.19856 0.758375
-0.69249 1.19968 0.750805
-0.672903 1.20167 0.743755
-0.648524 1.20428 0.737053
-0.618576 1.2076 0.730748
-0.617806 1.24875 1.19189
-0.663677 1.24208 1.17704
-0.684013 1.23881 1.16547
-0.704228 1.23556 1.15397
-0.717834 1.23319 1.14333
-0.729869 1.23103 1.13292
-0.740493 1.22906 1.12271
-0.748831 1.2274 1.1128
-0.758985 1.2255 1.1027
-0.765811 1.22404 1.09302
-0.773082 1.22252 1.08331
-0.778744 1.22122 1.07381
-0.784814 1.21986 1.06428
-0.790597 1.21854 1.0548
-0.793044 1.21767 1.04572
-0.798123 1.21645 1.03636
-0.79999 1.21565 1.02737
-0.80164 1.21489 1.01842
-0.805941 1.21377 1.00919
-0.809905 1.2127 1.00001
-0.810628 1.21206 0.991197
-0.81168 1.21137 0.982358
-0.814756 1.21042 0.973314
-0.814579 1.2099 0.964626
-0.81516 1.20928 0.955866
-0.814415 1.20883 0.947252
-0.814701 1.20825 0.938539
-0.81623 1.20751 0.929708
-0.814498 1.20719 0.921215
-0.81427 1.20668 0.912577
-0.811929 1.20645 0.904155
-0.811385 1.20598 0.89556
-0.808423 1.20583 0.887206
-0.807875 1.20536 0.878623
-0.804077 1.20532 0.870355
-0.799963 1.20532 0.862116
-0.798349 1.20499 0.853646
-0.793918 1.20503 0.845439
-0.788862 1.20515 0.837289
-0.786181 1.20496 0.828923
-0.781227 1.20507 0.820762
-0.775128 1.20533 0.8127
-0.768619 1.20564 0.804671
-0.762923 1.20585 0.796567
-0.757154 1.20606 0.788466
-0.747502 1.20679 0.78069
-0.739213 1.20733 0.772789
-0.728146 1.20823 0.76511
-0.71894 1.20889 0.757267
-0.700911 1.2107 0.750126
-0.687538 1.21191 0.742588
-0.673473 1.2132 0.735087
-0.648709 1.21588 0.728401
-0.653218 1.2559 1.17836
-0.682648 1.25138 1.16565
-0.702909 1.24809 1.15414
-0.718481 1.24544 1.14325
-0.731832 1.24308 1.13268
-0.742543 1.24108 1.12246
-0.750947 1.23939 1.11254
-0.761208 1.23746 1.10243
-0.768121 1.23597 1.09274
-0.775495 1.23442 1.08302
-0.78125 1.23309 1.07351
-0.787263 1.23173 1.06399
-0.793024 1.23041 1.05452
-0.79596 1.22946 1.04539
-0.800823 1.22825 1.03605
-0.805743 1.22704 1.02673
-0.807464 1.22626 1.01778
-0.809013 1.2255 1.00885
-0.813135 1.2244 0.999659
-0.814443 1.22367 0.990786
-0.815159 1.22302 0.981986
-0.818405 1.22204 0.972928
-0.819262 1.22138 0.964134
-0.819074 1.22085 0.955459
-0.821379 1.22 0.946534
-0.820429 1.21957 0.937953
-0.820603 1.219 0.929265
-0.819061 1.21866 0.920757
-0.818928 1.21813 0.912114
-0.81962 1.21749 0.903398
-0.817059 1.21729 0.895007
-0.813565 1.2172 0.88671
-0.813211 1.21671 0.878113
-0.80961 1.21664 0.869831
-0.808409 1.21625 0.861325
-0.804288 1.21625 0.853095
-0.799845 1.2163 0.844895
-0.797782 1.21602 0.836478
-0.792498 1.21618 0.828355
-0.786798 1.21639 0.820266
-0.78346 1.21629 0.811966
-0.778189 1.21644 0.803837
-0.771457 1.21678 0.795831
-0.764323 1.21718 0.787854
-0.75494 1.21787 0.780062
-0.746828 1.2184 0.772154
-0.738337 1.21897 0.76427
-0.726973 1.21993 0.756612
-0.714813 1.22098 0.749004
-0.701892 1.22214 0.741443
-0.688251 1.22339 0.733922
-0.664122 1.22601 0.727201
-0.634416 1.22937 0.720872
-0.638405 1.27035 1.18022
-0.675424 1.26475 1.16655
-0.700295 1.2608 1.15446
-0.717231 1.25794 1.14341
-0.729467 1.25571 1.13297
-0.741444 1.25352 1.12259
-0.753093 1.25137 1.11229
-0.760299 1.24983 1.10254
-0.770454 1.24789 1.09247
-0.777017 1.24644 1.08285
-0.783371 1.24502 1.07327
-0.789497 1.24363 1.06374
-0.79538 1.24227 1.05425
-0.801002 1.24095 1.04482
-0.803445 1.24006 1.03576
-0.808506 1.23882 1.02642
-0.810364 1.23801 1.01745
-0.812002 1.23723 1.00852
-0.816279 1.2361 0.999317
-0.820219 1.23501 0.990163
-0.820928 1.23436 0.981369
-0.821963 1.23366 0.972551
-0.825011 1.2327 0.96353
-0.822895 1.23243 0.955061
-0.825378 1.23154 0.946121
-0.824612 1.23109 0.937526
-0.824879 1.2305 0.928832
-0.826374 1.22975 0.920024
-0.824618 1.22943 0.911549
-0.824369 1.22891 0.90293
-0.822002 1.22868 0.894525
-0.821435 1.2282 0.88595
-0.818446 1.22805 0.877613
-0.817858 1.22758 0.86905
-0.81394 1.22755 0.860807
-0.809918 1.22754 0.852573
-0.808474 1.22719 0.844103
-0.803804 1.22726 0.835931
-0.798715 1.22739 0.827795
-0.796743 1.22711 0.819381
-0.791023 1.22732 0.8113
-0.78489 1.22759 0.803253
-0.779738 1.22773 0.795117
-0.774154 1.22792 0.787016
-0.7668 1.22835 0.779061
-0.757092 1.2291 0.771297
-0.748768 1.22966 0.763409
-0.74007 1.23027 0.755543
-0.728404 1.23127 0.747908
-0.715952 1.23237 0.740322
-0.702753 1.23358 0.732779
-0.682765 1.23568 0.725749
-0.657922 1.23842 0.719062
-0.608084 1.24448 0.714239
-0.607732 1.28701 1.18409
-0.674115 1.27733 1.16671
-0.694482 1.27396 1.15518
-0.71474 1.27061 1.14371
-0.727091 1.26834 1.13326
-0.742436 1.26567 1.12247
-0.751062 1.26392 1.11253
-0.762546 1.26178 1.10227
-0.772311 1.25987 1.09225
-0.77897 1.25839 1.08262
-0.785426 1.25694 1.07303
-0.791663 1.25552 1.06349
-0.797664 1.25414 1.05399
-0.803412 1.25279 1.04454
-0.80599 1.25187 1.03547
-0.811189 1.2506 1.02612
-0.813195 1.24976 1.01714
-0.817798 1.24857 1.00789
-0.819337 1.2478 0.998984
-0.823436 1.24668 0.989816
-0.824729 1.24594 0.980963
-0.82543 1.24529 0.972183
-0.828648 1.24429 0.963148
-0.829488 1.24362 0.954375
-0.829282 1.24308 0.945719
-0.831555 1.24222 0.936816
-0.829057 1.242 0.928409
-0.830738 1.24121 0.919586
-0.829172 1.24087 0.911097
-0.829018 1.24033 0.902473
-0.829674 1.23969 0.893778
-0.826375 1.23958 0.885473
-0.823582 1.2394 0.877122
-0.823188 1.2389 0.868546
-0.819558 1.23883 0.86028
-0.818334 1.23844 0.851792
-0.8142 1.23845 0.843577
-0.809727 1.23849 0.835392
-0.808067 1.23816 0.826954
-0.802959 1.2383 0.818827
-0.79934 1.23823 0.810567
-0.79426 1.23836 0.802436
-0.787902 1.23867 0.794413
-0.781136 1.23902 0.78642
-0.773967 1.23943 0.778457
-0.769139 1.23953 0.770292
-0.761176 1.24005 0.762385
-0.750575 1.24092 0.754686
-0.741672 1.24156 0.746838
-0.729706 1.24261 0.739225
-0.711243 1.24453 0.73211
-0.697548 1.24581 0.724597
-0.679624 1.24766 0.717392
-0.654093 1.25052 0.71074
-0.659299 1.29178 1.16857
-0.688677 1.28713 1.1559
-0.713502 1.28312 1.14387
-0.725902 1.28082 1.1334
-0.741331 1.27811 1.1226
-0.752949 1.27593 1.1123
-0.763026 1.27396 1.10221
-0.771197 1.27226 1.09238
-0.780862 1.27035 1.08239
-0.787419 1.26887 1.0728
-0.793763 1.26742 1.06324
-0.799879 1.26601 1.05374
-0.805748 1.26463 1.04428
-0.811356 1.26329 1.03487
-0.813794 1.26238 1.02583
-0.818836 1.26112 1.01652
-0.820686 1.2603 1.00757
-0.825193 1.25911 0.998347
-0.826565 1.25835 0.989478
-0.827937 1.2576 0.98062
-0.831677 1.25652 0.971521
-0.832194 1.25588 0.962776
-0.833119 1.25519 0.953997
-0.833091 1.25463 0.945326
-0.835543 1.25373 0.936409
-0.835988 1.25311 0.927708
-0.835004 1.25268 0.919158
-0.836465 1.25192 0.910372
-0.833568 1.25175 0.902025
-0.834415 1.25107 0.893316
-0.832021 1.25084 0.884928
-0.831433 1.25036 0.876371
-0.828417 1.25021 0.868051
-0.827505 1.24978 0.859536
-0.823858 1.24971 0.85128
-0.822585 1.24933 0.842807
-0.818339 1.24935 0.83461
-0.813637 1.24943 0.826453
-0.811291 1.24919 0.818085
-0.806518 1.24928 0.809935
-0.800765 1.2495 0.801869
-0.796167 1.24957 0.7937
-0.790772 1.24975 0.785598
-0.783783 1.25014 0.777628
-0.776394 1.25058 0.769687
-0.768611 1.25108 0.761771
-0.758271 1.25192 0.754058
-0.749538 1.25255 0.746203
-0.737815 1.25358 0.738578
-0.725308 1.25471 0.731001
-0.712055 1.25595 0.723467
-0.698097 1.25728 0.71597
-0.673496 1.26004 0.709264
-0.628233 1.26559 0.704073
-0.644732 1.30623 1.17039
-0.681657 1.30049 1.15677
-0.706554 1.29642 1.14472
-0.72353 1.29347 1.13369
-0.739893 1.2906 1.12278
-0.753125 1.28817 1.11228
-0.761741 1.28639 1.10237
-0.772948 1.28425 1.09217
-0.779789 1.28271 1.08252
-0.789349 1.2808 1.07257
-0.795797 1.27933 1.06301
-0.802024 1.27788 1.05349
-0.808013 1.27648 1.04402
-0.813747 1.2751 1.0346
-0.816321 1.27417 1.02555
-0.821503 1.27288 1.01622
-0.823501 1.27202 1.00726
-0.828079 1.27082 0.998033
-0.829608 1.27003 0.98915
-0.833683 1.2689 0.980006
-0.83496 1.26815 0.971173
-0.835647 1.26748 0.962413
-0.838838 1.26647 0.953402
-0.83966 1.26579 0.944648
-0.839436 1.26525 0.936011
-0.83997 1.26461 0.927305
-0.839172 1.26415 0.91874
-0.840819 1.26335 0.90994
-0.83923 1.26301 0.901468
-0.839056 1.26246 0.892863
-0.836857 1.2622 0.884461
-0.836365 1.2617 0.8759
-0.836352 1.26114 0.8673
-0.833111 1.26102 0.85901
-0.829282 1.26098 0.850777
-0.828204 1.26057 0.842291
-0.824059 1.26057 0.83409
-0.822334 1.26025 0.82567
-0.81787 1.2603 0.8175
-0.81273 1.26044 0.809388
-0.809934 1.26026 0.80107
-0.803954 1.26052 0.793028
-0.797561 1.26083 0.785019
-0.791997 1.26103 0.776935
-0.78629 1.26125 0.768861
-0.778682 1.26173 0.76094
-0.770685 1.26226 0.753045
-0.760028 1.26316 0.745357
-0.75109 1.26382 0.73752
-0.739068 1.2649 0.729917
-0.726275 1.26608 0.722359
-0.712749 1.26737 0.714842
-0.692369 1.26958 0.707829
-0.66319 1.273 0.701447
-0.675946 1.31368 1.15748
-0.700837 1.30958 1.14543
-0.72042 1.30623 1.13407
-0.736931 1.30331 1.12314
-0.751702 1.30064 1.11245
-0.763325 1.29842 1.10218
-0.77339 1.29642 1.09212
-0.781571 1.29468 1.08231
-0.791219 1.29274 1.07235
-0.797768 1.29124 1.06278
-0.804103 1.28976 1.05325
-0.810207 1.28832 1.04377
-0.816064 1.28692 1.03434
-0.821657 1.28556 1.02495
-0.82409 1.28464 1.01593
-0.826235 1.28376 1.00696
-0.830955 1.28252 0.99772
-0.835436 1.28131 0.988521
-0.836798 1.28055 0.979673
-0.838155 1.27978 0.970835
-0.841869 1.27868 0.96176
-0.842371 1.27804 0.953034
-0.843279 1.27734 0.944275
-0.843234 1.27677 0.935623
-0.845655 1.27586 0.926729
-0.84608 1.27523 0.918048
-0.845075 1.27479 0.909517
-0.845199 1.2742 0.900881
-0.843597 1.27386 0.892421
-0.844406 1.27317 0.883733
-0.841196 1.27305 0.875438
-0.841377 1.27245 0.866824
-0.838333 1.27231 0.858521
-0.837399 1.27187 0.850024
-0.833723 1.27181 0.841784
-0.832407 1.27142 0.833331
-0.828149 1.27144 0.825147
-0.823786 1.27148 0.816973
-0.821609 1.27121 0.808605
-0.81624 1.27139 0.80052
-0.810455 1.27162 0.792468
-0.806999 1.27153 0.784214
-0.800382 1.27188 0.776228
-0.793358 1.27229 0.768271
-0.785935 1.27275 0.760342
-0.778827 1.27316 0.752381
-0.772621 1.27345 0.744341
-0.764031 1.27407 0.736488
-0.752511 1.27509 0.728857
-0.740194 1.27622 0.721275
-0.724448 1.27782 0.713942
-0.707294 1.27962 0.706694
-0.688973 1.28157 0.69951
-0.648206 1.28661 0.693965
-0.649254 1.32987 1.1608
-0.694728 1.3228 1.14618
-0.718839 1.31877 1.13427
-0.733868 1.31604 1.12351
-0.750248 1.31312 1.11263
-0.76346 1.31065 1.10216
-0.772091 1.30883 1.09227
-0.783298 1.30665 1.08211
-0.790134 1.30509 1.07248
-0.799676 1.30315 1.06256
-0.806116 1.30165 1.05302
-0.812332 1.30018 1.04353
-0.818309 1.29875 1.03408
-0.824028 1.29735 1.02469
-0.826599 1.2964 1.01566
-0.831763 1.29509 1.00635
-0.833754 1.29422 0.997415
-0.838306 1.293 0.988212
-0.839825 1.2922 0.979349
-0.841261 1.29141 0.970506
-0.845138 1.29029 0.961417
-0.845811 1.28961 0.952676
-0.846804 1.28889 0.943912
-0.849779 1.28789 0.934954
-0.849536 1.28735 0.926336
-0.850052 1.2867 0.917649
-0.849233 1.28624 0.909104
-0.850846 1.28543 0.900325
-0.848038 1.28525 0.891988
-0.849039 1.28453 0.883286
-0.846814 1.28427 0.874901
-0.846301 1.28377 0.866358
-0.846249 1.2832 0.857779
-0.842618 1.28313 0.849539
-0.83914 1.28305 0.841287
-0.838021 1.28263 0.83282
-0.833863 1.28264 0.824633
-0.832095 1.28231 0.816233
-0.827619 1.28237 0.808076
-0.824505 1.28223 0.799799
-0.819606 1.28234 0.791679
-0.813593 1.28261 0.783651
-0.807167 1.28293 0.775655
-0.80306 1.28294 0.767461
-0.797438 1.28315 0.759393
-0.788173 1.28387 0.751618
-0.78014 1.28442 0.743735
-0.771724 1.28502 0.735875
-0.760454 1.28601 0.728231
-0.748378 1.28712 0.720638
-0.738524 1.28792 0.712858
-0.72195 1.28965 0.70558
-0.707682 1.29106 0.698104
-0.678773 1.29451 0.691697
-0.682527 1.33691 1.14768
-0.715635 1.33156 1.13466
-0.730721 1.32879 1.12389
-0.747253 1.32582 1.11299
-0.762021 1.3231 1.10233
-0.773649 1.32084 1.09209
-0.783701 1.3188 1.08206
-0.791892 1.31703 1.07227
-0.798633 1.31547 1.06268
-0.808064 1.31353 1.0528
-0.814389 1.31204 1.0433
-0.820482 1.31057 1.03384
-0.826326 1.30915 1.02443
-0.829031 1.30817 1.01539
-0.834332 1.30682 1.00607
-0.83647 1.30593 0.99712
-0.841091 1.30468 0.987911
-0.842767 1.30386 0.979034
-0.846976 1.30267 0.9699
-0.848318 1.30189 0.961083
-0.852006 1.30078 0.952031
-0.852493 1.30013 0.943325
-0.853384 1.29942 0.934586
-0.853322 1.29884 0.925953
-0.853927 1.29817 0.917261
-0.856118 1.29728 0.90842
-0.855092 1.29684 0.899907
-0.855196 1.29625 0.89129
-0.85357 1.2959 0.882848
-0.853362 1.29535 0.874275
-0.851124 1.29508 0.865902
-0.851266 1.29448 0.857309
-0.848195 1.29434 0.849022
-0.847237 1.29389 0.840543
-0.843533 1.29384 0.832319
-0.842247 1.29344 0.823879
-0.838082 1.29345 0.8157
-0.833529 1.29352 0.807555
-0.831309 1.29325 0.799206
-0.825908 1.29344 0.791135
-0.820089 1.29368 0.783097
-0.817713 1.29344 0.774765
-0.811267 1.29377 0.766777
-0.804411 1.29416 0.758817
-0.798131 1.29447 0.750806
-0.792202 1.29472 0.742762
-0.782026 1.29558 0.735053
-0.773401 1.29621 0.727211
-0.761825 1.29726 0.71959
-0.752294 1.29803 0.711799
-0.739412 1.29926 0.704252
-0.722478 1.30105 0.696993
-0.698046 1.3039 0.690267
-0.667986 1.30754 0.683916
-0.660301 1.35251 1.15042
-0.703354 1.34566 1.13616
-0.727506 1.34156 1.12428
-0.744155 1.33854 1.11336
-0.760551 1.33557 1.10251
-0.770853 1.33347 1.09242
-0.782389 1.3312 1.08221
-0.793594 1.32898 1.07208
-0.800425 1.3274 1.06247
-0.807067 1.32584 1.05291
-0.81638 1.3239 1.04307
-0.822586 1.3224 1.0336
-0.825678 1.32136 1.0245
-0.831387 1.31994 1.01513
-0.836822 1.31857 1.0058
-0.839105 1.31764 0.996833
-0.843794 1.31638 0.98762
-0.848478 1.31511 0.978424
-0.849988 1.3143 0.969581
-0.851409 1.3135 0.960758
-0.855261 1.31236 0.951693
-0.85592 1.31168 0.942972
-0.856896 1.31095 0.934227
-0.859842 1.30993 0.925293
-0.859581 1.30938 0.916694
-0.860078 1.30873 0.908026
-0.859239 1.30826 0.899499
-0.859436 1.30764 0.890877
-0.858002 1.30726 0.88242
-0.858966 1.30654 0.87374
-0.855845 1.3064 0.865455
-0.856182 1.30577 0.856848
-0.853308 1.30559 0.848548
-0.852449 1.30513 0.840064
-0.851715 1.30465 0.831576
-0.847756 1.30463 0.823383
-0.843692 1.30463 0.815201
-0.842096 1.30427 0.806801
-0.837313 1.30437 0.798683
-0.83211 1.30453 0.7906
-0.830046 1.30424 0.782248
-0.824208 1.30449 0.774217
-0.819439 1.30459 0.766095
-0.814007 1.30478 0.758025
-0.806929 1.3052 0.750088
-0.799449 1.30568 0.742177
-0.789541 1.30651 0.734454
-0.783776 1.30675 0.726393
-0.774944 1.30742 0.718568
-0.763066 1.30852 0.710969
-0.753341 1.30931 0.703192
-0.734349 1.31142 0.696101
-0.716776 1.31333 0.688877
-0.698069 1.31539 0.681711
-0.65244 1.32126 0.676467
-0.692716 1.35956 1.13746
-0.721357 1.35477 1.12503
-0.74097 1.35129 1.11374
-0.757522 1.34826 1.10287
-0.772288 1.3455 1.09225
-0.78392 1.34319 1.08203
-0.791078 1.34154 1.07237
-0.802159 1.33932 1.06227
-0.808895 1.33774 1.0527
-0.815431 1.33618 1.04318
-0.82175 1.33466 1.0337
-0.827835 1.33317 1.02426
-0.833669 1.33172 1.01487
-0.839235 1.33031 1.00553
-0.84166 1.32936 0.996555
-0.846651 1.32804 0.987312
-0.851247 1.32677 0.978128
-0.852913 1.32593 0.969271
-0.854412 1.32512 0.960443
-0.858426 1.32394 0.951363
-0.859255 1.32323 0.942628
-0.860315 1.32248 0.933878
