ply
format ascii 1.0
comment Created by Open3D
element vertex 1791
property double x
property double y
property double z
end_header
-1.24098 2.49224 -0.135468
-1.0005 2.49256 -0.0253134
-1.0902 2.49378 -0.0818836
-1.02503 2.49418 -0.0595548
-0.999037 2.49655 -0.0603916
-1.04933 2.49761 -0.0970075
-1.02578 2.49926 -0.0977883
-1.02039 2.50101 -0.107837
-0.893184 2.50404 -0.0593522
-1.01139 2.50679 -0.133075
-1.04818 2.51103 -0.168877
-0.863827 2.51833 -0.0998182
-1.04459 2.57924 0.364508
-0.837647 2.57041 0.472303
-0.980087 2.56606 0.398298
-1.04131 2.5612 0.365756
-1.17929 2.557 0.293798
-1.10805 2.55233 0.32724
-1.07561 2.55042 0.336861
-1.1403 2.5465 0.301181
-1.10947 2.5434 0.311968
-1.05825 2.54095 0.331915
-1.19738 2.538 0.257518
-1.18404 2.53627 0.257387
-0.989509 2.53345 0.349646
-1.15029 2.53129 0.263183
-1.0846 2.52968 0.289076
-1.22656 2.52766 0.211819
-0.971419 2.52518 0.3339
-1.23608 2.5237 0.194443
-1.21252 2.52224 0.199065
-1.23955 2.52054 0.1788
-1.2911 2.51917 0.14574
-1.12872 2.51709 0.220861
-1.2115 2.51581 0.172063
-1.24922 2.51456 0.145748
-1.19835 2.51327 0.163802
-1.20068 2.51212 0.155041
-1.25547 2.511 0.120007
-1.22577 2.50992 0.127166
-1.26035 2.50886 0.102137
-0.985791 2.50796 0.231431
-1.16384 2.50646 0.135448
-1.1127 2.50575 0.152709
-1.31161 2.5049 0.0451981
-1.30931 2.50409 0.038237
-1.22603 2.50331 0.071709
-1.22074 2.50257 0.0661289
-1.17429 2.50227 0.0803754
-1.14009 2.50163 0.0890792
-1.24998 2.501 0.0257346
-1.1128 2.50047 0.0857588
-1.1291 2.49997 0.0689716
-1.09241 2.49952 0.0786213
-1.19222 2.4991 0.019965
-1.20035 2.49889 0.00678054
-1.17208 2.49857 0.0119781
-1.14595 2.49882 0.0151271
-1.14125 2.49857 0.00842295
-1.0737 2.49837 0.0330782
-1.19336 2.49857 -0.0366081
-1.26096 2.49847 -0.0797117
-1.04415 2.49888 0.0184747
-1.04944 2.49888 0.00634402
-1.04114 2.49949 -8.55683e-05
-1.06921 2.49959 -0.0237929
-1.13837 2.50039 -0.0693098
-0.998145 2.50059 -0.00905062
-1.16597 2.50158 -0.10425
-0.976501 2.5027 -0.0210266
-1.14571 2.50343 -0.116475
-1.10485 2.50478 -0.107996
-0.894085 2.50624 -0.0147788
-1.07972 2.50676 -0.118076
-0.92056 2.50838 -0.0509661
-1.05873 2.51122 -0.134793
-1.15369 2.5138 -0.196541
-0.881831 2.51704 -0.0761223
-0.877082 2.51998 -0.0887391
-1.04215 2.52584 -0.191686
-0.868778 2.53746 -0.136103
-0.949845 2.58807 0.406289
-1.17681 2.58157 0.293384
-1.03665 2.57572 0.363056
-1.26234 2.57142 0.247372
-1.12562 2.56662 0.313715
-1.16523 2.5633 0.289568
-1.09302 2.55927 0.322481
-1.18229 2.55738 0.271224
-1.17693 2.55355 0.270453
-1.17928 2.55051 0.264566
-1.08796 2.54874 0.303478
-1.06529 2.54525 0.310869
-1.17819 2.54356 0.247564
-1.17351 2.54189 0.243022
-1.19231 2.53875 0.229181
-1.24983 2.53718 0.193406
-1.12992 2.53564 0.246318
-1.08584 2.53378 0.261862
-1.17082 2.53232 0.212214
-1.3574 2.53005 0.113121
-1.02333 2.52868 0.272879
-1.21627 2.52715 0.16941
-1.24509 2.52587 0.14759
-1.35906 2.52462 0.0831547
-1.0237 2.5234 0.24334
-1.31491 2.52217 0.0902648
-1.16768 2.52105 0.156243
-1.17255 2.51941 0.14705
-1.07898 2.51844 0.185961
-1.08785 2.51745 0.173688
-1.004 2.5165 0.207719
-1.10638 2.51559 0.14858
-1.09742 2.51494 0.144651
-1.30877 2.51413 0.0308614
-1.18174 2.51335 0.086211
-1.18027 2.51261 0.0787231
-0.990925 2.51177 0.165345
-1.18325 2.51114 0.0607863
-1.13642 2.51054 0.0757449
-1.18457 2.51051 0.042233
-1.13827 2.50999 0.0568113
-1.19756 2.5095 0.0185314
-1.12524 2.50915 0.045809
-1.05938 2.50877 0.0699256
-1.17744 2.50863 0.00164652
-0.923744 2.50836 0.119497
-1.27978 2.50843 -0.068135
-1.13247 2.50827 -0.00366386
-1.26235 2.50813 -0.0778535
-1.13412 2.50848 -0.0238384
-1.1244 2.50846 -0.0284098
-1.10526 2.50897 -0.0292376
-1.15794 2.50908 -0.0652641
-1.05776 2.50969 -0.0257528
-1.01629 2.51 -0.0150634
-1.28983 2.51094 -0.163017
-1.1875 2.51121 -0.121826
-1.09657 2.51234 -0.0878851
-1.01199 2.5127 -0.0557499
-1.19732 2.514 -0.160274
-0.999281 2.51541 -0.0733278
-1.07414 2.51694 -0.123041
-1.13697 2.51917 -0.168056
-1.18805 2.51981 -0.204284
-1.15401 2.52282 -0.202305
-1.05975 2.52555 -0.169726
-0.965627 2.52978 -0.140009
-1.00019 2.53337 -0.173477
-1.09176 2.5434 -0.247364
-1.08479 2.59928 0.329411
-0.973422 2.59184 0.387162
-0.892529 2.58451 0.429542
-1.06158 2.58106 0.340813
-1.18126 2.57682 0.278049
-1.252 2.57348 0.238354
-1.02691 2.56944 0.347727
-0.922914 2.56624 0.395209
-1.03532 2.56439 0.332356
-1.10097 2.56065 0.295948
-1.10634 2.55886 0.286523
-1.07925 2.55594 0.295208
-1.12328 2.55367 0.267275
-1.19787 2.55092 0.224868
-1.15522 2.5493 0.239252
-1.23057 2.54727 0.19532
-1.21858 2.54573 0.194274
-1.29998 2.54364 0.147435
-1.41755 2.54183 0.0820874
-1.3383 2.54012 0.114984
-1.14784 2.53874 0.202938
-1.12808 2.5374 0.205505
-1.0918 2.53592 0.216561
-1.2339 2.53467 0.138068
-1.28756 2.5329 0.104676
-1.22322 2.53166 0.129383
-1.08785 2.53054 0.189432
-1.20201 2.52946 0.124665
-1.06195 2.5284 0.186956
-1.09654 2.52749 0.161688
-1.25746 2.52654 0.0733388
-1.09566 2.52563 0.146293
-1.07673 2.52474 0.147756
-1.14271 2.5239 0.106714
-1.16231 2.52285 0.0892107
-1.13908 2.52248 0.0919642
-1.20258 2.52181 0.0518745
-1.26899 2.52118 0.0102731
-1.1483 2.52058 0.0621628
-1.12852 2.52002 0.0635378
-1.09159 2.52003 0.0725081
-1.14179 2.51909 0.0395631
-1.21954 2.51868 -0.00806951
-1.07376 2.51882 0.0550882
-1.0151 2.51848 0.0755387
-1.21463 2.51817 -0.0331639
-1.14936 2.51818 -0.0100248
-0.993911 2.51798 0.0585722
-1.12451 2.5182 -0.0165932
-1.43352 2.51811 -0.180412
-1.19765 2.51854 -0.0727115
-1.09317 2.51855 -0.0299645
-1.19549 2.51859 -0.0906828
-1.21878 2.51929 -0.11305
-1.10122 2.51943 -0.0640145
-1.00223 2.52032 -0.0255923
-1.13391 2.52056 -0.101356
-1.11966 2.52164 -0.105659
-1.11518 2.52283 -0.11507
-1.09167 2.52415 -0.115184
-1.06902 2.52509 -0.115066
-1.01159 2.52662 -0.0986456
-0.964466 2.52719 -0.0856291
-1.04524 2.53001 -0.140668
-1.04028 2.53256 -0.152379
-1.004 2.53453 -0.147385
-0.971945 2.53872 -0.14859
-0.899362 2.5432 -0.130094
-0.801562 2.55081 -0.104802
-1.00995 2.60808 0.361255
-0.992614 2.60061 0.372006
-1.09637 2.59562 0.318338
-1.17544 2.59127 0.276019
-0.957497 2.58785 0.38076
-1.04047 2.58229 0.338481
-1.00821 2.58036 0.348041
-1.05011 2.57639 0.323815
-1.19647 2.57326 0.246044
-1.02358 2.57143 0.325806
-1.10123 2.56779 0.283246
-0.982303 2.56605 0.335926
-1.09129 2.5632 0.276458
-1.03784 2.56102 0.297147
-1.18154 2.55939 0.218364
-1.19505 2.55779 0.204644
-1.26612 2.55524 0.163725
-1.20488 2.55336 0.187875
-1.08073 2.55189 0.242802
-1.35191 2.55046 0.100025
-1.27986 2.5488 0.129243
-1.02096 2.54745 0.251385
-1.12394 2.54541 0.19375
-1.20536 2.54416 0.145596
-1.08034 2.54286 0.200746
-1.24151 2.54171 0.112573
-1.08631 2.54058 0.182539
-1.0824 2.5395 0.176809
-1.27776 2.53844 0.0713971
-1.24433 2.53742 0.0803274
-1.20752 2.53658 0.0906564
-1.34625 2.53566 0.0133506
-1.14036 2.53447 0.108814
-1.23131 2.53366 0.0552276
-1.06097 2.53289 0.132232
-1.27324 2.53215 0.0178733
-1.30096 2.53145 -0.00426586
-1.24511 2.53122 0.0145709
-1.09432 2.53062 0.0815064
-0.999083 2.53006 0.120612
-1.19699 2.52954 0.013084
-1.00597 2.52906 0.0999572
-1.08605 2.52872 0.0510266
-1.11019 2.52834 0.0301384
-1.23873 2.52822 -0.0433924
-1.0075 2.52795 0.0632226
-1.07474 2.52772 0.020532
-1.13133 2.52804 -0.0177963
-1.10332 2.52776 -0.0127605
-1.05509 2.52818 0.00113942
-1.18235 2.52811 -0.071835
-1.09685 2.52863 -0.0394856
-1.00388 2.52868 -0.00256079
-1.20177 2.52938 -0.112232
-1.09216 2.52953 -0.067176
-1.13142 2.53043 -0.0978889
-1.08849 2.53096 -0.0868568
-1.11491 2.53176 -0.110999
-1.09107 2.53248 -0.109858
-1.0736 2.5338 -0.113004
-0.999418 2.53427 -0.0862484
-1.0304 2.53576 -0.11395
-1.20097 2.53797 -0.212744
-1.05822 2.53972 -0.154078
-1.18626 2.54158 -0.230995
-1.03318 2.54429 -0.168942
-1.01878 2.54766 -0.177451
-0.999736 2.55074 -0.183119
-0.810731 2.5568 -0.109329
-1.11923 2.62081 0.294803
-1.08361 2.61178 0.317145
-1.0863 2.60585 0.315482
-1.23002 2.60235 0.239475
-1.07909 2.59663 0.314369
-1.15004 2.59326 0.274598
-1.18561 2.58918 0.253682
-1.16151 2.58728 0.259131
-1.11711 2.58339 0.277941
-1.07032 2.58032 0.296655
-0.976005 2.57853 0.337088
-1.17182 2.57616 0.233413
-1.0832 2.5733 0.27276
-1.12684 2.57162 0.244078
-1.25527 2.56948 0.173772
-1.20704 2.56686 0.192585
-1.31444 2.56531 0.131853
-1.25544 2.56379 0.154288
-1.18442 2.56195 0.183259
-1.18079 2.56052 0.17789
-1.32621 2.55829 0.0993146
-1.24669 2.55694 0.131768
-1.26373 2.55546 0.116179
-1.09194 2.5542 0.194633
-1.24821 2.55298 0.109013
-1.26033 2.55174 0.0955032
-1.20731 2.55062 0.114377
-1.19416 2.54953 0.113272
-1.23448 2.54847 0.0853818
-1.01432 2.54745 0.187681
-1.30306 2.54606 0.0361623
-1.22316 2.54515 0.0681657
-1.19191 2.54427 0.0757956
-1.50198 2.54369 -0.0877539
-0.953575 2.54292 0.178284
-0.968756 2.54218 0.162471
-1.21184 2.54148 0.0326472
-1.22028 2.54081 0.0200908
-1.22119 2.54012 0.0113433
-0.993125 2.53957 0.116861
-1.13611 2.53958 0.0358794
-1.18193 2.53909 0.0043318
-1.2639 2.53865 -0.0453486
-1.12802 2.53824 0.0138323
-1.07523 2.53805 0.0310879
-0.998563 2.53775 0.0604755
-1.1198 2.53778 -0.00965348
-1.19095 2.53758 -0.0543615
-1.09461 2.53782 -0.0160754
-1.04079 2.53774 0.00152091
-0.923932 2.53769 0.0505676
-1.06646 2.5382 -0.0310697
-1.13279 2.53825 -0.0738046
-1.09916 2.53897 -0.0677271
-1.17631 2.53912 -0.116051
-0.909683 2.54003 0.00616258
-0.956463 2.54029 -0.0271604
-0.985598 2.54139 -0.0531762
-0.981892 2.54174 -0.0614337
-1.09345 2.54302 -0.129
-0.998958 2.54441 -0.0937637
-0.896333 2.54544 -0.0538022
-0.951847 2.54706 -0.0939889
-1.06263 2.54878 -0.162008
-1.33205 2.55131 -0.310837
-1.04862 2.55327 -0.182214
-1.00421 2.55744 -0.177165
-1.00148 2.56192 -0.193534
-0.877258 2.56809 -0.152317
-1.18656 2.62958 0.255568
-1.07044 2.62053 0.318186
-0.995609 2.61697 0.351509
-1.0916 2.61111 0.303121
-1.22176 2.60765 0.233843
-1.07222 2.60343 0.305673
-1.34661 2.60011 0.164126
-1.13863 2.5961 0.264886
-1.21685 2.59423 0.219144
-0.980587 2.59111 0.332669
-1.13511 2.58864 0.249768
-1.04985 2.58569 0.287571
-1.08116 2.58339 0.26604
-1.17779 2.58171 0.210863
-1.1274 2.57899 0.230908
-1.16566 2.57738 0.204826
-1.152 2.57538 0.205361
-1.20346 2.57385 0.172569
-1.12501 2.57201 0.205266
-1.12618 2.56972 0.198903
-0.983741 2.56834 0.262861
-1.22041 2.56699 0.137223
-1.30892 2.56567 0.0856232
-1.19007 2.56424 0.137894
-1.05624 2.56302 0.197325
-1.14264 2.56183 0.146599
-1.11727 2.56065 0.151736
-0.997873 2.55901 0.204681
-1.19061 2.55795 0.100583
-1.1421 2.55693 0.117054
-1.11928 2.55609 0.120397
-1.14463 2.55517 0.0997805
-1.14549 2.55429 0.0913557
-1.06663 2.55345 0.122735
-1.04161 2.55264 0.127136
-1.13548 2.5522 0.0714621
-1.18876 2.55097 0.0374595
-1.14653 2.55074 0.0494836
-1.0251 2.55015 0.101742
-1.11883 2.5496 0.0463597
-1.15338 2.54908 0.0205086
-1.14498 2.5486 0.0160696
-1.19911 2.54827 -0.0198983
-1.17384 2.54791 -0.0160833
-1.25004 2.54809 -0.0639727
-1.1205 2.54779 -0.00814972
-1.0505 2.54731 0.0182365
-1.09635 2.54764 -0.0147211
-1.07631 2.54748 -0.0138982
-1.05426 2.54737 -0.0121346
-1.12621 2.54775 -0.0582479
-1.01773 2.54774 -0.01345
-1.24479 2.54777 -0.13649
-1.08349 2.54842 -0.0664729
-1.11657 2.54921 -0.0938796
-1.20997 2.54941 -0.1504
-1.19509 2.55039 -0.154187
-1.03062 2.55101 -0.0825329
-1.07694 2.55224 -0.11738
-0.978291 2.55266 -0.0782859
-0.868151 2.55407 -0.0352375
-1.17595 2.55458 -0.19954
-1.09424 2.55675 -0.172096
-0.850743 2.55848 -0.0629928
-0.86832 2.56032 -0.0846182
-1.11234 2.56302 -0.221046
-0.99856 2.56508 -0.177436
-0.87613 2.56944 -0.133723
-0.952084 2.57551 -0.192358
-0.888682 2.5875 -0.192216
-0.953653 2.64234 0.360164
-0.996081 2.63321 0.343597
-1.08629 2.62571 0.300628
-1.06645 2.62219 0.306428
-1.27887 2.61784 0.197436
-1.08146 2.6136 0.293227
-1.0694 2.61026 0.294917
-1.16232 2.60699 0.244043
-1.24714 2.60307 0.198277
-1.12264 2.60123 0.253862
-1.17585 2.59818 0.222555
-1.20999 2.59579 0.199748
-1.25297 2.59405 0.171466
-1.09217 2.59122 0.246859
-1.16784 2.58906 0.202963
-1.22062 2.58745 0.169624
-1.11467 2.58544 0.216312
-1.1192 2.58297 0.208529
-1.08725 2.5815 0.217369
-1.08412 2.58006 0.211764
-1.2547 2.57838 0.119696
-1.16463 2.57703 0.157432
-1.28235 2.57571 0.091227
-1.09128 2.57442 0.179377
-1.22025 2.5725 0.108576
-1.21006 2.57125 0.106232
-1.09461 2.57013 0.156329
-1.17411 2.56903 0.108903
-1.20656 2.56798 0.0849494
-1.1981 2.56696 0.0813997
-1.12465 2.56597 0.110292
-1.03037 2.56519 0.149259
-1.19733 2.56431 0.0577831
-1.26656 2.56347 0.0151195
-1.20188 2.56266 0.0393555
-1.27939 2.56169 -0.00722743
-1.22817 2.56099 0.0101069
-1.1788 2.56033 0.0264492
-1.21186 2.56018 0.000715719
-1.26122 2.55962 -0.0324851
-1.23681 2.5591 -0.0288366
-1.16865 2.55863 -0.00341614
-1.18273 2.55819 -0.0191556
-1.01954 2.55779 0.0536786
-0.988752 2.55761 0.059919
-1.08665 2.55732 0.00202255
-1.13637 2.55736 -0.0323641
-0.968723 2.55717 0.0423234
-1.06581 2.55702 -0.0154187
-0.946643 2.55735 0.0341409
-1.02607 2.55731 -0.0149588
-1.16777 2.55781 -0.0961496
-1.18433 2.5579 -0.114058
-1.11135 2.558 -0.0872046
-1.05396 2.5588 -0.0693904
-1.17439 2.55901 -0.139429
-1.15778 2.56 -0.142366
-1.14007 2.5603 -0.143514
-1.17372 2.56149 -0.171925
-0.978222 2.56188 -0.0843596
-1.10434 2.56373 -0.160218
-1.07905 2.56527 -0.159825
-1.02427 2.56584 -0.14295
-1.01256 2.56754 -0.149659
-0.894113 2.57004 -0.104466
-1.04819 2.57199 -0.194543
-1.01051 2.57614 -0.192776
-1.14923 2.57834 -0.275667
-0.926879 2.58295 -0.182452
-0.872881 2.5933 -0.183961
-0.954103 2.6511 0.354378
-1.04653 2.64194 0.312843
-1.09943 2.63742 0.28381
-0.946236 2.63239 0.358661
-1.15214 2.62658 0.255228
-1.1056 2.62318 0.274238
-1.12072 2.62041 0.261437
-1.13047 2.61712 0.252161
-1.14464 2.61391 0.240589
-1.17318 2.61134 0.220814
-1.29847 2.60828 0.153477
-1.02199 2.60588 0.285992
-1.08393 2.60299 0.250086
-1.16379 2.6013 0.203312
-1.24046 2.59964 0.158105
-1.05038 2.59752 0.247024
-1.11943 2.59494 0.207143
-1.12401 2.5934 0.197802
-1.21423 2.59155 0.146181
-1.21083 2.5901 0.140711
-1.11429 2.58869 0.181772
-1.30765 2.58707 0.0782376
-1.15857 2.58519 0.146355
-1.02638 2.58375 0.205316
-1.14521 2.58252 0.138424
-1.13126 2.58133 0.13787
-1.00078 2.58015 0.195579
-1.2349 2.57905 0.0708556
-1.20177 2.578 0.0796862
-1.23438 2.57698 0.0556008
-1.07196 2.57599 0.12898
-1.25361 2.57504 0.0302725
-1.2288 2.57379 0.0353141
-1.34363 2.57295 -0.0301528
-1.33472 2.57214 -0.0338035
-1.11547 2.57171 0.0670838
-1.04186 2.57101 0.0956095
-1.14707 2.57035 0.0346674
-1.19439 2.56973 0.00261026
-1.08235 2.56914 0.05017
-1.27029 2.56861 -0.0523414
-1.16646 2.56813 -0.00906796
-1.17032 2.56822 -0.0206024
-1.18808 2.56782 -0.0382471
-1.34459 2.56745 -0.125325
-1.02231 2.56713 0.0269276
-1.20313 2.5671 -0.0728924
-1.17546 2.56688 -0.0681328
-1.05258 2.56707 -0.0164759
-1.23385 2.56697 -0.116376
-1.10148 2.56689 -0.0595211
-1.02755 2.56737 -0.032833
-1.12444 2.5674 -0.0907949
-1.03915 2.56808 -0.0587999
-1.21658 2.56822 -0.157218
-0.97912 2.56839 -0.0482565
-1.21695 2.56933 -0.178307
-1.15325 2.5704 -0.157823
-1.3073 2.57111 -0.245578
-1.03324 2.57243 -0.120376
-1.0061 2.57289 -0.117108
-0.989765 2.57439 -0.121101
-0.917544 2.57599 -0.0973606
-1.08843 2.57723 -0.194527
-1.01106 2.57905 -0.168615
-1.14401 2.58172 -0.249428
-1.08708 2.58377 -0.234196
-0.969274 2.58812 -0.192722
-1.0391 2.59277 -0.245632
-1.02437 2.59914 -0.259449
-1.01815 2.66389 0.310453
-1.07263 2.65466 0.287968
-1.02015 2.64706 0.316459
-1.05583 2.64111 0.298318
-1.07626 2.63762 0.283951
-1.14513 2.63334 0.246644
-1.11052 2.62998 0.259636
-1.10151 2.62726 0.25884
-1.10997 2.62403 0.250133
-1.11768 2.62088 0.241701
-1.04091 2.61838 0.274492
-1.18975 2.61659 0.193348
-1.20763 2.61365 0.179553
-1.19189 2.61138 0.181522
-1.18154 2.60971 0.179831
-1.18419 2.60701 0.173313
-1.30048 2.60499 0.108904
-1.01249 2.60345 0.245855
-1.22818 2.60195 0.130925
-1.19728 2.60014 0.139789
-1.15735 2.59817 0.15347
-1.32441 2.59654 0.0630922
-1.03309 2.59522 0.201413
-1.26081 2.59377 0.0804257
-1.25516 2.59255 0.0757748
-1.20281 2.59135 0.0944258
-1.21257 2.59019 0.0819745
-1.27551 2.58907 0.0428851
-1.12722 2.58798 0.109363
-1.21402 2.58699 0.0581262
-1.10963 2.58546 0.103403
-1.23375 2.58468 0.0331758
-1.2015 2.5838 0.0413073
-1.10762 2.58296 0.0802017
-1.36186 2.58215 -0.0550257
-1.11989 2.58138 0.0577928
-1.26521 2.58102 -0.0237134
-1.24361 2.58036 -0.0212552
-1.33179 2.57974 -0.0737441
-1.18864 2.57914 -0.0105912
-1.12488 2.57861 0.0127343
-1.12518 2.57815 0.00391447
-1.18224 2.57772 -0.0333153
-1.2141 2.57732 -0.0580148
-1.04436 2.57716 0.0176952
-1.07013 2.57687 -0.00414333
-1.28298 2.57662 -0.119589
-1.08291 2.57692 -0.0295221
-1.10583 2.57661 -0.0498849
-1.15306 2.57701 -0.0836531
-0.98816 2.57692 -0.0104827
-1.15665 2.57692 -0.104187
-1.09128 2.57746 -0.0819052
-1.20084 2.57765 -0.146461
-1.08145 2.57829 -0.0973556
-1.21047 2.57868 -0.172012
-1.25799 2.57893 -0.205665
-1.22219 2.58001 -0.199149
-1.12001 2.58036 -0.158135
-1.12392 2.58163 -0.171817
-0.91532 2.58302 -0.0794711
-1.23936 2.58405 -0.252805
-1.20584 2.58567 -0.248429
-0.967683 2.58628 -0.139938
-0.940066 2.58922 -0.14092
-1.13396 2.59069 -0.250003
-0.924082 2.59398 -0.160535
-1.02425 2.59701 -0.225625
-1.07284 2.60162 -0.267818
-0.978868 2.60648 -0.23924
-1.04311 2.67264 0.292418
-1.1459 2.66337 0.245814
-1.11744 2.65576 0.262291
-1.03108 2.6522 0.301399
-1.09188 2.64779 0.268289
-1.04604 2.64433 0.287012
-1.06183 2.64012 0.276163
-1.05542 2.63681 0.274993
-1.04592 2.63415 0.274365
-1.22421 2.63098 0.180657
-1.37137 2.62915 0.100413
-1.11041 2.62548 0.227186
-1.06036 2.62373 0.245439
-1.13299 2.62201 0.202325
-1.1765 2.61869 0.176365
-1.05584 2.61707 0.229764
-1.36059 2.61548 0.0704221
-1.06183 2.6135 0.213475
-1.0357 2.61199 0.219459
-1.11713 2.60962 0.173083
-1.08158 2.6082 0.183661
-1.14595 2.60657 0.144634
-1.11396 2.60524 0.153298
-0.978851 2.60395 0.213475
-1.05795 2.60256 0.166708
-1.22102 2.60137 0.0776531
-1.00298 2.60021 0.179105
-1.12612 2.59853 0.110825
-1.10282 2.59748 0.114752
-1.20605 2.59646 0.0553604
-1.00846 2.59547 0.146328
-1.1929 2.59452 0.0462279
-1.27796 2.59361 -0.00423759
-1.12771 2.59297 0.0624981
-1.21803 2.59216 0.00923462
-1.16732 2.59139 0.0264263
-1.10504 2.59066 0.049348
-1.1996 2.58984 -0.00599953
-1.17133 2.58922 -0.000265158
-1.17195 2.58864 -0.00903602
-1.07982 2.58862 0.0276144
-1.22391 2.58812 -0.0530125
-1.16399 2.58765 -0.0316959
-1.27963 2.58734 -0.0984368
-1.12911 2.58699 -0.0320048
-1.13308 2.58667 -0.0428822
-1.11726 2.58665 -0.0443966
-1.19442 2.58645 -0.0920581
-1.24123 2.58627 -0.12461
-1.0544 2.58655 -0.0411172
-1.04635 2.58649 -0.0464247
-0.981441 2.58698 -0.02427
-1.10688 2.58702 -0.0965169
-1.14787 2.5871 -0.126597
-1.11308 2.58787 -0.119996
-1.15507 2.58805 -0.150766
-1.24141 2.58902 -0.205092
-1.21748 2.5893 -0.203088
-1.19807 2.59046 -0.204897
-1.14737 2.59126 -0.190427
-0.906131 2.59267 -0.0817746
-0.978013 2.59317 -0.128089
-0.954137 2.59475 -0.128446
-1.15693 2.59644 -0.242346
-1.0744 2.59776 -0.212946
-1.08785 2.59966 -0.232576
-1.09968 2.60245 -0.253022
-0.939563 2.6059 -0.188713
-1.00333 2.60907 -0.235866
-0.854672 2.61385 -0.179748
-1.09245 2.68546 0.255807
-0.948158 2.67458 0.335232
-1.13789 2.66843 0.240307
-1.18752 2.66238 0.215305
-1.16021 2.65885 0.224862
-1.10611 2.65449 0.249138
-1.07692 2.65107 0.25949
-1.10636 2.64693 0.241717
-1.07559 2.64368 0.25265
-0.986965 2.64108 0.2915
-1.05077 2.63799 0.254937
-1.15272 2.6362 0.197255
-1.09435 2.63381 0.220694
-1.25454 2.63095 0.135633
-1.22583 2.62927 0.14313
-1.13898 2.62712 0.180469
-1.22327 2.62553 0.131364
-1.1461 2.62298 0.16454
-0.975486 2.62147 0.242774
-1.20846 2.61965 0.119719
-1.15169 2.61823 0.140907
-1.1149 2.61684 0.152066
-1.17051 2.61526 0.117339
-1.21411 2.61397 0.0881647
-1.16825 2.61271 0.103675
-1.09472 2.61083 0.134041
-1.17133 2.60967 0.0881685
-1.14047 2.60854 0.095982
-1.36433 2.60745 -0.023611
-1.20449 2.60646 0.0484788
-1.17918 2.60548 0.0533074
-1.06041 2.60453 0.104815
-1.20247 2.60361 0.0258496
-1.0867 2.60274 0.075744
-1.07659 2.60217 0.0723027
-1.13257 2.6014 0.0361509
-1.21551 2.60051 -0.013269
-1.3356 2.59985 -0.0816541
-1.25961 2.59923 -0.0520591
-1.20283 2.59865 -0.0321281
-1.13888 2.59811 -0.00867752
-1.16356 2.59761 -0.0295972
-1.16347 2.59723 -0.0383573
-1.26398 2.59684 -0.0973801
-1.06916 2.59701 -0.00969184
-0.978427 2.59669 0.0267801
-1.04619 2.59641 -0.0160574
-1.1355 2.59617 -0.0697382
-1.21928 2.59631 -0.121307
-1.22691 2.59618 -0.134331
-1.24644 2.59609 -0.153373
-1.28541 2.59651 -0.183044
-1.18176 2.59653 -0.140686
-1.08491 2.59716 -0.102817
-1.18928 2.59729 -0.164659
-1.23951 2.59813 -0.200699
-1.14962 2.59861 -0.166054
-1.09819 2.59891 -0.150306
-1.05923 2.60008 -0.142349
-1.19156 2.60047 -0.218665
-1.00354 2.60182 -0.136525
-1.10642 2.6033 -0.200057
-1.25066 2.60442 -0.283638
-1.04364 2.60612 -0.192645
-1.06939 2.60793 -0.218245
-1.11791 2.60937 -0.254584
-0.890891 2.61138 -0.154182
-1.11366 2.61566 -0.282797
-0.967953 2.61886 -0.225241
-0.909189 2.62514 -0.216767
-0.929404 2.63594 -0.25606
-1.00867 2.69418 0.292149
-1.00575 2.68482 0.298502
-0.984139 2.67711 0.311676
-1.07744 2.6735 0.261003
-1.29415 2.66754 0.152352
-1.07208 2.66463 0.258317
-1.17869 2.66121 0.20078
-1.06622 2.65785 0.252715
-1.26516 2.65379 0.15007
-1.24057 2.65191 0.155763
-1.12876 2.64808 0.208175
-1.29498 2.64628 0.11836
-1.193 2.64331 0.164526
-1.14151 2.64101 0.18441
-1.23464 2.63933 0.130991
-1.16609 2.63767 0.158381
-1.16071 2.63501 0.15583
-1.00735 2.63302 0.226202
-1.15939 2.6315 0.143113
-1.2788 2.63002 0.0763007
-1.27258 2.62826 0.0727688
-0.999132 2.62686 0.202258
-1.05291 2.6255 0.168092
-1.08177 2.62343 0.147561
-1.14101 2.62204 0.110737
-1.05028 2.62084 0.14859
-1.08881 2.61968 0.121761
-1.38645 2.61855 -0.0346754
-1.17401 2.61746 0.0638815
-1.13644 2.6164 0.0749483
-1.17416 2.61538 0.0483189
-0.98925 2.61453 0.132733
-1.12044 2.61362 0.0592069
-1.01301 2.61274 0.104929
-1.07762 2.61163 0.0650319
-1.27253 2.61087 -0.0405898
-1.16379 2.61014 0.00555956
-1.2069 2.60945 -0.0242737
-1.18806 2.60924 -0.0239413
-1.25694 2.60866 -0.0668432
-1.048 2.60812 0.0291052
-1.15094 2.60762 -0.0309454
-1.26997 2.60715 -0.0991074
-1.25579 2.60673 -0.100729
-1.10612 2.60651 -0.0349466
-1.16068 2.6062 -0.0711252
-1.1151 2.6062 -0.0577696
-1.12824 2.606 -0.0734291
-1.00476 2.60583 -0.020843
-1.23364 2.60612 -0.145222
-1.16185 2.60607 -0.11867
-1.03274 2.60606 -0.0635209
-1.09487 2.60663 -0.105031
-1.07556 2.60673 -0.104972
-1.2123 2.60685 -0.183005
-1.13588 2.60771 -0.155731
-1.20289 2.60794 -0.199087
-1.12353 2.60899 -0.170702
-1.20336 2.60932 -0.220652
-1.0582 2.61057 -0.159727
-1.20739 2.61146 -0.245355
-0.997478 2.61295 -0.152504
-0.937379 2.6135 -0.132898
-1.08655 2.61516 -0.219917
-1.03259 2.61762 -0.206811
-0.995153 2.61834 -0.198861
-1.05216 2.62239 -0.244119
-0.925695 2.62323 -0.191892
-0.997342 2.62771 -0.245306
-1.0328 2.63248 -0.281195
-0.971234 2.63751 -0.269059
-1.13223 2.70703 0.218386
-1.13686 2.69604 0.223459
-1.0744 2.68981 0.25472
-1.09834 2.68368 0.24267
-1.05494 2.67918 0.261777
-1.10887 2.67421 0.232984
-1.10074 2.67134 0.231931
-1.17268 2.66797 0.191668
-1.06606 2.66466 0.240602
-1.21448 2.6607 0.163087
-1.15433 2.65885 0.186518
-1.0427 2.65635 0.236736
-0.84887 2.65338 0.328839
-1.11889 2.65164 0.187044
-1.22628 2.64938 0.127434
-1.01821 2.64665 0.226308
-1.09891 2.64505 0.17901
-1.22422 2.64348 0.109364
-1.11418 2.64153 0.158008
-1.10199 2.64005 0.156999
-1.36851 2.63859 0.016597
-1.11599 2.63633 0.137045
-1.15298 2.63474 0.111641
-1.13557 2.63344 0.112976
-1.05661 2.63218 0.145043
-1.23591 2.63084 0.0480998
-1.20348 2.62968 0.0567501
-1.19077 2.62855 0.0554924
-1.17822 2.62746 0.0541056
-1.11322 2.6264 0.0788937
-1.05392 2.62538 0.100774
-1.00071 2.6244 0.119557
-0.907641 2.62308 0.158842
-1.11299 2.6222 0.0481799
-1.08889 2.62163 0.0517369
-1.28965 2.62087 -0.0568068
-1.11532 2.62014 0.0221366
-1.144 2.61945 -0.000484766
-1.21649 2.6188 -0.0450672
-1.30965 2.61866 -0.100854
-1.08408 2.6176 0.00429632
-1.11387 2.6171 -0.0191864
-1.08398 2.61716 -0.0137733
-1.08308 2.61674 -0.0220371
-1.2534 2.61635 -0.115969
-1.07636 2.61601 -0.0362834
-1.1639 2.61594 -0.0893708
-1.12169 2.61571 -0.0772936
-1.02811 2.61586 -0.0401951
-1.17613 2.61574 -0.123424
-1.01562 2.61566 -0.0524527
-1.00354 2.6161 -0.0566133
-1.12672 2.61613 -0.127677
-1.10362 2.61619 -0.12567
-0.997088 2.61691 -0.0831046
-1.03261 2.61708 -0.110594
-1.22313 2.61801 -0.216925
-1.19515 2.61828 -0.212853
-1.09641 2.61893 -0.174062
-1.0758 2.62019 -0.175425
-1.07732 2.62062 -0.186404
-0.970772 2.62207 -0.14514
-1.01269 2.62363 -0.178331
-1.14533 2.62483 -0.256259
-1.06538 2.62662 -0.228939
-0.973188 2.62851 -0.195694
-0.955345 2.63004 -0.198993
-0.956282 2.6343 -0.216603
-0.942834 2.63519 -0.220983
-0.787434 2.63986 -0.161215
-0.978931 2.6448 -0.275426
-1.09136 2.71574 0.23327
-1.09722 2.70628 0.235338
-1.09236 2.69847 0.24025
-1.12583 2.69386 0.221044
-0.952515 2.68876 0.306023
-1.19789 2.68435 0.180633
-1.06527 2.6809 0.24274
-1.05318 2.67808 0.243606
-1.02007 2.67477 0.255797
-1.21004 2.67153 0.156352
-1.07661 2.66893 0.217602
-1.31449 2.66586 0.0939811
-1.07872 2.66344 0.20616
-1.21067 2.6617 0.133408
-1.12655 2.65999 0.168662
-1.22368 2.6572 0.115024
-1.11618 2.65509 0.162648
-1.20498 2.65351 0.111269
-1.03977 2.65156 0.187508
-1.08662 2.65007 0.156984
-1.11298 2.64774 0.138081
-1.14415 2.64634 0.115268
-1.04542 2.64498 0.15736
-1.23441 2.64345 0.0558718
-1.14668 2.64218 0.0923303
-1.00907 2.64095 0.153675
-1.1921 2.63975 0.0546518
-1.08463 2.63855 0.100897
-1.19254 2.63746 0.0392795
-1.26916 2.6364 -0.00674661
-1.31704 2.63493 -0.0377123
-1.04003 2.63398 0.0929199
-1.21318 2.63307 -0.00159227
-1.31329 2.6322 -0.0596341
-1.20728 2.63136 -0.0146766
-1.20266 2.63086 -0.020972
-1.01704 2.63013 0.0636181
-1.23356 2.62945 -0.0529239
-1.16341 2.6288 -0.0261884
-1.15824 2.62814 -0.0319219
-1.20266 2.6276 -0.0626586
-1.1722 2.6271 -0.0560152
-1.19069 2.62665 -0.0739114
-1.02415 2.62623 0.000648421
-1.31622 2.62636 -0.155044
-1.1256 2.62571 -0.0680462
-0.946344 2.62545 0.0126126
-1.20733 2.62573 -0.127786
-1.16544 2.62538 -0.115671
-0.99047 2.62527 -0.0374084
-1.11968 2.62569 -0.112168
-0.950788 2.62564 -0.0370663
-1.10477 2.62567 -0.123537
-1.11124 2.62623 -0.137181
-1.16424 2.62648 -0.17353
-1.16037 2.62665 -0.181329
-1.17462 2.6276 -0.199538
-1.02778 2.62787 -0.136041
-1.01087 2.62902 -0.13903
-1.12312 2.62939 -0.205259
-1.13881 2.63073 -0.224903
-1.0551 2.63171 -0.19423
-1.0496 2.63328 -0.203728
-1.11206 2.63388 -0.24547
-1.03609 2.63631 -0.221272
-1.13345 2.63821 -0.282818
-0.842931 2.64022 -0.15062
-1.01298 2.64186 -0.248074
-1.03139 2.64632 -0.274791
-0.921554 2.6501 -0.236179
-1.10025 2.65614 -0.345936
-1.11417 2.7302 0.207402
-0.971073 2.71493 0.292923
-1.07315 2.70965 0.240408
-1.15489 2.70346 0.199521
-0.92339 2.69892 0.312723
-0.996707 2.69538 0.271975
-1.12234 2.69102 0.206374
-1.04358 2.68762 0.241489
-1.17037 2.68487 0.172845
-1.02444 2.68161 0.241364
-1.14894 2.67901 0.173662
-1.19762 2.67593 0.144651
-1.12862 2.67414 0.172442
-1.14769 2.67175 0.157152
-1.20136 2.66891 0.125323
-1.04747 2.66725 0.195398
-1.24178 2.66512 0.0921284
-1.1856 2.66354 0.11324
-1.09639 2.66199 0.150831
-1.04779 2.65953 0.16959
-1.20735 2.65775 0.0831968
-1.10658 2.65635 0.126359
-1.11285 2.65498 0.115956
-1.06877 2.65365 0.130679
-1.15175 2.65218 0.0821115
-1.278 2.65095 0.0115322
-0.938755 2.64975 0.173647
-1.17796 2.64859 0.0464912
-1.21786 2.64691 0.0198439
-1.18906 2.64585 0.0265307
-1.21569 2.64483 0.00545141
-1.20834 2.64385 0.00130752
-1.15749 2.64306 0.0185898
-1.1962 2.64219 -0.00875031
-1.34993 2.64135 -0.093662
-1.14999 2.64055 -0.00179819
-1.21272 2.63979 -0.0413214
-1.18649 2.63944 -0.0370506
-1.33636 2.63827 -0.119443
-1.11736 2.63813 -0.0191443
-1.17515 2.6376 -0.0565663
-1.13398 2.63708 -0.0445296
-1.11047 2.63659 -0.0413587
-1.10495 2.63623 -0.0474192
-1.20786 2.63585 -0.107652
-1.20939 2.63551 -0.11726
-1.07254 2.63546 -0.0581615
-1.23782 2.63523 -0.149835
-1.13462 2.63505 -0.107333
-1.03312 2.63529 -0.0664219
-1.13698 2.63522 -0.127641
-0.96471 2.63518 -0.0508641
-1.06168 2.63571 -0.109695
-0.97195 2.63579 -0.0743785
-1.18836 2.6359 -0.192196
-1.12393 2.63671 -0.170831
-0.886808 2.63693 -0.0620715
-1.15502 2.63718 -0.206045
-1.28787 2.63826 -0.283808
-1.08735 2.639 -0.19428
-0.965817 2.64035 -0.145325
-0.915668 2.64083 -0.130543
-1.17862 2.64236 -0.274173
-1.05591 2.64354 -0.224357
-0.84069 2.6453 -0.12933
-1.11718 2.64717 -0.280364
-1.03335 2.64868 -0.250613
-0.899051 2.65075 -0.19664
-1.07046 2.6538 -0.297295
-1.0462 2.65846 -0.303032
-0.920242 2.66341 -0.258467
-0.845117 2.67283 -0.247425
-1.0125 2.72776 0.260227
-1.01085 2.71985 0.263641
-1.07287 2.71363 0.232648
-0.983452 2.71001 0.273357
-1.03015 2.70551 0.247407
-0.99764 2.70201 0.259523
-1.1964 2.69773 0.157262
-1.14861 2.69439 0.176818
-1.06293 2.6917 0.214325
-1.24617 2.68852 0.118164
-1.04405 2.68668 0.212575
-0.996379 2.68419 0.2308
-1.17081 2.68124 0.138739
-1.14692 2.67952 0.143888
-1.15135 2.67728 0.135723
-1.19588 2.67564 0.106559
-1.24698 2.67301 0.0757279
-1.02713 2.67104 0.179306
-1.24104 2.66955 0.065259
-1.263 2.66808 0.047146
-1.23094 2.66636 0.0564815
-1.10403 2.66499 0.11267
-1.24129 2.66365 0.0367334
-1.32224 2.66235 -0.0110982
-1.1523 2.66094 0.0667014
-1.10484 2.65912 0.0839457
-1.14727 2.65799 0.0551228
-1.28394 2.6569 -0.0208711
-1.03909 2.65584 0.0938469
-0.937821 2.65482 0.136716
-1.17099 2.65383 0.0123142
-1.0962 2.65289 0.041832
-1.15513 2.65217 0.00411579
-1.04771 2.65134 0.0497808
-1.11036 2.65054 0.0103571
-1.17935 2.64978 -0.0323028
-1.12341 2.6489 -0.0122899
-1.1917 2.64826 -0.0547753
-1.06701 2.64765 -0.000834856
-1.25289 2.64708 -0.102242
-1.15825 2.64707 -0.0643291
-1.0024 2.64658 0.00500732
-1.16811 2.64572 -0.0857958
-1.14191 2.64586 -0.0823479
-1.17384 2.64552 -0.107157
-1.38691 2.64522 -0.222603
-1.15738 2.64496 -0.116808
-1.0767 2.64506 -0.086057
-1.16555 2.64492 -0.13965
-1.13929 2.64481 -0.135748
-1.06224 2.64521 -0.107323
-1.05502 2.64521 -0.113139
-1.07502 2.64526 -0.132631
-1.09112 2.64594 -0.15129
-1.22598 2.64609 -0.228398
-0.995253 2.6465 -0.123171
-0.896997 2.64753 -0.0852713
-1.26697 2.64786 -0.280256
-0.949723 2.64822 -0.13169
-1.20835 2.64952 -0.272713
-1.11611 2.65094 -0.238531
-1.13171 2.65201 -0.257666
-1.06244 2.65259 -0.233506
-1.10466 2.65431 -0.267113
-1.02544 2.65686 -0.241497
-1.09346 2.65762 -0.286303
-0.934821 2.66048 -0.221565
-0.962713 2.66266 -0.248883
-0.918589 2.66727 -0.244574
-0.986983 2.67071 -0.294447
-0.943266 2.68001 -0.298846
-1.09776 2.7364 0.212117
-1.05155 2.73106 0.233803
-1.17375 2.72478 0.172791
-1.00843 2.72016 0.252996
-1.0858 2.71657 0.210283
-1.05647 2.71214 0.222272
-1.14438 2.70868 0.174121
-0.974636 2.70449 0.256002
-1.23915 2.70256 0.117201
-1.02228 2.69859 0.222331
-1.12294 2.69674 0.165356
-1.29747 2.69425 0.0724918
-1.14379 2.69129 0.144499
-1.28772 2.68956 0.065744
-1.16582 2.68731 0.12075
-0.96314 2.68567 0.215199
-1.2182 2.68303 0.082394
-0.988668 2.68147 0.190154
-1.05045 2.67956 0.152843
-1.23442 2.67809 0.0537292
-1.09991 2.67666 0.113813
-1.12868 2.67499 0.0926545
-1.24286 2.67365 0.0282576
-1.28757 2.67162 -0.000273559
-1.13989 2.67039 0.0661136
-1.22135 2.66919 0.0178834
-1.29615 2.66802 -0.0270651
-1.18674 2.66688 0.0200593
-1.10894 2.6658 0.0512826
-1.21284 2.6648 -0.00846551
-1.11319 2.66382 0.0335449
-1.07464 2.66287 0.0449466
-1.04435 2.66196 0.0521597
-1.25635 2.66109 -0.0618273
-1.17835 2.66052 -0.0313053
-1.27997 2.65924 -0.0893946
-1.26971 2.65889 -0.0931066
-1.19363 2.65824 -0.0634089
-1.12315 2.65764 -0.0365753
-1.18948 2.65707 -0.0782072
-1.11088 2.65655 -0.0474337
-1.20461 2.65606 -0.10289
-1.08213 2.65571 -0.050483
-1.18629 2.65534 -0.111343
-1.26516 2.65501 -0.159627
-1.04916 2.65523 -0.0614017
-1.19556 2.65475 -0.143205
-1.07618 2.65457 -0.0926216
-1.10514 2.65443 -0.116272
-1.16687 2.65477 -0.157116
-1.17969 2.65474 -0.172895
-1.10421 2.65475 -0.144584
-1.18103 2.65537 -0.193484
-0.957557 2.6555 -0.0913712
-1.15112 2.65565 -0.19784
-1.23565 2.65656 -0.251098
-1.07847 2.65682 -0.182389
-0.993244 2.65712 -0.149715
-1.12988 2.6583 -0.22952
-1.16091 2.65913 -0.255923
-1.15379 2.66057 -0.264313
-1.17159 2.66109 -0.283578
-1.15372 2.66271 -0.286939
-0.915156 2.66398 -0.179344
-1.05843 2.66583 -0.263701
-1.09227 2.66778 -0.293542
-1.0886 2.66937 -0.304011
-1.03839 2.67241 -0.29379
-0.936367 2.67608 -0.258833
-1.06951 2.67949 -0.341007
-0.998001 2.6872 -0.328605
-1.02273 2.74926 0.237595
-1.11356 2.74126 0.194877
-1.08884 2.73495 0.207356
-1.01301 2.73128 0.241329
-1.06786 2.72521 0.213734
-1.00944 2.72225 0.237949
-1.00788 2.71879 0.234547
-1.16465 2.7154 0.1519
-1.11192 2.71264 0.173015
-1.1696 2.7094 0.139718
-1.30926 2.7068 0.0644252
-1.20017 2.70374 0.114275
-1.11868 2.70196 0.148298
-1.0824 2.6996 0.160656
-1.24982 2.6979 0.0701292
-1.05665 2.69514 0.161606
-1.16202 2.69305 0.10276
-1.0904 2.69149 0.131567
-1.22937 2.68996 0.0550407
-1.27971 2.6881 0.0233767
-1.1868 2.68666 0.0626681
-0.949207 2.68443 0.175584
-1.15324 2.6831 0.0662646
-1.2728 2.68179 -0.000866033
-1.1865 2.68038 0.0351258
-1.14063 2.67918 0.0505633
-1.12828 2.67801 0.0491895
-1.21187 2.67688 -0.000207164
-1.14508 2.67579 0.0255336
-1.14363 2.67473 0.0185526
-1.05786 2.6738 0.0535355
-1.30434 2.67285 -0.0775765
-1.26884 2.67194 -0.067756
-1.22712 2.67077 -0.0543757
-1.13185 2.66998 -0.0148446
-1.14329 2.66922 -0.0287245
-1.1103 2.6685 -0.0204539
-1.16553 2.66782 -0.0563499
-1.26908 2.66762 -0.117209
-1.10259 2.66706 -0.042429
-1.1455 2.66653 -0.0724152
-1.15043 2.66602 -0.0834216
-1.0573 2.6656 -0.0455645
-1.26584 2.6652 -0.158557
-1.22531 2.66483 -0.147077
-1.13616 2.66472 -0.111719
-1.16973 2.66447 -0.137483
-1.22161 2.66426 -0.172469
-1.14259 2.66445 -0.142691
-1.09753 2.66435 -0.129401
-1.15573 2.66429 -0.1678
-1.11092 2.66478 -0.155643
-1.20349 2.66483 -0.211428
-1.1896 2.66492 -0.214047
-1.00291 2.66505 -0.130329
-1.13955 2.6659 -0.209535
-1.01839 2.6664 -0.159245
-1.15777 2.66719 -0.23972
-1.19965 2.6679 -0.271323
-1.05622 2.66831 -0.209742
-1.22008 2.66969 -0.303524
-0.915163 2.67073 -0.162326
-0.950196 2.67236 -0.19215
-1.07201 2.67299 -0.263601
-0.97845 2.6748 -0.229456
-0.989997 2.67748 -0.249432
-1.05438 2.67954 -0.294756
-1.09051 2.68126 -0.325334
-1.0599 2.68445 -0.3252
-1.01577 2.68929 -0.32127
-1.14055 2.69441 -0.40233
-0.957021 2.70409 -0.337474
-1.0121 2.75788 0.237435
-1.02187 2.74986 0.235264
-1.09939 2.74613 0.192622
-1.09036 2.73989 0.19717
-1.19789 2.73534 0.140867
-1.1686 2.7318 0.151415
-1.24515 2.72889 0.108087
-1.11097 2.72548 0.170927
-1.14596 2.72272 0.148198
-1.09687 2.71946 0.168293
-1.13868 2.71759 0.140787
-1.20882 2.71378 0.102183
-1.0799 2.712 0.159929
-1.05987 2.71025 0.163197
-1.19097 2.70681 0.0935925
-1.11563 2.70516 0.124379
-1.13103 2.70354 0.109759
-1.18849 2.7015 0.0748052
-1.09152 2.69996 0.116251
-0.966712 2.69846 0.17158
-1.14589 2.69611 0.076307
-1.05687 2.69443 0.114055
-1.15239 2.69309 0.0589917
-1.34408 2.69178 -0.0442009
-1.24188 2.69051 -0.0004927
-1.29111 2.68916 -0.0323636
-1.01997 2.68799 0.095662
-1.24128 2.68686 -0.0225944
-1.03865 2.68577 0.0710702
-1.16267 2.68471 0.00135442
-1.14554 2.68369 0.00216273
-1.1518 2.68271 -0.0087795
-1.19546 2.68139 -0.0378562
-1.24454 2.68052 -0.0703825
-1.27406 2.67995 -0.0936195
-1.06797 2.6792 0.00126495
-0.993065 2.67848 0.0304927
-1.12377 2.6778 -0.043143
-1.21223 2.67717 -0.0957205
-1.126 2.67657 -0.0610093
-1.05855 2.676 -0.0357455
-1.24247 2.67552 -0.136304
-1.16769 2.67508 -0.107574
-1.09276 2.67519 -0.0796923
-1.05081 2.67482 -0.0675038
-1.30306 2.67421 -0.201997
-1.01681 2.67447 -0.0687117
-1.11507 2.67426 -0.126885
-1.07069 2.67409 -0.113806
-1.1826 2.67396 -0.178939
-1.11003 2.67431 -0.152652
-1.03366 2.67429 -0.123842
-1.07639 2.67437 -0.15475
-0.994024 2.67496 -0.123976
-1.17376 2.67526 -0.223771
-1.0402 2.67546 -0.166751
-1.26342 2.67646 -0.289506
-1.12073 2.67677 -0.228112
-0.977862 2.67712 -0.166693
-1.18226 2.67839 -0.280525
-1.27194 2.67931 -0.336403
-0.900602 2.67983 -0.161058
-1.00317 2.68141 -0.224555
-1.00391 2.68311 -0.23736
-1.10821 2.68447 -0.301346
-1.17267 2.6852 -0.344296
-1.05269 2.68798 -0.298695
-1.06964 2.69012 -0.320414
-1.07453 2.69327 -0.337935
-1.09855 2.69661 -0.365387
-0.956265 2.70163 -0.312707
-0.934446 2.71106 -0.328208
-1.07711 2.77078 0.192842
-0.967407 2.76269 0.250493
-1.15908 2.75629 0.154875
-1.03699 2.75003 0.215981
-1.13661 2.74641 0.162183
-1.08352 2.74191 0.186114
-0.989462 2.73988 0.22672
-1.25422 2.73557 0.0914877
-1.07236 2.73223 0.178084
-1.04726 2.72953 0.185312
-1.34132 2.72635 0.0337276
-1.16758 2.72452 0.11395
-1.11171 2.72204 0.136264
-1.09754 2.71911 0.138474
-1.25917 2.7174 0.0508535
-1.18919 2.71518 0.0798619
-1.02673 2.71355 0.15418
-1.27051 2.71196 0.0253365
-1.16863 2.70997 0.0699802
-1.06096 2.70754 0.118224
-1.30266 2.7061 -0.00978642
-1.1634 2.7047 0.0526384
-1.32441 2.70307 -0.0347157
-1.16296 2.70177 0.0386643
-1.23636 2.7005 -0.00542475
-1.21545 2.69926 -0.00241199
-1.08674 2.69797 0.0545939
-1.21546 2.69684 -0.0173668
-1.28107 2.69574 -0.0578204
-1.27201 2.69469 -0.0609929
-1.07842 2.69322 0.028784
-1.17517 2.69227 -0.0274585
-1.12135 2.69137 -0.00847643
-1.29221 2.6905 -0.101892
-1.11488 2.68967 -0.0212711
-1.14823 2.68888 -0.0460532
-1.24206 2.68846 -0.101675
-1.24507 2.68778 -0.111469
-1.18198 2.68715 -0.0882666
-1.20221 2.68651 -0.106722
-1.15861 2.68599 -0.0934533
-1.12477 2.68547 -0.0850765
-1.40538 2.68507 -0.234099
-1.11147 2.68467 -0.0958698
-1.20729 2.68431 -0.152567
-1.04295 2.68421 -0.0796295
-1.13445 2.68397 -0.134367
-1.19149 2.68376 -0.171934
-1.05915 2.6836 -0.114879
-1.05776 2.68388 -0.124065
-0.993433 2.68383 -0.101214
-1.11501 2.68382 -0.171382
-1.3251 2.6844 -0.286821
-1.23311 2.6845 -0.250399
-1.10318 2.68464 -0.195073
-1.0638 2.68482 -0.185085
-1.12361 2.68576 -0.226024
-1.02845 2.68604 -0.188339
-1.19721 2.68718 -0.284121
-1.19654 2.68799 -0.294606
-1.03369 2.68845 -0.22339
-1.06389 2.68894 -0.248757
-0.95252 2.69106 -0.206216
-1.08577 2.69277 -0.285286
-1.06637 2.69345 -0.286205
-1.04221 2.6961 -0.288239
-0.960391 2.69688 -0.258161
-1.02658 2.69984 -0.305958
-1.08755 2.70209 -0.349887
-1.05067 2.7054 -0.346806
-0.970331 2.71033 -0.32491
-1.01054 2.71543 -0.363628
-0.908235 2.78535 0.262639
-0.991207 2.77288 0.230659
-1.07679 2.76749 0.186521
-1.17433 2.76117 0.1379
-0.823895 2.75653 0.310678
-1.03731 2.75294 0.19994
-1.12035 2.74852 0.155717
-1.05794 2.74651 0.180469
-1.20248 2.7423 0.105222
-1.26719 2.74037 0.0663281
-1.15029 2.73714 0.1203
-1.18234 2.73456 0.0987956
-1.03066 2.73275 0.167962
-1.21382 2.72913 0.0725803
-1.08577 2.72742 0.129805
-1.20729 2.72574 0.0622117
-1.30434 2.72357 0.00764484
-1.11513 2.72197 0.0953024
-1.12857 2.71942 0.0831725
-1.15918 2.71791 0.0607965
-1.12334 2.7161 0.0721626
-1.15121 2.71469 0.0510297
-1.2555 2.71331 -0.00836161
-1.22568 2.71175 -0.000388309
-1.18513 2.71048 0.0124943
-1.29627 2.70924 -0.0505125
-1.13781 2.70804 0.0212282
-1.04665 2.70681 0.059357
-1.27478 2.70518 -0.0614817
-1.25084 2.70413 -0.0572123
-1.16684 2.70311 -0.0229673
-1.15566 2.70213 -0.0251942
-1.24802 2.70134 -0.0794919
-1.22771 2.70047 -0.0773191
-1.23146 2.69964 -0.0872398
-1.12179 2.69885 -0.0405045
-1.18999 2.6981 -0.0827717
-1.06552 2.69776 -0.0293651
-1.01953 2.69712 -0.0147174
-1.15245 2.69601 -0.0887284
-1.18484 2.69597 -0.114248
-1.19294 2.69546 -0.126841
-1.21682 2.69498 -0.14738
-1.16145 2.69454 -0.128353
-0.971178 2.6943 -0.0421986
-1.36462 2.69398 -0.247775
-1.15856 2.6937 -0.153668
-1.22889 2.69347 -0.197821
-1.22689 2.6936 -0.206452
-1.01521 2.69348 -0.109797
-1.04092 2.6934 -0.131902
-1.08229 2.69336 -0.161901
-1.1161 2.69387 -0.189086
-1.09835 2.69394 -0.189727
-1.15812 2.69468 -0.230271
-1.0299 2.69486 -0.17587
-0.989759 2.69533 -0.166014
-0.906566 2.69562 -0.13432
-1.14511 2.69678 -0.265007
-1.05649 2.69717 -0.23079
-1.13514 2.69853 -0.281892
-1.00591 2.69955 -0.228474
-1.09825 2.70011 -0.285041
-0.917733 2.70178 -0.207136
-1.10239 2.70312 -0.311237
-0.906271 2.70502 -0.225963
-1.0144 2.70703 -0.293018
-1.08367 2.7087 -0.340044
-1.00969 2.71183 -0.318062
-1.14197 2.71414 -0.397763
-0.928512 2.71896 -0.309076
-0.99507 2.72399 -0.360817
-0.989224 2.79396 0.216665
-1.07746 2.78414 0.177959
-1.10554 2.77766 0.164235
-1.03705 2.77131 0.198653
-0.998769 2.76763 0.213866
-1.1242 2.76305 0.148645
-1.24509 2.75951 0.0841137
-1.15433 2.7566 0.12445
-1.22063 2.7532 0.0870443
-1.11229 2.75043 0.135979
-1.02822 2.7472 0.173546
-1.23952 2.7446 0.0624292
-1.20779 2.74155 0.0735789
-1.12406 2.73978 0.108715
-1.12328 2.73744 0.103303
-1.25471 2.73575 0.030758
-1.05022 2.7341 0.126135
-1.23872 2.73142 0.0266571
-0.971622 2.72942 0.153925
-1.23699 2.72791 0.0141736
-1.24437 2.72643 0.00337609
-1.15013 2.72467 0.0438627
-1.12509 2.7233 0.0491363
-1.36969 2.72195 -0.0804541
-1.10659 2.72065 0.0437588
-1.10119 2.71921 0.0393329
-1.14505 2.71747 0.0107891
-1.24666 2.71625 -0.0474592
-1.2643 2.71515 -0.0639254
-1.19692 2.7141 -0.0379376
-1.13709 2.71308 -0.0157765
-1.1704 2.7121 -0.0402422
-1.13811 2.71116 -0.0319706
-1.1241 2.71044 -0.0331923
-1.0727 2.70961 -0.0155377
-1.04553 2.70882 -0.0100553
-1.21067 2.70807 -0.100791
-1.10236 2.70736 -0.0548552
-1.20349 2.70658 -0.113518
-1.02818 2.70599 -0.0342746
-1.18967 2.70543 -0.123491
-1.14055 2.70492 -0.107471
-1.21948 2.70445 -0.155538
-1.26004 2.70453 -0.185337
-1.01955 2.70378 -0.0732221
-1.16939 2.70347 -0.157004
-1.19716 2.7037 -0.180662
-1.11111 2.70346 -0.146628
-1.19836 2.70311 -0.199046
-1.20531 2.70299 -0.211711
-1.04727 2.70341 -0.142785
-1.15009 2.70337 -0.203512
-1.29459 2.7034 -0.285216
-1.16594 2.70348 -0.230409
-0.982675 2.70423 -0.149452
-1.20056 2.70441 -0.268108
-1.087 2.70464 -0.221111
-1.15747 2.70567 -0.267526
-1.21027 2.706 -0.303895
-0.998873 2.70677 -0.208933
-0.922911 2.70814 -0.182743
-1.15003 2.70864 -0.306588
-0.914183 2.70918 -0.199006
-1.15139 2.71144 -0.330975
-0.901005 2.7121 -0.216361
-1.08378 2.71396 -0.320449
-1.0014 2.71549 -0.291371
-0.937628 2.71757 -0.272596
-1.02145 2.72058 -0.329287
-0.978811 2.72425 -0.323922
-1.08576 2.72611 -0.390174
-0.900249 2.73253 -0.318313
-0.941209 2.74349 -0.367858
-1.07334 2.80694 0.162427
-1.13771 2.79433 0.139887
-0.982546 2.78888 0.216191
-1.01904 2.78246 0.198201
-0.968117 2.77775 0.22132
-1.07608 2.77412 0.163372
-1.08284 2.76961 0.157397
-0.925657 2.76668 0.230963
-1.18398 2.76327 0.0975544
-1.12429 2.76049 0.122181
-1.16528 2.75724 0.0972301
-1.08767 2.75537 0.129434
-1.25016 2.75227 0.0435512
-1.18748 2.74981 0.0692439
-1.05051 2.74807 0.130977
-1.11868 2.74577 0.0910283
-1.22512 2.74303 0.0326612
-1.20697 2.74142 0.0347992
-1.30298 2.73985 -0.020183
-1.24226 2.7379 0.00382175
-1.1188 2.73642 0.058447
-1.25815 2.73498 -0.018377
-1.33845 2.73328 -0.0652493
-1.20661 2.73193 -0.00661663
-1.24023 2.73062 -0.0307602
-1.07241 2.72865 0.0469009
-1.17301 2.72744 -0.0108844
-1.10298 2.72622 0.0166927
-1.28454 2.72512 -0.0817343
-1.1513 2.72406 -0.0228012
-1.08092 2.72305 0.00462093
-1.06064 2.72207 0.00695007
-1.2268 2.72112 -0.0839939
-1.22673 2.72022 -0.091889
-1.22454 2.71936 -0.0987734
-1.19916 2.71879 -0.0945513
-1.21814 2.71804 -0.112205
-1.0916 2.71681 -0.0563029
-1.04215 2.71655 -0.0405306
-1.15572 2.71596 -0.105726
-1.22545 2.71541 -0.149067
-1.1863 2.7149 -0.13803
-1.20372 2.71443 -0.155342
-1.15943 2.714 -0.141867
-1.1052 2.71361 -0.123485
-0.970728 2.71346 -0.0653694
-0.963951 2.71319 -0.0709102
-1.18738 2.71296 -0.191619
-1.159 2.71277 -0.18649
-1.23299 2.713 -0.233262
-1.15381 2.71292 -0.202928
-1.21173 2.71289 -0.241215
-1.16542 2.71289 -0.227454
-1.19674 2.7135 -0.253538
-1.16109 2.71362 -0.245305
-1.07516 2.71378 -0.211996
-1.18419 2.71468 -0.277449
-1.0408 2.71495 -0.215606
-1.04543 2.71559 -0.228422
-1.06852 2.71596 -0.250011
-0.985391 2.71728 -0.220133
-1.0888 2.71776 -0.282068
-1.15208 2.71984 -0.326757
-1.11318 2.72045 -0.317777
-1.11437 2.72109 -0.328898
-1.04576 2.72364 -0.308485
-0.864335 2.72438 -0.228496
-1.02762 2.72719 -0.324515
-0.957424 2.72932 -0.302623
-0.962923 2.73242 -0.32029
-1.00469 2.73473 -0.354729
-0.871016 2.74105 -0.308588
-0.994265 2.7477 -0.391531
-0.820199 2.82322 0.271769
-1.00647 2.80726 0.193366
-1.05463 2.79905 0.172223
-1.16909 2.79261 0.115282
-1.04818 2.78888 0.171866
-0.96707 2.78422 0.210016
-1.08284 2.7797 0.149562
-1.04331 2.7762 0.165181
-1.16375 2.77333 0.0998563
-1.09072 2.76999 0.132036
-1.00637 2.76807 0.167672
-1.22362 2.76542 0.0536728
-1.24831 2.7623 0.0367052
-1.01344 2.75983 0.148505
-1.1345 2.75808 0.081224
-1.09159 2.75636 0.0958956
-1.17356 2.75356 0.0498591
-1.07624 2.75142 0.0924311
-1.20992 2.74985 0.0186133
-1.16704 2.74831 0.0330402
-1.0615 2.74641 0.0793794
-1.21445 2.74496 -0.00423779
-1.10747 2.74355 0.0420604
-1.2328 2.74137 -0.0265433
-1.23643 2.74006 -0.035694
-1.16326 2.73862 -0.00622192
-1.0317 2.73741 0.052076
-1.1422 2.73625 -0.0107124
-0.895173 2.73512 0.105214
-1.09602 2.73402 -0.00285367
-1.06344 2.73297 0.00573974
-1.20138 2.73203 -0.0711058
-1.30153 2.73109 -0.129048
-1.16308 2.73019 -0.0677479
-1.12173 2.72932 -0.0550566
-1.18631 2.7285 -0.0953868
-1.09524 2.72749 -0.0575785
-1.06527 2.72678 -0.0508207
-1.19919 2.72612 -0.12607
-1.15749 2.72549 -0.113572
-1.15376 2.72538 -0.120909
-1.14692 2.72487 -0.126027
-0.990842 2.72436 -0.0565278
-1.26207 2.7239 -0.200746
-1.33838 2.72359 -0.24777
-1.20017 2.72325 -0.187461
-1.2085 2.72294 -0.200493
-0.963194 2.72268 -0.0867737
-1.12347 2.72276 -0.176434
-1.21984 2.72261 -0.233748
-1.15437 2.72251 -0.21021
-1.06192 2.72244 -0.173247
-1.20954 2.72291 -0.257239
-1.04094 2.72296 -0.182397
-1.17586 2.72317 -0.259605
-1.13543 2.72381 -0.24987
-1.04768 2.72424 -0.216129
-1.17774 2.72452 -0.291016
-1.1693 2.72483 -0.296719
-1.05475 2.72602 -0.250899
-1.15041 2.72644 -0.308841
-0.98505 2.72737 -0.237179
-0.98439 2.7289 -0.248908
-1.1675 2.72948 -0.350881
-1.10546 2.73187 -0.333433
-1.15631 2.73255 -0.369475
-1.05996 2.73446 -0.334071
-1.16348 2.73598 -0.397909
-0.753721 2.73805 -0.206123
-1.09247 2.74107 -0.390251
-1.08752 2.74476 -0.403751
-1.06558 2.74806 -0.4081
-0.912758 2.75612 -0.355484
-1.02829 2.81857 0.172804
-1.14881 2.80922 0.117211
-1.03767 2.80379 0.171487
-1.05996 2.79901 0.158092
-1.14107 2.79433 0.115158
-0.983953 2.79072 0.189707
-1.12461 2.78627 0.116703
-1.05747 2.78427 0.143833
-1.15578 2.78004 0.0917063
-1.01074 2.77812 0.15769
-1.29319 2.7749 0.0119755
-1.19544 2.77232 0.0553658
-1.0587 2.77052 0.117057
-1.20579 2.7681 0.0378196
-1.30607 2.76523 -0.0172914
-1.1695 2.76356 0.0441415
-0.936412 2.76193 0.153797
-1.08695 2.75984 0.072368
-1.22929 2.7583 -0.00580881
-1.05675 2.75678 0.0734071
-1.14312 2.75494 0.0237086
-1.09862 2.75269 0.0401196
-1.0659 2.75134 0.0491961
-1.07291 2.75003 0.0383639
-1.22897 2.74875 -0.0470482
-1.23028 2.74738 -0.0549102
-1.32912 2.74621 -0.111866
-1.18605 2.74508 -0.0479178
-1.17013 2.74399 -0.047599
-1.21648 2.74293 -0.0784715
-1.37985 2.74192 -0.167907
-1.19339 2.74094 -0.0824848
-1.17752 2.74015 -0.0826512
-1.22525 2.73928 -0.114502
-1.10972 2.73819 -0.0643438
-1.24825 2.73745 -0.141771
-1.07661 2.73675 -0.0641818
-1.2094 2.73608 -0.138864
-1.03455 2.73546 -0.0597916
-1.17966 2.73487 -0.14076
-1.16962 2.73433 -0.144219
-1.08402 2.73434 -0.110809
-0.8924 2.73345 -0.0228966
-1.09449 2.73307 -0.132679
-0.961287 2.73273 -0.0748823
-1.14986 2.73292 -0.178877
-1.00313 2.73244 -0.114071
-1.27701 2.73226 -0.260079
-0.994214 2.73212 -0.127817
-1.12713 2.73244 -0.204199
-0.975384 2.73242 -0.13766
-1.22969 2.73243 -0.274216
-1.0781 2.73249 -0.207886
-1.17044 2.73319 -0.264634
-1.1002 2.73336 -0.239182
-1.21916 2.73356 -0.308395
-1.15333 2.73381 -0.28528
-1.19529 2.73487 -0.317479
-1.16626 2.73561 -0.313622
-0.958213 2.73604 -0.21972
-0.976552 2.7365 -0.239073
-1.04372 2.73797 -0.284612
-0.916299 2.73912 -0.232289
-0.980569 2.74082 -0.276793
-1.24139 2.74147 -0.417743
-1.1403 2.74403 -0.381093
-1.02295 2.74476 -0.333116
-1.167 2.74808 -0.420407
-1.06124 2.74971 -0.379824
-0.895197 2.75421 -0.314198
-0.927248 2.75656 -0.343837
-0.902098 2.76297 -0.35209
-0.975496 2.82878 0.191227
-0.994444 2.82047 0.184801
-1.16353 2.81393 0.100652
-1.11671 2.80913 0.121833
-1.08563 2.80543 0.133482
-1.11312 2.80081 0.117272
-1.00213 2.79726 0.168699
