ply
format ascii 1.0
comment Created by Open3D
element vertex 1736
property double x
property double y
property double z
end_header
-1.28888 -0.0528041 4.06234
-1.47331 -0.0527758 3.95901
-1.31889 -0.0527852 4.02489
-1.51536 -0.0527588 3.91554
-1.13675 -0.0527684 4.09352
-1.49938 -0.052744 3.90109
-1.32331 -0.0527539 3.97779
-1.16217 -0.0527424 4.04718
-1.34593 -0.0527416 3.94404
-1.4155 -0.0527416 3.89799
-1.31379 -0.0527521 3.9375
-1.58699 -0.0527423 3.78971
-1.31657 -0.0527438 3.91364
-1.50716 -0.0527656 3.8069
-1.46849 -0.052757 3.81504
-1.48429 -0.0527793 3.79568
-1.21179 -0.0527714 3.92072
-1.41937 -0.0527755 3.80563
-1.42985 -0.0527987 3.7889
-1.50528 -0.0528038 3.73986
-1.39806 -0.0528157 3.78207
-1.43484 -0.0528218 3.75234
-1.50817 -0.0528339 3.70427
-1.51182 -0.0528533 3.69096
-1.16233 -0.0528658 3.85428
-1.1752 -0.052891 3.83628
-1.15845 -0.0528994 3.83327
-1.13476 -0.0529123 3.83367
-1.11206 -0.0529383 3.83342
-1.31495 -0.0529479 3.72055
-1.41258 -0.0529612 3.66027
-1.1471 -0.052988 3.78137
-1.16325 -0.0530152 3.76164
-1.34986 -0.0530262 3.65687
-1.44101 -0.053054 3.59962
-1.00816 -0.0530821 3.80435
-1.21326 -0.0530963 3.69027
-0.931562 -0.0531249 3.8194
-1.28954 -0.0531537 3.62866
-1.28009 -0.053183 3.62163
-1.05385 -0.0532125 3.72298
-1.25169 -0.0532423 3.61226
-1.18572 -0.0532712 3.63346
-0.999193 -0.0533028 3.71488
-1.19287 -0.0533335 3.6062
-1.2969 -0.0533645 3.54232
-1.41985 -0.0533958 3.46897
-1.23993 -0.0534274 3.54703
-1.10133 -0.0534593 3.60441
-1.38782 -0.0534915 3.44924
-1.32101 -0.0535239 3.47069
-0.976411 -0.0535566 3.63102
-1.32549 -0.0536233 3.44393
-1.07766 -0.0536567 3.55583
-1.0503 -0.0536905 3.55747
-1.17345 -0.053742 3.48354
-1.13794 -0.0537763 3.48922
-0.999109 -0.0538462 3.54591
-1.08934 -0.0538811 3.48866
-0.916381 -0.0539163 3.563
-0.97761 -0.053988 3.51955
-1.08499 -0.0540427 3.45331
-0.911192 -0.0540788 3.52799
-0.991734 -0.0541527 3.47477
-0.789501 -0.0542177 3.56307
-0.883016 -0.0542912 3.5033
-0.955937 -0.0543513 3.45406
-0.993142 -0.0544242 3.4224
-1.03743 -0.0544839 3.38744
-1.02919 -0.0545221 3.37915
-0.804979 -0.0546155 3.47769
-0.720956 -0.0546526 3.50727
-0.825738 -0.0547235 3.44172
-0.655425 -0.054782 3.51395
-0.636962 -0.0548403 3.51024
-0.562725 -0.0549101 3.53414
-0.474288 -0.054968 3.56537
-0.694005 -0.0550256 3.4425
-0.577696 -0.0550941 3.48738
-0.586624 -0.0551865 3.46908
-0.569643 -0.0552434 3.4645
-0.388093 -0.0553 3.54218
-0.479646 -0.0553564 3.48329
-0.728724 -0.0554481 3.34479
-0.497346 -0.0555395 3.44649
-0.564293 -0.0557186 3.39691
-0.123031 -0.0561846 2.4305
0.00458619 -0.0560567 2.48805
0.0475979 -0.0559896 2.50061
-0.0926188 -0.0559495 2.42036
0.0323963 -0.0559092 2.47275
-0.0859546 -0.0558354 2.405
-0.00687551 -0.055795 2.43447
-0.0486398 -0.0557546 2.40354
-0.303658 -0.0557401 2.2648
-0.0363151 -0.0556919 2.38881
-0.30702 -0.055651 2.24347
0.168888 -0.0556101 2.47146
-0.0516454 -0.0555614 2.35162
0.0552423 -0.0555204 2.39514
-0.213863 -0.0555042 2.2495
-0.342664 -0.055463 2.17521
-0.217181 -0.0554135 2.22849
-0.414928 -0.0553965 2.1186
0.00199441 -0.0553551 2.31724
0.00570172 -0.0553049 2.30971
0.079472 -0.0552871 2.33565
-0.216472 -0.0552455 2.17792
-0.0365461 -0.0551948 2.25858
-0.254524 -0.0551762 2.13873
-0.186524 -0.0551345 2.16302
-0.00588791 -0.0550833 2.24412
-0.300425 -0.0550639 2.08606
-0.0775436 -0.0550221 2.18785
-0.160657 -0.0549922 2.13605
-0.0207685 -0.0549502 2.19639
-0.164784 -0.0549298 2.11369
-0.207081 -0.0548773 2.08349
-0.338594 -0.0548353 2.00818
-0.0504999 -0.0548034 2.14216
-0.0231877 -0.0547613 2.1463
-0.140727 -0.0547395 2.07697
0.0282109 -0.0546863 2.15253
-0.109684 -0.0546442 2.07411
-0.278682 -0.0546217 1.97913
0.120976 -0.0545681 2.17013
-0.159357 -0.054545 2.01954
-0.129421 -0.0545029 2.02511
0.138048 -0.054444 2.15036
-0.398299 -0.0544172 1.872
-0.191892 -0.0543722 1.96601
-0.165953 -0.0543454 1.96883
-0.449112 -0.0543008 1.81806
-0.0614988 -0.054274 2.00174
-0.166655 -0.0542299 1.93999
-0.204186 -0.0542031 1.91112
-0.227782 -0.0541594 1.89016
-0.165422 -0.0541326 1.91126
-0.196907 -0.0540894 1.88637
0.23644 -0.0540626 2.09299
-0.0880636 -0.0540199 1.92159
0.0602924 -0.0539931 1.98574
-0.239751 -0.0539664 1.8257
-0.119157 -0.0539241 1.87687
-0.349133 -0.0538974 1.75189
-0.000461454 -0.0538556 1.91711
0.244966 -0.0538289 2.02985
-0.176157 -0.0537876 1.81018
-0.225686 -0.0537609 1.77547
-0.378419 -0.0537342 1.68917
-0.29047 -0.0536934 1.72405
-0.0431443 -0.0536667 1.8378
-0.170102 -0.0536265 1.76523
-0.0396895 -0.0535998 1.82055
-0.400651 -0.0535731 1.6302
-0.418097 -0.0535334 1.61239
-0.441898 -0.0535068 1.59065
-0.210602 -0.0534676 1.69721
-0.0164895 -0.053441 1.78444
-0.0411676 -0.0534143 1.76229
-0.00384481 -0.0533757 1.77188
-0.170523 -0.0533491 1.67876
-0.122047 -0.0533225 1.69322
-0.42771 -0.0532844 1.53133
-0.271165 -0.0532578 1.59985
-0.387111 -0.0532313 1.53213
-0.0965945 -0.0531937 1.66834
-0.00525483 -0.0531672 1.70429
-0.251976 -0.0531407 1.57123
-0.189845 -0.0531037 1.59325
-0.23797 -0.0530876 1.55885
0.0559107 -0.0530611 1.69612
-0.327889 -0.0530275 1.495
-0.242585 -0.0530011 1.528
-0.311141 -0.0529746 1.48408
-0.0151476 -0.0529388 1.62304
-0.320989 -0.0529123 1.46051
-0.476525 -0.0528858 1.37313
-0.320304 -0.0528506 1.44221
-0.261095 -0.0528242 1.46223
-0.0713572 -0.0527977 1.54753
-0.433607 -0.0527713 1.35684
-0.0950145 -0.0527367 1.51712
-0.226135 -0.0527103 1.44203
-0.310019 -0.0526921 1.39002
-0.183489 -0.0526707 1.44344
-0.0987702 -0.0526367 1.47679
-0.338177 -0.0526103 1.34759
-0.200012 -0.052584 1.40719
-0.195977 -0.0525506 1.4002
-0.0712981 -0.0525242 1.45308
-0.00776447 -0.0524979 1.47539
-0.0527674 -0.0524716 1.44345
-0.163789 -0.0524388 1.37894
-0.160974 -0.0524189 1.3705
-0.303817 -0.0523994 1.28921
-0.41974 -0.0523731 1.22185
-0.115986 -0.0523409 1.36474
-0.224858 -0.0523146 1.30092
-0.00575702 -0.0522884 1.40111
-0.330437 -0.0522621 1.22941
-0.402651 -0.0522306 1.18432
-0.277764 -0.0522096 1.23707
-0.289121 -0.0521913 1.22152
-0.287947 -0.052165 1.21279
-0.00849819 -0.0521341 1.34353
-0.239214 -0.0521079 1.21888
-0.160825 -0.0520817 1.24879
-0.287404 -0.0520556 1.17623
-0.134917 -0.0520253 1.2435
-0.163516 -0.0520032 1.21966
-0.311368 -0.0519816 1.13617
-0.11779 -0.0519599 1.22341
-0.288523 -0.0519338 1.12882
-0.16844 -0.0519042 1.1799
-0.0422688 -0.0518781 1.23379
-0.201232 -0.051852 1.14512
0.0833688 -0.0518258 1.27824
-0.364706 -0.0518128 1.04408
-0.316344 -0.0517839 1.05931
-0.275271 -0.0517578 1.0707
0.000437614 -0.0517317 1.19941
-0.260651 -0.0517056 1.05974
-0.25267 -0.0516796 1.05461
-0.163829 -0.0516563 1.08972
-0.409591 -0.0516383 0.957144
-0.077816 -0.0516123 1.11394
-0.275477 -0.0515863 1.00603
-0.173576 -0.0515602 1.04792
-0.218837 -0.0515327 1.01635
-0.0964093 -0.0515082 1.0684
-0.210818 -0.0514937 1.00129
-0.0651933 -0.0514677 1.06508
-0.381665 -0.0514417 0.897825
-0.103765 -0.0514157 1.02777
-0.142177 -0.0513888 0.999638
-0.158346 -0.0513653 0.982382
-0.181972 -0.0513499 0.960781
-0.245207 -0.051324 0.920195
-0.267661 -0.0512981 0.900011
-0.244205 -0.0512721 0.902792
-0.210267 -0.0512462 0.910825
-0.32604 -0.051233 0.843026
-0.288322 -0.0512071 0.852966
-0.358544 -0.0511812 0.808947
-0.103878 -0.0511553 0.927383
-0.19229 -0.0511295 0.87429
-0.316641 -0.0511038 0.80322
-0.222776 -0.0510907 0.84028
-0.140885 -0.0510648 0.872367
-0.213946 -0.051039 0.826989
-0.0115211 -0.0510132 0.919365
-0.101705 -0.0509873 0.865446
-0.133718 -0.0509744 0.839586
-0.279688 -0.0509486 0.757793
-0.0821381 -0.0509228 0.84777
-0.104806 -0.050897 0.827649
-0.47742 -0.0508712 0.632565
-0.132583 -0.0508588 0.79513
-0.222785 -0.050833 0.741269
-0.250448 -0.0508072 0.718688
-0.18688 -0.0507815 0.741734
-0.113905 -0.0507686 0.768434
-0.333458 -0.0507428 0.649937
-0.243594 -0.0507171 0.686159
0.048603 -0.0506914 0.823558
0.0545539 -0.0506668 0.81775
-0.0870551 -0.0506539 0.737194
-0.331095 -0.0506282 0.606502
-0.238413 -0.0506025 0.644181
-0.114279 -0.0505768 0.697596
-0.233125 -0.050564 0.628451
-0.42793 -0.0505383 0.522415
-0.275633 -0.0505127 0.58994
-0.176976 -0.050487 0.630656
-0.288783 -0.0504632 0.565996
-0.440062 -0.0504503 0.480671
-0.243023 -0.0504247 0.570605
-0.403676 -0.0503991 0.481703
-0.153662 -0.0503735 0.598145
-0.184976 -0.0503607 0.572831
-0.277583 -0.0503351 0.51798
-0.257613 -0.0503095 0.519428
0.0328495 -0.0502839 0.656132
-0.4405 -0.0502711 0.409829
-0.293103 -0.0502456 0.475019
-0.363755 -0.0502225 0.430978
-0.0518839 -0.0501969 0.578423
0.0258924 -0.0501842 0.607711
-0.342987 -0.0501586 0.414799
-0.101431 -0.0501331 0.527116
-0.119388 -0.0501076 0.509685
-0.0496754 -0.0500949 0.53497
-0.202045 -0.0500694 0.450352
-0.365058 -0.0500439 0.360422
-0.339541 -0.0500184 0.364768
-0.284918 -0.0500056 0.382536
-0.326643 -0.0499802 0.353279
-0.387204 -0.0499547 0.314613
-0.272809 -0.0499325 0.363147
-0.116715 -0.0499197 0.431678
-0.324797 -0.0498943 0.319278
-0.140375 -0.0498689 0.403141
-0.119268 -0.0498562 0.404199
-0.525917 -0.0498308 0.192544
-0.116567 -0.0498054 0.388898
-0.441415 -0.04978 0.218163
-0.0658107 -0.0497673 0.396499
-0.11787 -0.0497419 0.362176
-0.373865 -0.0497165 0.225896
-0.343035 -0.0496912 0.233038
-0.271004 -0.0496785 0.259616
-0.318268 -0.0496531 0.227729
-0.274271 -0.0496278 0.241482
-0.0876912 -0.0496151 0.325355
-0.498806 -0.0495898 0.111571
-0.0440816 -0.0495645 0.330715
-0.00641371 -0.0495392 0.341342
-0.353126 -0.0495265 0.158597
-0.27049 -0.0495012 0.191725
-0.017103 -0.0494799 0.309861
0.0442466 -0.0494673 0.331166
-0.201177 -0.049442 0.20029
-0.311856 -0.0494168 0.136796
-0.0740769 -0.0494041 0.246337
-0.159679 -0.0493789 0.195399
-0.229928 -0.0493537 0.152148
-0.0693025 -0.0493411 0.223132
-0.181359 -0.0493158 0.158995
-0.229581 -0.0492906 0.126785
-0.228356 -0.0492654 0.119308
-0.163014 -0.0492528 0.142679
-0.183013 -0.0492276 0.124607
-0.150636 -0.0492025 0.132734
-0.140482 -0.0491899 0.128531
-0.137095 -0.0491647 0.12218
-0.337022 -0.0491395 0.0141822
-0.169816 -0.049127 0.0885256
-0.326076 -0.0491018 0.00237865
-0.0204216 -0.0490767 0.147199
-0.168225 -0.0490641 0.0640575
-0.246065 -0.049039 0.017148
-0.121441 -0.0490139 0.0714802
-0.247892 -0.0490013 -0.000964454
-0.176163 -0.0489763 0.0269376
-1.47184 -0.0400105 4.0362
-1.4655 -0.0398892 4.02871
-1.36853 -0.0398358 4.06616
-1.43581 -0.0397834 4.02152
-1.39352 -0.0397514 4.03155
-1.40748 -0.0397391 4.01334
-1.46888 -0.0397152 3.97151
-1.14047 -0.0397036 4.12449
-1.51076 -0.0396923 3.92812
-1.49153 -0.0396705 3.92662
-1.49645 -0.0396601 3.91295
-1.33095 -0.0396574 3.98443
-1.30053 -0.0396476 3.98844
-1.47626 -0.0396459 3.8893
-1.36682 -0.0396368 3.93281
-1.29217 -0.0396447 3.95878
-1.33648 -0.0396359 3.92542
-1.5654 -0.0396356 3.79967
-1.46337 -0.0396359 3.8394
-1.25027 -0.0396367 3.93465
-1.29043 -0.0396451 3.90319
-1.01057 -0.0396465 4.03181
-1.24353 -0.0396551 3.90394
-1.45223 -0.0396485 3.78838
-1.38907 -0.0396599 3.80852
-1.35263 -0.0396689 3.81534
-1.15709 -0.0396722 3.90177
-1.38129 -0.0396814 3.77825
-1.40996 -0.0396998 3.75236
-1.28826 -0.0396947 3.80197
-1.09738 -0.0397136 3.88584
-1.26825 -0.0397185 3.78903
-1.52499 -0.0397378 3.64906
-1.23381 -0.0397574 3.78304
-1.03734 -0.0397534 3.87001
-1.33031 -0.0397734 3.71189
-1.15628 -0.0397936 3.78726
-1.23792 -0.0398004 3.73499
-1.05462 -0.0398107 3.81514
-1.08014 -0.0398315 3.7907
-1.2672 -0.0398525 3.68546
-0.98902 -0.0398738 3.81284
-1.16236 -0.0398819 3.71467
-1.19318 -0.0398928 3.6877
-1.15398 -0.0399146 3.69554
-1.1672 -0.0399367 3.67716
-1.2762 -0.039959 3.61087
-1.33008 -0.0399816 3.57212
-1.09295 -0.0400043 3.67886
-1.27878 -0.0400273 3.5741
-1.26318 -0.0400505 3.57004
-1.24449 -0.040074 3.5675
-1.18303 -0.0400976 3.58633
-0.885508 -0.0401215 3.72318
-0.938634 -0.0401713 3.68414
-1.20135 -0.0401957 3.54082
-0.999434 -0.0402204 3.6298
-1.004 -0.0402452 3.61552
-1.18737 -0.0402842 3.51151
-1.19168 -0.0403095 3.49732
-1.05929 -0.0403349 3.55145
-1.09798 -0.0403878 3.5194
-0.809395 -0.0404138 3.65158
-0.932256 -0.0404545 3.57768
-1.05458 -0.0404941 3.50405
-1.04318 -0.0405356 3.49722
-1.13429 -0.040591 3.43876
-0.914209 -0.0406334 3.53619
-1.09326 -0.0406899 3.43368
-0.693711 -0.0407399 3.6206
-0.842323 -0.0407704 3.53391
-0.85205 -0.0408427 3.51556
-0.663082 -0.0408987 3.59695
-0.994523 -0.0409447 3.41836
-0.769345 -0.0410002 3.51781
-0.795184 -0.0410458 3.49198
-0.742103 -0.0411275 3.5046
-0.877405 -0.0411728 3.42398
-0.891093 -0.041218 3.40415
-0.624247 -0.041299 3.52355
-0.783126 -0.041371 3.4303
-0.372439 -0.0414618 3.62125
-0.639944 -0.0415802 3.47225
0.0368032 -0.0419437 2.39062
0.105218 -0.0418917 2.41616
-0.282967 -0.0418398 2.21342
0.0931257 -0.0418015 2.39198
0.0100142 -0.0417497 2.34183
0.0560832 -0.0417175 2.35503
-0.0788892 -0.0416788 2.27816
-0.10295 -0.0416465 2.25635
0.0613146 -0.0416142 2.32872
0.0427649 -0.0415751 2.31014
-0.0349935 -0.0415427 2.26155
-0.0541469 -0.0415288 2.24105
-0.0162938 -0.0414709 2.25198
-0.0922342 -0.0414566 2.20315
0.000580144 -0.0414241 2.23992
-0.219604 -0.0413842 2.1207
-0.0427568 -0.0413517 2.19952
-0.180014 -0.0413366 2.12013
0.0338653 -0.0412963 2.21803
-0.132827 -0.0412637 2.12514
-0.254459 -0.0412233 2.05534
-0.0492582 -0.0412074 2.14729
-0.36249 -0.0411748 1.98119
-0.0558141 -0.041134 2.12562
-0.328711 -0.0411176 1.9786
-0.0502667 -0.0410849 2.1084
-0.0679915 -0.0410439 2.09071
-0.133436 -0.0410269 2.04749
-0.169426 -0.0409855 2.02073
-0.0647125 -0.0409681 2.06266
-0.0289012 -0.0409353 2.07123
0.0447353 -0.0409002 2.0989
0.0638569 -0.0408699 2.09899
-0.022173 -0.0408351 2.04684
0.000603608 -0.0408005 2.0491
-0.261214 -0.0407804 1.90804
-0.218606 -0.0407461 1.92023
-0.177622 -0.040726 1.93059
-0.0657608 -0.040692 1.97742
-0.117701 -0.0406719 1.94134
0.0227794 -0.0406382 2.00249
0.0285352 -0.0406181 1.99529
-0.315119 -0.0405848 1.81439
0.00621197 -0.0405647 1.965
0.0534925 -0.0405317 1.97957
-0.00225992 -0.0405116 1.94167
-0.373182 -0.0404789 1.74714
-0.222756 -0.0404588 1.81236
-0.333911 -0.0404265 1.74772
-0.0872132 -0.0404064 1.8611
-0.104359 -0.0403864 1.84256
-0.0572567 -0.0403544 1.85708
-0.0265202 -0.0403344 1.86251
-0.17856 -0.0403027 1.77746
-0.199277 -0.0402827 1.75719
-0.251231 -0.0402515 1.72219
-0.223737 -0.0402314 1.72604
-0.0983638 -0.0402114 1.77885
-0.294934 -0.0401805 1.67156
-0.0799348 -0.0401605 1.76921
0.0900054 -0.04013 1.84517
0.00903429 -0.0401101 1.79486
-0.335997 -0.0400901 1.61253
-0.0976985 -0.04006 1.72268
-0.257404 -0.04004 1.63304
-0.376258 -0.04002 1.56383
-0.0255485 -0.0399903 1.73021
-0.272005 -0.0399704 1.59722
-0.146331 -0.0399411 1.65108
-0.0918707 -0.0399211 1.66858
-0.115912 -0.0399012 1.64683
-0.407573 -0.0398723 1.49203
-0.258641 -0.0398524 1.5568
-0.0953574 -0.0398325 1.62875
-0.417735 -0.039804 1.45861
-0.246903 -0.0397841 1.53436
-0.280262 -0.0397642 1.50803
-0.180068 -0.0397529 1.54776
-0.0969445 -0.0397262 1.58026
0.0020386 -0.0397064 1.62013
-0.266502 -0.0396865 1.47625
-0.270887 -0.0396589 1.46513
-0.162779 -0.039639 1.50959
-0.303474 -0.0396192 1.42967
-0.423026 -0.039592 1.36096
-0.237253 -0.0395722 1.4443
-0.331367 -0.0395523 1.3877
-0.320659 -0.0395256 1.38413
-0.167555 -0.0395058 1.45116
-0.0644874 -0.0394929 1.49258
-0.532559 -0.0394731 1.24905
-0.410989 -0.0394498 1.30066
-0.304314 -0.03943 1.34452
-0.319973 -0.0394102 1.32722
-0.232106 -0.0393904 1.3617
-0.0492427 -0.0393646 1.44423
-0.0487207 -0.0393448 1.43506
-0.217162 -0.0393251 1.34142
-0.208093 -0.0392997 1.33705
-0.128023 -0.0392856 1.36718
-0.283884 -0.0392701 1.27947
-0.243276 -0.0392504 1.2904
-0.132612 -0.0392254 1.33684
0.0703396 -0.0392057 1.42896
-0.190386 -0.039186 1.28925
-0.0810294 -0.0391663 1.33459
0.00781492 -0.0391419 1.37013
-0.158843 -0.0391269 1.27705
-0.352167 -0.0391123 1.1706
-0.190028 -0.0390927 1.24238
-0.34465 -0.039073 1.15578
-0.112439 -0.039049 1.26302
-0.0396987 -0.0390294 1.29013
-0.0838678 -0.0390097 1.25879
-0.307399 -0.0389901 1.13779
-0.17684 -0.0389704 1.19384
-0.308319 -0.0389568 1.11831
-0.26037 -0.0389371 1.13307
-0.243986 -0.0389175 1.13206
-0.330357 -0.0388979 1.07969
-0.200289 -0.0388749 1.13587
-0.0837572 -0.0388553 1.18497
-0.384251 -0.0388391 1.02524
-0.412317 -0.0388259 1.00143
-0.344017 -0.0388063 1.02644
-0.233497 -0.0387838 1.07287
-0.204239 -0.0387643 1.07838
-0.103671 -0.0387447 1.11956
-0.124048 -0.0387251 1.10027
-0.184797 -0.0387154 1.05984
-0.291715 -0.0386934 0.997551
-0.148755 -0.0386738 1.05996
-0.109362 -0.0386543 1.07061
-0.384389 -0.0386348 0.924047
-0.0677563 -0.0386153 1.07333
0.0813944 -0.0386035 1.1381
-0.398494 -0.038584 0.889136
-0.34075 -0.0385645 0.909002
-0.101904 -0.038545 1.01943
-0.153321 -0.0385255 0.984737
-0.321674 -0.038506 0.891587
-0.159309 -0.0384948 0.962962
-0.346347 -0.0384753 0.860487
-0.310243 -0.0384558 0.869594
-0.178329 -0.0384364 0.926616
-0.465059 -0.0384169 0.774327
-0.181927 -0.0384072 0.905966
-0.0660955 -0.0383867 0.955086
-0.0825988 -0.0383673 0.937939
-0.342396 -0.0383479 0.799155
-0.241925 -0.0383285 0.840516
-0.0820468 -0.0383101 0.911484
-0.229027 -0.0382994 0.828219
0.218602 -0.03828 1.04319
-0.084761 -0.03826 0.88273
-0.124417 -0.0382406 0.854077
-0.216397 -0.0382227 0.79911
-0.464335 -0.0382116 0.665458
-0.448129 -0.0381922 0.664764
-0.601233 -0.0381728 0.579426
-0.135544 -0.0381535 0.803495
-0.402966 -0.0381346 0.660964
-0.187635 -0.0381244 0.758884
-0.19439 -0.038105 0.746758
-0.414873 -0.0380857 0.627779
-0.317093 -0.0380664 0.667941
-0.311982 -0.0380567 0.660718
-0.12255 -0.0380374 0.746725
-0.264882 -0.0380181 0.666861
-0.171827 -0.0379988 0.7047
-0.556743 -0.0379795 0.503565
-0.00064549 -0.0379699 0.771873
-0.417765 -0.0379506 0.554655
0.0138555 -0.0379313 0.761817
-0.132123 -0.037912 0.680185
-0.270955 -0.0379024 0.601057
-0.373601 -0.0378831 0.541113
-0.271154 -0.0378638 0.583726
-0.5563 -0.0378446 0.432553
-0.411254 -0.037835 0.495393
-0.304744 -0.0378157 0.540066
-0.193723 -0.0377965 0.587005
-0.435955 -0.0377772 0.457328
-0.203509 -0.0377676 0.563897
-0.110501 -0.0377489 0.601794
-0.0954603 -0.0377297 0.60078
-0.138549 -0.0377105 0.570712
-0.101291 -0.0376913 0.580828
-0.354556 -0.0376817 0.444577
-0.375212 -0.0376625 0.425753
-0.0726163 -0.0376433 0.568566
-0.28595 -0.0376242 0.453424
-0.140867 -0.0376146 0.516376
-0.161043 -0.0375954 0.497831
-0.0162208 -0.0375762 0.561796
-0.219281 -0.0375677 0.450571
-0.0548484 -0.0375486 0.524357
-0.202919 -0.0375294 0.441902
-0.173902 -0.0375103 0.448
-0.269685 -0.0375008 0.390568
-0.122975 -0.0374816 0.455531
-0.027013 -0.0374625 0.49513
-0.216086 -0.0374434 0.392222
-0.229788 -0.0374338 0.375859
-0.367171 -0.0374147 0.298814
-0.309024 -0.0373956 0.319544
-0.378747 -0.0373766 0.276349
-0.324508 -0.037367 0.293985
-0.400716 -0.0373479 0.247566
-0.343683 -0.0373289 0.267776
-0.256918 -0.0373193 0.301696
-0.313554 -0.0373019 0.26489
0.00152823 -0.0372828 0.414153
-0.0702687 -0.0372638 0.369985
-0.364356 -0.0372543 0.213506
-0.0797123 -0.0372352 0.347577
0.0372711 -0.0372162 0.397827
-0.296709 -0.0372067 0.221422
-0.142595 -0.0371877 0.290256
-0.279497 -0.0371687 0.213591
-0.369764 -0.0371497 0.160254
-0.0702125 -0.0371402 0.300644
-0.220674 -0.0371212 0.217227
-0.130832 -0.0371022 0.253972
-0.256329 -0.0370927 0.181858
-0.235437 -0.0370737 0.184146
-0.16742 -0.0370548 0.210006
-0.219612 -0.0370453 0.174565
-0.229864 -0.0370263 0.161308
-0.126342 -0.0370074 0.204949
-0.284037 -0.0369884 0.117991
-0.116344 -0.0369789 0.19252
-0.306176 -0.03696 0.0895111
-0.084469 -0.0369411 0.192281
-0.152579 -0.0369316 0.14893
-0.127815 -0.0369127 0.153246
-0.0789046 -0.0368938 0.169646
-0.236411 -0.0368843 0.0816166
-0.446856 -0.0368654 -0.0316439
-0.390603 -0.0368465 -0.0115458
-0.2731 -0.0368371 0.0379503
-0.0933097 -0.0368182 0.119834
-0.106658 -0.0367993 0.105159
-0.291841 -0.0367899 0.00333262
-0.294176 -0.036771 -0.00581831
-0.347079 -0.0367522 -0.0402436
-0.0358973 -0.0367427 0.106132
0.00626085 -0.0367239 0.119255
-1.48703 -0.0266422 3.97197
-1.35337 -0.0266071 4.02781
-1.14639 -0.0265807 4.12024
-1.31945 -0.0265515 4.02271
-1.3503 -0.0265436 3.99604
-1.29865 -0.0265232 4.01079
-1.44153 -0.0265158 3.92811
-1.49329 -0.0265084 3.89101
-1.38096 -0.0265065 3.93588
-1.52153 -0.0264929 3.85447
-1.25479 -0.0264982 3.97644
-1.51456 -0.0264854 3.83543
-1.40726 -0.0264909 3.87768
-1.37218 -0.0264849 3.884
-1.15666 -0.0264846 3.98046
-1.34064 -0.0264847 3.87715
-1.55436 -0.0264905 3.75888
-1.39709 -0.0264852 3.82629
-1.18125 -0.026486 3.92288
-1.28423 -0.0264978 3.85986
-1.34085 -0.0264931 3.82032
-1.08367 -0.0265008 3.93744
-1.4197 -0.026507 3.75798
-1.20635 -0.0265091 3.85329
-1.20984 -0.0265154 3.84009
-1.36327 -0.0265282 3.75178
-1.80666 -0.0265244 3.51883
-1.27567 -0.0265374 3.77271
-1.07026 -0.0265405 3.86401
-1.5036 -0.0265538 3.63569
-1.26235 -0.0265606 3.74482
-1.31141 -0.0265711 3.70869
-1.20898 -0.026578 3.74838
-1.28451 -0.0265919 3.69892
-1.27842 -0.026606 3.69026
-1.18519 -0.0266202 3.72514
-1.32824 -0.0266249 3.64212
-1.05368 -0.0266321 3.76784
-1.11249 -0.0266467 3.72666
-1.37186 -0.0266615 3.58519
-1.04973 -0.0266764 3.73445
-1.16611 -0.0266915 3.66444
-1.10637 -0.0267067 3.68248
-1.24065 -0.0267221 3.60348
-1.11054 -0.0267376 3.65667
-1.0105 -0.0267532 3.6948
-1.3203 -0.0267691 3.52799
-1.01579 -0.026785 3.66832
-1.01441 -0.0268109 3.65676
-0.929206 -0.0268271 3.6874
-0.995768 -0.0268435 3.64213
-1.31434 -0.0268601 3.47084
-1.15494 -0.0268951 3.53792
-1.10782 -0.026912 3.54943
-0.90923 -0.026929 3.63665
-1.20651 -0.0269563 3.47557
-0.827011 -0.0269735 3.65321
-1.07587 -0.02701 3.51598
-1.04595 -0.0270469 3.5181
-1.09284 -0.0270753 3.48208
-1.24944 -0.0270932 3.39157
-0.866837 -0.027131 3.56991
-1.04972 -0.02718 3.46505
-0.922094 -0.0272209 3.51572
-0.879367 -0.0272526 3.52425
-0.929035 -0.0273089 3.48561
-0.969858 -0.0273587 3.4516
-0.68427 -0.0273901 3.58147
-0.940996 -0.0274582 3.4387
-0.69489 -0.0275265 3.54728
0.0181786 -0.0279201 2.27796
-0.0302333 -0.0278405 2.24965
-0.175658 -0.027805 2.16854
-0.110605 -0.0277649 2.19317
-0.0575649 -0.0277424 2.21007
-0.229419 -0.0277023 2.1163
-0.0611731 -0.0276798 2.19084
-0.0268382 -0.0276523 2.19896
-0.110034 -0.0276297 2.14784
-0.0313928 -0.0276072 2.17764
0.0521736 -0.0275795 2.21047
-0.140843 -0.0275569 2.10449
-0.354814 -0.0275291 1.9886
0.0724458 -0.0275182 2.19159
-0.0567171 -0.0274956 2.1176
-0.158864 -0.0274675 2.05772
-0.16494 -0.0274449 2.04531
-0.144624 -0.0274167 2.04671
-0.0737403 -0.0274052 2.07165
-0.150888 -0.0273826 2.02376
-0.030714 -0.0273542 2.07518
-0.242199 -0.0273316 1.96016
-0.162591 -0.0273181 1.98973
-0.0453858 -0.0272941 2.03925
0.0488463 -0.0272702 2.07729
-0.148248 -0.0272568 1.96856
-0.00957633 -0.0272263 2.02956
-0.0445748 -0.0272028 2.00301
-0.209918 -0.0271893 1.91019
0.0136282 -0.027166 2.01293
-0.160624 -0.0271525 1.91569
-0.261363 -0.0271293 1.85629
0.100703 -0.0271063 2.0283
-0.431828 -0.0270929 1.75196
-0.140762 -0.0270701 1.88848
-0.175008 -0.0270567 1.86131
-0.27663 -0.0270341 1.80149
-0.0192559 -0.0270207 1.92016
0.165413 -0.0269983 2.0035
-0.234393 -0.0269849 1.7936
0.0488701 -0.0269627 1.92625
0.0136361 -0.0269494 1.89866
-0.256776 -0.026936 1.7535
-0.022968 -0.026914 1.86144
-0.0183114 -0.0269006 1.85384
-0.246012 -0.0268789 1.73104
-0.0537795 -0.0268655 1.81724
-0.18139 -0.026844 1.7445
-0.173028 -0.0268307 1.73879
-0.0662378 -0.0268094 1.78325
-0.167675 -0.0267961 1.72267
-0.330845 -0.0267827 1.63124
-0.189096 -0.0267617 1.69319
-0.183039 -0.0267484 1.6864
-0.194199 -0.0267276 1.6719
-0.326794 -0.0267143 1.5958
-0.250191 -0.0267009 1.62432
-0.041717 -0.0266804 1.71966
-0.271617 -0.0266671 1.59494
-0.227041 -0.0266468 1.60833
-0.0949969 -0.0266335 1.66461
-0.203548 -0.0266202 1.60061
-0.00697853 -0.0266002 1.69001
-0.00996771 -0.0265869 1.67881
-0.303119 -0.0265736 1.52254
-0.166532 -0.0265539 1.58196
-0.483909 -0.0265406 1.4136
-0.378697 -0.0265273 1.45655
-0.18516 -0.0265079 1.54446
-0.0451437 -0.0264946 1.60483
-0.199653 -0.0264813 1.51795
-0.246893 -0.0264688 1.48463
-0.0182998 -0.0264555 1.58933
-0.265278 -0.0264423 1.45625
-0.198902 -0.0264234 1.48059
0.126002 -0.0264101 1.63347
-0.301816 -0.0263969 1.41001
-0.316824 -0.0263837 1.39296
-0.0817601 -0.026365 1.50166
-0.21547 -0.0263518 1.42528
-0.339855 -0.0263386 1.35358
-0.0719775 -0.0263202 1.4787
-0.287306 -0.026307 1.36154
-0.0529971 -0.0262989 1.46854
-0.110097 -0.0262872 1.43032
-0.496743 -0.0262692 1.22819
-0.164851 -0.026256 1.38469
-0.130902 -0.0262428 1.39223
-0.384057 -0.0262251 1.25685
-0.16013 -0.0262119 1.3594
-0.117328 -0.0261987 1.3714
-0.134419 -0.0261855 1.35346
0.0448706 -0.0261724 1.43373
-0.277938 -0.0261615 1.26263
0.00194879 -0.0261483 1.39322
-0.253587 -0.0261352 1.2561
-0.339807 -0.026118 1.20421
-0.300077 -0.0261049 1.21475
-0.317676 -0.0260918 1.19663
0.0281719 -0.0260786 1.36025
-0.19143 -0.0260655 1.24116
-0.390208 -0.0260552 1.13208
-0.161745 -0.0260421 1.23704
-0.261014 -0.026029 1.17814
-0.370837 -0.0260125 1.11446
-0.107534 -0.0259993 1.23687
-0.177314 -0.0259862 1.19275
-0.258065 -0.0259731 1.14315
-0.222414 -0.0259634 1.15129
-0.3701 -0.0259504 1.06823
-0.0158623 -0.0259373 1.23616
-0.473208 -0.0259242 0.998309
-0.0221244 -0.0259111 1.21468
-0.313616 -0.025898 1.05978
-0.0656864 -0.025885 1.1746
-0.0361686 -0.025875 1.17977
-0.40412 -0.0258626 0.986568
-0.341253 -0.0258495 1.00888
-0.474424 -0.0258365 0.933193
-0.180278 -0.0258209 1.07154
-0.18096 -0.0258079 1.06211
-0.31028 -0.0258 0.987599
-0.248695 -0.0257883 1.00913
-0.131001 -0.0257753 1.05892
-0.129763 -0.02576 1.05083
-0.0599574 -0.025747 1.0767
-0.293293 -0.025734 0.951006
-0.173055 -0.0257275 1.00112
-0.266148 -0.0257145 0.945571
-0.0333908 -0.0257015 1.05296
-0.211564 -0.0256866 0.955172
-0.419433 -0.0256736 0.842264
-0.220716 -0.0256606 0.93266
0.0128035 -0.0256541 1.03946
-0.104143 -0.0256411 0.972046
-0.356327 -0.0256265 0.837263
-0.0372306 -0.0256136 0.987889
-0.296301 -0.0256006 0.849441
-0.244178 -0.025591 0.866073
0.0786142 -0.0255811 1.01809
0.163529 -0.0255682 1.05166
-0.246221 -0.0255552 0.837912
-0.243595 -0.025541 0.830558
-0.328048 -0.0255308 0.779044
-0.265612 -0.0255216 0.800825
-0.304623 -0.0255086 0.772485
-0.413259 -0.0254957 0.709344
-0.0985892 -0.0254828 0.857866
0.0565597 -0.025471 0.926444
0.0314558 -0.0254624 0.904398
-0.179277 -0.0254495 0.790247
-0.150366 -0.0254366 0.795928
-0.361816 -0.0254237 0.681439
-0.455143 -0.0254172 0.62497
-0.183367 -0.0254043 0.752112
-0.254958 -0.0253914 0.707581
-0.161054 -0.0253779 0.745906
0.0855407 -0.0253656 0.860392
-0.206844 -0.0253586 0.704526
-0.0630996 -0.0253457 0.767702
-0.167266 -0.0253328 0.706933
-0.333752 -0.0253199 0.615014
-0.40153 -0.0253135 0.571385
-0.167137 -0.0253006 0.679923
-0.263176 -0.0252878 0.623257
-0.20019 -0.0252746 0.646156
-0.335702 -0.025262 0.569731
-0.398675 -0.0252554 0.528582
-0.117016 -0.0252425 0.660803
-0.191662 -0.0252297 0.614881
-0.263607 -0.0252168 0.57032
-0.347259 -0.0252104 0.518819
-0.0792971 -0.0251976 0.644229
-0.24857 -0.0251848 0.551033
-0.34666 -0.0251719 0.493438
-0.206893 -0.0251655 0.553676
0.119551 -0.0251527 0.708366
-0.295736 -0.0251399 0.492201
-0.0553792 -0.0251271 0.603868
-0.376309 -0.0251207 0.433787
-0.324024 -0.0251078 0.451436
-0.409237 -0.025095 0.400347
-0.296395 -0.0250822 0.448295
-0.217977 -0.0250758 0.477916
-0.547459 -0.0250631 0.304721
-0.329091 -0.0250503 0.405461
-0.0125698 -0.0250375 0.555287
-0.146289 -0.0250311 0.478868
-0.238824 -0.0250183 0.424184
-0.178593 -0.0250055 0.445894
-0.0885878 -0.0249928 0.482501
-0.217129 -0.0249864 0.4087
-0.375734 -0.0249736 0.32102
-0.14366 -0.024961 0.428656
-0.296483 -0.0249547 0.342734
-0.261149 -0.0249419 0.35205
0.0551622 -0.0249292 0.501865
-0.283979 -0.0249164 0.323964
-0.00977068 -0.0249101 0.451586
-0.302336 -0.0248973 0.296991
-0.148466 -0.0248846 0.365623
-0.0638392 -0.0248719 0.399644
-0.468435 -0.0248655 0.187893
-0.208703 -0.0248528 0.309485
-0.386309 -0.0248401 0.212417
-0.0372851 -0.0248337 0.377497
-0.298356 -0.024821 0.238714
-0.0627949 -0.0248083 0.348258
-0.168671 -0.0247956 0.287093
-0.24226 -0.0247893 0.240895
0.113614 -0.0247766 0.410623
-0.168068 -0.0247639 0.261584
-0.0846374 -0.0247576 0.293915
-0.0576178 -0.0247454 0.299135
-0.0527815 -0.0247328 0.29338
-0.242619 -0.0247264 0.189098
-0.382226 -0.0247138 0.11114
-0.159448 -0.0247011 0.214384
-0.132385 -0.0246885 0.219781
-0.277612 -0.0246821 0.137831
-0.276967 -0.0246695 0.130037
-0.0479112 -0.0246568 0.236457
-0.105959 -0.0246505 0.198118
-0.187191 -0.0246379 0.149413
-0.292115 -0.0246253 0.0888713
-0.166324 -0.0246189 0.142472
-0.204681 -0.0246063 0.115232
-0.268261 -0.0245937 0.0753896
-0.383937 -0.0245874 0.00827777
-0.0445422 -0.0245748 0.16994
-0.0946328 -0.0245622 0.13687
-0.256278 -0.0245559 0.0467938
-0.120441 -0.0245433 0.106705
-0.138756 -0.0245307 0.0895501
-0.505566 -0.0245244 -0.103088
-0.214336 -0.0245118 0.0345473
-0.0185172 -0.0244992 0.124486
-0.249991 -0.0244929 -0.000463102
-0.2463 -0.0244803 -0.00657068
-1.25916 -0.0133365 4.02861
-1.14246 -0.0133193 4.07602
-1.28311 -0.0133089 3.9946
-1.462 -0.0133051 3.8939
-1.42362 -0.013295 3.90201
-1.1978 -0.0132878 4.00378
-1.32192 -0.0132905 3.93029
-1.26945 -0.0132837 3.94538
-1.46534 -0.0132804 3.8362
-1.32457 -0.0132832 3.89514
-1.26726 -0.013277 3.91266
-1.47981 -0.0132799 3.79494
-1.2349 -0.0132769 3.90616
-1.40684 -0.013277 3.80884
-1.31575 -0.0132772 3.84303
-1.24055 -0.0132803 3.86917
-1.33424 -0.0132808 3.81096
-1.55443 -0.013287 3.68927
-1.38452 -0.0132845 3.76298
-1.24271 -0.0132909 3.82227
-1.47548 -0.0132886 3.69462
-1.36147 -0.0132951 3.73999
-1.00669 -0.0132962 3.90598
-1.53955 -0.0133029 3.62788
-1.21494 -0.0133043 3.77876
-1.29612 -0.0133077 3.72664
-1.32923 -0.0133146 3.69839
-1.33733 -0.0133215 3.68263
-1.0378 -0.0133198 3.8211
-1.48152 -0.0133268 3.5875
-1.10165 -0.013334 3.76568
-0.868973 -0.0133412 3.87026
-1.31368 -0.0133485 3.63611
-1.08584 -0.0133559 3.73823
-1.25933 -0.0133544 3.64016
-1.28703 -0.013362 3.61448
-1.10228 -0.0133695 3.69502
-1.03125 -0.0133772 3.71867
-0.935819 -0.0133849 3.75451
-0.912052 -0.0134019 3.75396
-1.29532 -0.0134098 3.5504
-1.012 -0.0134178 3.68012
-1.15521 -0.0134258 3.59656
-0.979556 -0.013434 3.67241
-1.20026 -0.0134475 3.54972
-1.16247 -0.0134557 3.5566
-1.05921 -0.0134641 3.5962
-1.26036 -0.0134821 3.48294
-0.929764 -0.0134906 3.63615
-1.02436 -0.0135046 3.57638
-0.670824 -0.013523 3.74035
-0.938657 -0.0135317 3.59428
-0.917618 -0.0135505 3.59192
-1.00448 -0.013575 3.53518
-1.06514 -0.013584 3.49261
-0.966614 -0.0136191 3.52771
-0.793471 -0.0136375 3.6013
-0.930124 -0.0136724 3.51873
0.225973 -0.0139154 2.29549
-0.0355209 -0.0138753 2.161
-0.160196 -0.0138482 2.09234
0.0226888 -0.0138365 2.17435
-0.163875 -0.0138159 2.0735
0.0913528 -0.0138042 2.19173
0.0795661 -0.0137925 2.17647
-0.22323 -0.013778 2.01631
0.00201093 -0.0137663 2.11961
-0.0865305 -0.0137458 2.06789
-0.0128754 -0.01374 2.09419
-0.00558481 -0.0137195 2.09043
-0.149732 -0.0137136 2.00789
-0.138877 -0.0136933 2.00595
0.0667853 -0.0136865 2.09853
-0.125312 -0.0136742 1.99345
0.235227 -0.0136619 2.16469
0.0774732 -0.0136497 2.0768
-0.1363 -0.0136429 1.95972
-0.00450184 -0.0136308 2.01662
-0.107427 -0.0136153 1.9569
0.129533 -0.0136033 2.0664
-0.00930379 -0.0135966 1.98685
-0.437728 -0.0135847 1.76367
-0.185458 -0.0135728 1.88084
-0.138093 -0.0135661 1.89443
-0.0678842 -0.0135543 1.92058
-0.0123218 -0.0135476 1.9383
-0.0569739 -0.013536 1.90704
0.0128086 -0.0135293 1.93189
-0.298533 -0.0135177 1.7673
-0.217167 -0.013511 1.79797
0.0737193 -0.0134995 1.93451
-0.424428 -0.0134928 1.67545
0.0254925 -0.0134814 1.89152
0.128279 -0.0134747 1.93295
0.0612822 -0.0134635 1.89057
-0.0227067 -0.0134568 1.83864
-0.144469 -0.0134456 1.76888
-0.122507 -0.0134389 1.76996
-0.0589444 -0.0134278 1.79287
-0.425728 -0.0134212 1.5996
-0.0985999 -0.0134102 1.75431
0.0259081 -0.0134035 1.8067
-0.239721 -0.0133927 1.66504
-0.118874 -0.013386 1.71563
-0.357538 -0.0133793 1.58647
-0.0110325 -0.0133686 1.7509
-0.0596848 -0.0133619 1.71678
-0.152816 -0.0133513 1.66139
-0.0565894 -0.0133447 1.69973
-0.153801 -0.013338 1.64136
-0.153279 -0.0133275 1.63281
-0.080348 -0.0133209 1.65954
-0.0754256 -0.0133105 1.6532
-0.285833 -0.0133039 1.53828
-0.341745 -0.0132972 1.50063
-0.290901 -0.013287 1.51726
-0.226029 -0.0132803 1.54002
0.116579 -0.0132737 1.70166
-0.0619566 -0.0132636 1.60361
-0.202536 -0.0132569 1.52368
0.115837 -0.0132503 1.67324
-0.351577 -0.0132403 1.43077
-0.108858 -0.0132337 1.54252
-0.290731 -0.0132304 1.44113
-0.190235 -0.0132206 1.48262
-0.304491 -0.0132139 1.41592
-0.165756 -0.0132073 1.47573
-0.462748 -0.0131976 1.31849
-0.22556 -0.013191 1.42754
-0.249767 -0.0131844 1.40591
0.0846146 -0.0131748 1.56436
-0.0799484 -0.0131682 1.47258
-0.413131 -0.0131616 1.29649
-0.325416 -0.013155 1.33087
-0.282151 -0.0131483 1.34303
-0.0959208 -0.0131422 1.42655
0.023464 -0.0131356 1.47679
-0.159099 -0.0131264 1.37679
-0.231607 -0.0131198 1.33111
-0.238799 -0.0131132 1.3181
-0.0211923 -0.0131066 1.4175
-0.439395 -0.0130974 1.19969
-0.185094 -0.0130908 1.31746
-0.181339 -0.0130843 1.30997
-0.236929 -0.0130802 1.27212
-0.19948 -0.013072 1.28194
-0.0211769 -0.0130654 1.36175
-0.0755184 -0.0130588 1.32525
0.0605058 -0.0130522 1.38395
-0.0264732 -0.0130434 1.33178
-0.313963 -0.0130368 1.17874
-0.0191449 -0.0130303 1.31686
-0.377454 -0.0130259 1.1278
-0.419495 -0.0130183 1.09782
-0.142145 -0.0130117 1.22724
-0.234178 -0.0130052 1.17198
-0.153071 -0.0129986 1.2033
-0.228837 -0.0129901 1.15676
-0.291967 -0.0129835 1.11598
-0.227816 -0.0129789 1.1383
-0.363218 -0.0129737 1.06102
-0.2498 -0.0129671 1.10855
-0.148301 -0.0129588 1.15066
-0.220996 -0.0129522 1.10515
-0.154078 -0.0129457 1.12946
-0.177641 -0.0129391 1.10855
-0.194804 -0.0129344 1.09031
-0.0836918 -0.0129277 1.1368
-0.368825 -0.0129211 0.98513
-0.146989 -0.0129146 1.08695
-0.00524985 -0.0129081 1.14874
-0.0373854 -0.0129015 1.12359
-0.154937 -0.012895 1.05575
-0.409187 -0.0128902 0.919048
-0.290076 -0.0128837 0.969558
-0.277974 -0.0128772 0.966575
-0.210079 -0.0128707 0.991499
-0.271504 -0.0128628 0.952187
-0.107751 -0.0128591 1.02419
-0.244523 -0.012853 0.946687
-0.273798 -0.0128465 0.923067
-0.00970983 -0.01284 1.04614
-0.456856 -0.0128335 0.813602
-0.0602598 -0.012827 1.00295
-0.336009 -0.0128225 0.855497
-0.406899 -0.012816 0.811119
-0.282762 -0.0128095 0.864265
-0.149228 -0.012803 0.92212
-0.225101 -0.0127965 0.875282
0.0224006 -0.0127912 0.989769
-0.332337 -0.0127858 0.8032
-0.275473 -0.0127793 0.82276
-0.248394 -0.0127728 0.827437
-0.149654 -0.0127663 0.867956
-0.0701254 -0.0127608 0.89855
-0.428739 -0.0127566 0.709707
-0.0696859 -0.0127492 0.880696
-0.41724 -0.0127427 0.698107
-0.101052 -0.0127363 0.847399
-0.109932 -0.012733 0.833123
-0.211097 -0.0127265 0.773758
-0.235669 -0.0127201 0.752699
-0.122611 -0.0127136 0.800466
-0.340941 -0.0127064 0.682787
-0.107481 -0.0127032 0.789718
-0.414325 -0.0126967 0.627562
-0.141224 -0.0126903 0.75539
-0.293197 -0.0126838 0.67069
-0.051373 -0.0126781 0.782664
0.0505448 -0.0126741 0.824098
-0.103927 -0.0126677 0.738178
-0.399486 -0.0126607 0.581913
-0.215094 -0.0126542 0.665444
-0.328638 -0.012651 0.59894
-0.114686 -0.0126446 0.697271
-0.0431439 -0.0126381 0.724407
-0.0655238 -0.0126317 0.704592
-0.175196 -0.0126285 0.640053
-0.0284909 -0.012622 0.704799
-0.021668 -0.0126152 0.69975
-0.227179 -0.0126088 0.588408
-0.464264 -0.0126033 0.460971
-0.282429 -0.0125992 0.54254
-0.262863 -0.0125927 0.543765
-0.236385 -0.0125863 0.548456
-0.274481 -0.0125803 0.520739
-0.365971 -0.0125767 0.465488
-0.22013 -0.0125703 0.52989
-0.22126 -0.0125639 0.520815
-0.21838 -0.0125578 0.513627
-0.225535 -0.012554 0.50065
-0.0430044 -0.0125476 0.583434
-0.239215 -0.0125412 0.476857
-0.25339 -0.0125354 0.461105
0.00356929 -0.0125316 0.580208
-0.342345 -0.0125252 0.398808
-0.210314 -0.0125188 0.456391
-0.405067 -0.0125156 0.349455
-0.329631 -0.0125092 0.378758
-0.241432 -0.0125028 0.414453
-0.167717 -0.0124964 0.442916
-0.370718 -0.0124932 0.331885
-0.251766 -0.0124869 0.382985
-0.252782 -0.0124804 0.374128
-0.260256 -0.0124741 0.362017
-0.328137 -0.0124709 0.318592
-0.256458 -0.0124645 0.346092
-0.300813 -0.0124581 0.315585
-0.229929 -0.0124549 0.341546
-0.069267 -0.0124486 0.413565
-0.273646 -0.0124422 0.303075
-0.115287 -0.0124358 0.373963
-0.047703 -0.0124326 0.398302
-0.345427 -0.0124263 0.241167
-0.127515 -0.0124199 0.341859
-0.139185 -0.0124167 0.326593
-0.173986 -0.0124104 0.300947
-0.142926 -0.012404 0.308241
-0.427788 -0.0123977 0.157585
-0.422176 -0.0123945 0.150988
-0.0523492 -0.0123882 0.327694
-0.25942 -0.0123818 0.215961
-0.135276 -0.0123786 0.268651
-0.162639 -0.0123723 0.246791
0.132874 -0.0123659 0.386379
-0.0135033 -0.0123628 0.303829
-0.148521 -0.0123564 0.228169
-0.200961 -0.0123501 0.193808
-0.429321 -0.0123437 0.0714971
-0.411669 -0.0123406 0.0709905
-0.336241 -0.0123342 0.100591
-0.0828386 -0.0123279 0.219189
-0.361962 -0.0123247 0.0703149
-0.454095 -0.0123184 0.0161628
-0.132932 -0.0123121 0.168669
-0.377062 -0.0123089 0.0373119
-0.179057 -0.0123026 0.128256
-0.401815 -0.0122963 0.00882909
-0.145425 -0.0122931 0.127753
-0.294925 -0.0122868 0.0449721
-0.418742 -0.0122805 -0.0249571
-0.359068 -0.0122773 -0.00437134
-0.383623 -0.012271 -0.0246519
-0.115044 -0.0122647 0.101645
-0.2132 -0.0122616 0.043336
-0.135175 -0.0122553 0.0743727
0.103039 -0.012249 0.185513
-0.257305 -0.0122458 -0.00386832
-0.203531 -0.0122396 0.0150418
-1.37184 0 3.90301
-1.44609 0 3.85499
-1.20581 0 3.96385
-1.18225 0 3.96455
-1.22644 0 3.9313
-1.31738 0 3.87434
-1.19079 0 3.92648
-1.18864 0 3.91629
-1.52866 0 3.7349
-1.43383 0 3.77081
-1.25755 0 3.84768
-1.53305 0 3.69854
-0.935379 0 3.98586
-1.27593 0 3.80418
-1.16461 0 3.84843
-1.26331 0 3.78755
-1.24501 0 3.78512
-1.10175 0 3.84521
-1.48489 0 3.64193
-1.04029 0 3.85294
-1.17569 0 3.77351
-0.936129 0 3.88154
-1.17206 0 3.75209
-1.21418 0 3.71944
-1.15329 0 3.7381
-1.08478 0 3.76055
-1.02648 0 3.77789
-1.33464 0 3.61197
-1.31636 0 3.60926
-0.950103 0 3.78052
-1.25642 0 3.61548
-1.24788 0 3.60784
-1.03 0 3.70486
-1.06736 0 3.67424
-1.1027 0 3.64461
-0.912947 0 3.72752
-1.11779 0 3.61275
-1.0205 0 3.64939
-1.23114 0 3.53141
-1.06002 0 3.60491
-0.972638 0 3.63587
-1.16476 0 3.52732
-0.788581 0 3.70328
-1.22458 0 3.47176
-0.73075 0 3.70609
-1.01658 0 3.54953
-0.851871 0 3.61735
0.0527903 0 2.13145
0.152786 0 2.17349
-0.0344959 0 2.07253
0.0408815 0 2.10099
-0.0507164 0 2.04792
-0.00255232 0 2.06476
0.103011 0 2.10846
-0.00888571 0 2.04351
-0.0117545 0 2.03309
0.00502613 0 2.03323
0.119753 0 2.08163
-0.22155 0 1.90203
0.0755006 0 2.04161
-0.0749295 0 1.95622
-0.0963056 0 1.93661
0.0303422 0 1.99102
-0.130809 0 1.90229
-0.155009 0 1.88129
0.0126316 0 1.95501
-0.0952168 0 1.8922
0.239463 0 2.05067
-0.0344876 0 1.90364
-0.10771 0 1.85816
-0.131576 0 1.8362
-0.0734915 0 1.8564
-0.156462 0 1.80607
-0.420814 0 1.66391
0.057164 0 1.89407
-0.432822 0 1.63912
-0.241014 0 1.72621
-0.25135 0 1.7111
-0.249495 0 1.70323
-0.108957 0 1.76359
-0.132201 0 1.74318
0.0636642 0 1.83123
-0.0973803 0 1.74193
-0.183679 0 1.68892
-0.0876276 0 1.72817
-0.276882 0 1.62371
-0.301447 0 1.60161
-0.170781 0 1.6582
0.0471687 0 1.75738
0.0605852 0 1.75534
-0.29531 0 1.56762
-0.125101 0 1.64399
-0.369817 0 1.51189
-3.95643e-05 0 1.68705
-0.168929 0 1.59388
-0.154931 0 1.59117
-0.10544 0 1.60721
-0.23699 0 1.53175
-0.269642 0 1.50575
-0.126782 0 1.56848
-0.0268252 0 1.60881
-0.0981435 0 1.56352
-0.231193 0 1.48831
-0.294632 0 1.44698
-0.135788 0 1.5168
0.0372771 0 1.5938
-0.197475 0 1.46685
-0.0384401 0 1.53679
-0.140204 0 1.47725
-0.128546 0 1.47354
-0.141478 0 1.45754
0.0514154 0 1.54533
0.228803 0 1.62452
-0.108913 0 1.44616
-0.211639 0 1.38616
-0.296515 0 1.33425
-0.228979 0 1.35855
-0.0863291 0 1.42042
-0.230107 0 1.33902
-0.299896 0 1.2947
0.0647352 0 1.46759
-0.319533 0 1.26684
-0.289706 0 1.27236
-0.150522 0 1.33256
0.0642447 0 1.43057
-0.0598877 0 1.35991
-0.14479 0 1.30734
-0.270588 0 1.23495
-0.0359666 0 1.34293
-0.0971106 0 1.30377
-0.116732 0 1.28465
-0.215828 0 1.2258
-0.418687 0 1.11508
-0.220479 0 1.20562
-0.180739 0 1.21551
-0.122798 0 1.235
-0.190174 0 1.19207
-0.286439 0 1.13538
-0.392958 0 1.07289
0.10558 0 1.31295
-0.273421 0 1.11425
-0.396526 0 1.0435
-0.37414 0 1.04521
-0.0268245 0 1.20969
-0.160127 0 1.13388
-0.348122 0 1.03073
-0.0489473 0 1.17179
-0.267498 0 1.05339
-0.271335 0 1.04174
-0.128577 0 1.10366
-0.208095 0 1.0548
-0.0975215 0 1.10157
-0.346615 0 0.96795
-0.343587 0 0.960399
-0.254154 0 0.995485
-0.0851043 0 1.07056
-0.205314 0 1.00195
-0.206794 0 0.992189
-0.194457 0 0.989344
0.0672561 0 1.1112
-0.0956105 0 1.02023
-0.205282 0 0.955954
-0.113101 0 0.99357
-0.170725 0 0.955795
-0.211168 0 0.926621
-0.335162 0 0.855683
-0.190574 0 0.918034
-0.410757 0 0.799478
-0.0863762 0 0.952757
-0.275117 0 0.849485
-0.380216 0 0.788044
-0.319714 0 0.80839
-0.310258 0 0.804246
-0.118861 0 0.891083
-0.351663 0 0.766248
-0.211026 0 0.827726
-0.244148 0 0.801299
-0.243469 0 0.792816
-0.127821 0 0.841828
-0.240659 0 0.776608
-0.236875 0 0.770083
-0.0564559 0 0.850465
-0.196573 0 0.771634
-0.0944798 0 0.813919
-0.256093 0 0.724361
-0.191842 0 0.747371
-0.2465 0 0.710625
-0.43707 0 0.606618
-0.196277 0 0.718631
-0.120837 0 0.74765
-0.381879 0 0.607367
-0.162972 0 0.708137
-0.14478 0 0.708561
-0.411038 0 0.566769
-0.121725 0 0.702445
-0.272769 0 0.617527
-0.367121 0 0.561998
-0.153613 0 0.660128
-0.191147 0 0.632748
-0.137867 0 0.649693
-0.265754 0 0.577154
-0.234145 0 0.584374
-0.311028 0 0.537358
-0.105412 0 0.6305
-0.0505242 0 0.649388
-0.35041 0 0.490899
-0.431949 0 0.441823
-0.248988 0 0.523667
-0.385444 0 0.446921
-0.126052 0 0.568109
-0.116328 0 0.564474
-0.069487 0 0.578286
-0.152124 0 0.528488
-0.301096 0 0.445534
-0.322329 0 0.426458
-0.285931 0 0.435078
0.052767 0 0.595986
-0.517071 0 0.302812
-0.20558 0 0.449962
-0.288585 0 0.399084
-0.410636 0 0.329655
-0.418822 0 0.31717
-0.391538 0 0.321282
-0.221644 0 0.397854
-0.210487 0 0.395069
-0.415968 0 0.283974
-0.316753 0 0.32408
-0.233561 0 0.35734
-0.41326 0 0.259164
-0.206978 0 0.353821
-0.218881 0 0.338566
-0.292408 0 0.293504
-0.294998 0 0.284035
-0.285702 0 0.279232
-0.266117 0 0.280753
-0.165124 0 0.322988
-0.214011 0 0.290019
-0.0739072 0 0.350923
-0.405313 0 0.176987
-0.12738 0 0.30773
-0.255841 0 0.234098
-0.122515 0 0.292555
-0.300567 0 0.195334
-0.00056906 0 0.335951
-0.236399 0 0.209859
-0.262636 0 0.188573
-0.187576 0 0.217842
-0.209985 0 0.197388
-0.418677 0 0.0849018
-0.240892 0 0.165665
-0.508202 0 0.0226773
-0.139923 0 0.198705
-0.0686136 0 0.226257
-0.19231 0 0.155097
-0.245293 0 0.120521
-0.253466 0 0.10836
0.0532959 0 0.25245
-0.193466 0 0.121012
-0.0975099 0 0.160943
-0.282481 0 0.0591861
-0.335678 0 0.0245584
-0.230186 0 0.0692848
-0.507806 0 -0.0787754
-0.351363 0 -0.00855606
-0.339759 0 -0.0107463
-0.273302 0 0.0132524
-0.255005 0 0.0144262
0.119353 0 0.193641
-0.192638 0 0.0284354
-0.323826 0 -0.0450776
-1.08984 0.0134296 3.96173
-1.26848 0.0134102 3.86167
-1.25589 0.0134004 3.85688
-1.2733 0.0133908 3.83711
-1.25424 0.0133876 3.83533
-1.22423 0.0133877 3.83889
-1.33307 0.0133847 3.77316
-1.22433 0.013385 3.81608
-1.24622 0.0133855 3.79368
-1.27589 0.0133861 3.76738
-1.33558 0.0133896 3.72594
-1.22133 0.0133904 3.77159
-1.09947 0.0133939 3.82092
-0.968484 0.0134009 3.87463
-1.31948 0.013402 3.68764
-1.1236 0.0134055 3.77395
-1.27806 0.0134128 3.6849
-1.16153 0.0134201 3.73133
-1.02467 0.0134252 3.78803
-1.15816 0.013429 3.70962
-1.27937 0.0134365 3.63713
-1.48732 0.0134442 3.52126
-1.01691 0.0134578 3.74422
-1.17665 0.0134655 3.65242
-1.46426 0.0134734 3.49666
-0.884681 0.0134813 3.77448
-1.07038 0.0134992 3.66905
-1.16092 0.0135073 3.61177
-1.02426 0.0135214 3.66771
-0.898354 0.0135296 3.7186
-0.827052 0.0135582 3.74091
-1.17332 0.0135725 3.55529
-0.787574 0.0136075 3.73433
0.0329279 0.0137855 2.04859
-0.0639567 0.0137569 1.99456
-0.0545163 0.0137441 1.99032
0.310809 0.0137218 2.1661
-0.0699885 0.0137029 1.96809
-0.338462 0.0136902 1.82495
0.106624 0.0136775 2.03859
-0.242911 0.0136615 1.85568
-0.419297 0.0136489 1.75862
0.00606782 0.0136363 1.96244
-0.1965 0.0136238 1.85231
-0.0896087 0.0136114 1.89691
0.00191769 0.013599 1.93384
0.0420412 0.0135833 1.94584
0.148562 0.0135766 1.98902
0.307792 0.0135643 2.05983
-0.126598 0.0135521 1.83384
-0.425533 0.01354 1.67558
-0.340551 0.0135333 1.70805
-0.0889393 0.0135212 1.82509
-0.148468 0.0135145 1.78533
-0.0294619 0.0135025 1.83608
-0.150414 0.0134907 1.76685
-0.111579 0.013484 1.77632
-0.225828 0.0134722 1.71046
-0.0649656 0.0134655 1.78096
-0.358331 0.0134537 1.62556
-0.109855 0.013447 1.7399
-0.255099 0.0134354 1.65857
0.0416132 0.0134287 1.79705
-0.211449 0.0134172 1.66183
-0.119844 0.0134105 1.69778
-0.0477179 0.0133991 1.72516
-0.235755 0.0133924 1.62132
0.000264651 0.0133811 1.73066
-0.107749 0.0133744 1.66686
-0.243898 0.0133632 1.59012
-0.153298 0.0133565 1.62565
-0.0148519 0.0133454 1.68622
-0.16291 0.0133387 1.60245
-0.0147768 0.013332 1.66678
-0.126182 0.013321 1.60245
-0.218593 0.0133144 1.54653
-0.134376 0.0133035 1.58001
-0.027724 0.0132968 1.62366
-0.0820313 0.0132901 1.58684
0.0212701 0.0132794 1.62988
-0.042713 0.0132727 1.58824
-0.146335 0.0132621 1.52782
-0.311785 0.0132554 1.43548
-0.434311 0.0132488 1.36461
-0.206874 0.0132382 1.46973
-0.250153 0.0132316 1.43851
-0.188508 0.0132282 1.45889
-0.169034 0.0132178 1.46005
0.0157157 0.0132112 1.54288
-0.207611 0.0132046 1.42167
-0.250117 0.0131943 1.39186
-0.258646 0.0131876 1.37808
-0.32738 0.013181 1.3342
-0.270308 0.0131708 1.35419
-0.164632 0.0131642 1.39754
-0.289489 0.0131576 1.32565
-0.0034691 0.0131476 1.46011
-0.0499266 0.013141 1.42744
-0.0236533 0.0131376 1.43025
-0.352628 0.013131 1.25633
0.154058 0.0131211 1.50115
0.0924998 0.0131145 1.46097
-0.380096 0.0131079 1.21528
-0.356126 0.0130982 1.21875
-0.232898 0.0130916 1.271
-0.20164 0.013085 1.27727
-0.150972 0.0130784 1.29326
-0.108287 0.013072 1.30519
-0.191041 0.0130654 1.25448
-0.201289 0.0130588 1.24005
-0.295894 0.0130523 1.18344
-0.0477295 0.0130428 1.29904
-0.14678 0.0130362 1.24024
-0.417363 0.0130296 1.09568
-0.342525 0.013023 1.12384
-0.0927865 0.013017 1.2393
-0.126366 0.0130104 1.21327
-0.257504 0.0130038 1.13848
-0.20098 0.0129973 1.15752
-0.117442 0.0129881 1.19084
-0.276333 0.0129815 1.1022
-0.112253 0.0129749 1.17506
-0.0294375 0.0129717 1.20634
-0.233478 0.0129651 1.09515
-0.188412 0.0129561 1.10926
-0.377954 0.0129495 1.00534
0.0770336 0.0129429 1.22371
-0.123288 0.0129364 1.11443
-0.150825 0.0129323 1.09082
-0.186576 0.0129242 1.06429
0.0912527 0.0129177 1.19412
-0.203249 0.0129111 1.03779
-0.412873 0.0129046 0.923909
-0.298738 0.0128959 0.972576
-0.335968 0.0128915 0.944258
-0.385489 0.0128861 0.910132
-0.0848395 0.0128795 1.05143
-0.20134 0.012873 0.984164
-0.345245 0.0128644 0.903827
-0.366195 0.0128579 0.884358
-0.122436 0.0128546 0.996254
-0.335094 0.0128481 0.88095
-0.270632 0.0128416 0.904216
-0.190653 0.0128351 0.935252
-0.382931 0.0128267 0.830754
-0.0450026 0.012822 0.990201
-0.117213 0.0128169 0.944744
0.00406617 0.0128104 0.99647
-0.413005 0.0128039 0.779032
-0.305086 0.0127974 0.824099
0.222363 0.0127891 1.07949
-0.304378 0.0127859 0.80622
-0.150308 0.0127794 0.874392
-0.238079 0.0127729 0.821655
-0.238206 0.0127664 0.81275
-0.217034 0.0127599 0.814505
-0.274117 0.0127566 0.776103
-0.332834 0.0127486 0.73844
-0.40307 0.0127421 0.69452
-0.174123 0.0127356 0.800202
-0.154582 0.0127307 0.800684
-0.192304 0.0127258 0.772509
-0.0535514 0.0127194 0.833123
-0.266602 0.0127115 0.718311
-0.123808 0.012705 0.780968
-0.118929 0.0127017 0.773615
-0.061427 0.0126953 0.793644
-0.283859 0.0126888 0.673716
-0.0762345 0.0126823 0.768826
-0.142656 0.0126759 0.726924
-0.177499 0.0126726 0.699748
-0.281477 0.0126649 0.639508
-0.0692223 0.0126584 0.736973
-0.13429 0.012652 0.695787
-0.403558 0.0126488 0.551428
-0.51747 0.0126423 0.485839
0.007785 0.0126359 0.739843
-0.191421 0.0126294 0.631627
-0.2293 0.0126262 0.602992
-0.0606293 0.0126197 0.678733
-0.297517 0.0126122 0.55208
-0.177164 0.0126057 0.603683
-0.0413114 0.0126016 0.662247
-0.211877 0.0125961 0.568104
-0.203867 0.0125897 0.563564
-0.235661 0.0125832 0.539132
0.028709 0.0125779 0.662417
-0.396282 0.0125736 0.440668
0.0969732 0.0125671 0.678788
-0.217382 0.0125607 0.513114
-0.163883 0.0125566 0.530582
-0.150159 0.0125501 0.528966
