ply
format ascii 1.0
comment Created by Open3D
element vertex 1756
property double x
property double y
property double z
end_header
-0.400928 0.507915 0.883653
-0.516802 0.50803 0.814248
-0.655934 0.508094 0.733595
-0.620216 0.508173 0.740255
-0.406986 0.508318 0.835152
-0.613664 0.50843 0.720347
-0.470238 0.508565 0.780407
-0.342584 0.508783 0.831923
-0.459413 0.508964 0.761485
-0.378755 0.509205 0.789306
-0.367473 0.509471 0.782226
-0.572538 0.509758 0.666803
-0.315768 0.510064 0.782128
-0.434654 0.51039 0.709457
-0.418624 0.510735 0.704076
-0.344464 0.511243 0.726441
-0.435355 0.511636 0.66718
-0.299034 0.512089 0.721026
-0.253453 0.512881 0.726746
-0.428607 0.513581 0.622808
-0.329552 0.514315 0.655669
-0.0864418 0.515574 0.756244
-0.306007 0.517453 0.620372
-0.413877 0.535289 1.15638
-0.511062 0.532214 1.11785
-0.232531 0.530988 1.25467
-0.506571 0.529489 1.11712
-0.5808 0.528667 1.07489
-0.398802 0.528125 1.15887
-0.396188 0.527216 1.15572
-0.49969 0.526434 1.09867
-0.491873 0.525925 1.09541
-0.509902 0.525427 1.07918
-0.539049 0.524702 1.05899
-0.566539 0.524235 1.03785
-0.52655 0.523782 1.05037
-0.572327 0.523561 1.01838
-0.459544 0.523232 1.06645
-0.586212 0.522818 0.995412
-0.392832 0.522421 1.08429
-0.566362 0.52214 0.988907
-0.498847 0.52178 1.01463
-0.438646 0.521607 1.03536
-0.489426 0.52137 1.00106
-0.592058 0.521152 0.940713
-0.51276 0.520862 0.971865
-0.572758 0.520815 0.93161
-0.594605 0.520557 0.911973
-0.454817 0.520409 0.972356
-0.39558 0.520386 0.991557
-0.59603 0.520269 0.881607
-0.499376 0.520177 0.920032
-0.583695 0.520093 0.867912
-0.54658 0.520031 0.876349
-0.585371 0.520048 0.846246
-0.535101 0.519991 0.861226
-0.443453 0.520013 0.896309
-0.367558 0.520057 0.923353
-0.416939 0.52003 0.888282
-0.388168 0.520136 0.891292
-0.454563 0.520207 0.846983
-0.447095 0.520282 0.839564
-0.460268 0.52038 0.821655
-0.388272 0.520568 0.845633
-0.620645 0.520712 0.717762
-0.43159 0.520889 0.80034
-0.365262 0.521067 0.821549
-0.280941 0.521329 0.851096
-0.389302 0.521586 0.784329
-0.361066 0.521875 0.785605
-0.564084 0.522184 0.671085
-0.362329 0.522579 0.758272
-0.44763 0.522941 0.702171
-0.471364 0.523372 0.6763
-0.439634 0.523929 0.677158
-0.418329 0.524531 0.672427
-0.376478 0.52503 0.678752
-0.33152 0.525742 0.684934
-0.223184 0.526706 0.720776
-0.259845 0.528008 0.681406
-0.31233 0.53021 0.626906
-0.349672 0.545905 1.20261
-0.608725 0.543969 1.07512
-0.53513 0.542715 1.10948
-0.52699 0.541586 1.11033
-0.516973 0.540635 1.11096
-0.57609 0.539813 1.0762
-0.496483 0.539275 1.10891
-0.466002 0.538484 1.11879
-0.443681 0.537859 1.12351
-0.564673 0.537111 1.05742
-0.503299 0.536868 1.07909
-0.49332 0.536501 1.07593
-0.582838 0.53604 1.02369
-0.560459 0.535593 1.0273
-0.640863 0.535164 0.97943
-0.393265 0.534751 1.09546
-0.588002 0.53446 0.989487
-0.591592 0.534084 0.979696
-0.560337 0.533904 0.985976
-0.418574 0.533657 1.04798
-0.692118 0.533331 0.902897
-0.491578 0.533123 0.994036
-0.58868 0.532979 0.935915
-0.50088 0.532801 0.970485
-0.594415 0.532644 0.914249
-0.525217 0.532528 0.939097
-0.674374 0.532403 0.854831
-0.611927 0.5323 0.876216
-0.552467 0.532213 0.895997
-0.58215 0.532144 0.871078
-0.5555 0.53216 0.87371
-0.641243 0.532125 0.820524
-0.477639 0.532113 0.891843
-0.619741 0.532124 0.810139
-0.392032 0.532178 0.913026
-0.624024 0.532224 0.78612
-0.48917 0.532294 0.842455
-0.644748 0.532375 0.753491
-0.574061 0.532536 0.777072
-0.437866 0.532651 0.833734
-0.4857 0.532791 0.798197
-0.485355 0.533023 0.786051
-0.444977 0.53321 0.794256
-0.406299 0.533476 0.801005
-0.375981 0.533696 0.803918
-0.495359 0.534001 0.731328
-0.386381 0.534327 0.772749
-0.530838 0.534673 0.687286
-0.276424 0.535038 0.801093
-0.363464 0.53557 0.742897
-0.547299 0.536039 0.636764
-0.487713 0.536646 0.651266
-0.429207 0.537297 0.664862
-0.325622 0.538083 0.699936
-0.349788 0.539079 0.66948
-0.212876 0.540424 0.716837
-0.351815 0.542692 0.619055
-0.533238 0.560185 1.11142
-0.522258 0.556959 1.12695
-0.58862 0.555675 1.09131
-0.508929 0.554517 1.12792
-0.551904 0.553537 1.10209
-0.685032 0.55229 1.03296
-0.483203 0.551737 1.12678
-0.546855 0.550925 1.08961
-0.542091 0.550396 1.08479
-0.536667 0.549879 1.08025
-0.495125 0.549374 1.09371
-0.48374 0.548882 1.09202
-0.563895 0.548405 1.04448
-0.647539 0.547943 0.995115
-0.676018 0.547498 0.973236
-0.545651 0.54718 1.02994
-0.510512 0.546769 1.03967
-0.459925 0.546378 1.05701
-0.437499 0.546189 1.05889
-0.545764 0.545933 0.995909
-0.622886 0.545591 0.949087
-0.517334 0.545374 0.992766
-0.531748 0.545222 0.976017
-0.641649 0.545035 0.911774
-0.513643 0.54477 0.967029
-0.659895 0.544744 0.883506
-0.702787 0.54461 0.852417
-0.563774 0.544404 0.912789
-0.592087 0.544404 0.888064
-0.458335 0.544316 0.944987
-0.546427 0.544251 0.890833
-0.520783 0.544208 0.893386
-0.531096 0.54419 0.877796
-0.526269 0.544232 0.86934
-0.523294 0.544249 0.860145
-0.64658 0.544289 0.787646
-0.538005 0.544359 0.830862
-0.481899 0.544435 0.847798
-0.433867 0.544601 0.86005
-0.408746 0.544712 0.861236
-0.423309 0.544847 0.842398
-0.617542 0.545007 0.733541
-0.415997 0.545264 0.82186
-0.548849 0.545541 0.742825
-0.562879 0.545773 0.723521
-0.456248 0.546065 0.764093
-0.429087 0.546372 0.764812
-0.510334 0.546743 0.710845
-0.527793 0.547184 0.688235
-0.403058 0.547647 0.736548
-0.386179 0.54823 0.73002
-0.480393 0.548736 0.668492
-0.251686 0.549393 0.767279
-0.367526 0.550145 0.693059
-0.339843 0.551157 0.68861
-0.290768 0.552526 0.692134
-0.00441827 0.555434 0.80262
-0.394042 0.570673 1.1952
-0.70045 0.568645 1.04402
-0.593844 0.567334 1.09487
-0.413893 0.566452 1.1797
-0.315968 0.565165 1.22614
-0.498694 0.564594 1.12771
-0.522117 0.563753 1.1107
-0.698302 0.56281 1.01799
-0.70201 0.562278 1.0089
-0.599111 0.561757 1.05305
-0.411654 0.561251 1.13941
-0.644028 0.560758 1.01579
-0.531519 0.560281 1.06452
-0.65698 0.55982 0.994178
-0.689639 0.559492 0.969383
-0.614446 0.559066 0.999173
-0.55429 0.558659 1.02133
-0.510432 0.558463 1.03396
-0.590087 0.558197 0.985305
-0.664529 0.55784 0.939871
-0.596609 0.557612 0.964765
-0.626646 0.557453 0.940232
-0.608176 0.557256 0.940211
-0.467465 0.556977 1.00188
-0.564882 0.556948 0.942783
-0.546274 0.556704 0.943173
-0.533545 0.556585 0.939783
-0.639001 0.556484 0.877176
-0.704929 0.5564 0.834227
-0.744453 0.556338 0.804325
-0.562296 0.5563 0.885103
-0.526632 0.556336 0.892124
-0.57146 0.556286 0.859496
-0.467509 0.556296 0.900839
-0.366453 0.556419 0.939952
-0.612547 0.556401 0.806465
-0.438405 0.556472 0.882476
-0.546503 0.556652 0.816601
-0.423021 0.556771 0.866934
-0.62485 0.55688 0.754677
-0.429713 0.557036 0.840567
-0.58203 0.557295 0.751998
-0.35286 0.5575 0.854546
-0.59439 0.557803 0.721032
-0.626337 0.558056 0.692659
-0.50211 0.558437 0.741438
-0.390567 0.55884 0.78371
-0.469804 0.559228 0.730686
-0.496981 0.559699 0.703071
-0.467533 0.560224 0.703365
-0.365141 0.56092 0.738865
-0.410078 0.561601 0.700784
-0.319286 0.562381 0.729811
-0.363207 0.563429 0.689498
-0.393166 0.564593 0.655266
-0.223534 0.56727 0.709647
-0.340126 0.585 1.22285
-0.29446 0.58236 1.25115
-0.523296 0.580282 1.1388
-0.509476 0.579379 1.14055
-0.566271 0.578054 1.10966
-0.3806 0.577174 1.19727
-0.414246 0.576181 1.17596
-0.676096 0.575617 1.03789
-0.562969 0.575064 1.08725
-0.574209 0.574255 1.07608
-0.561221 0.573732 1.07523
-0.707707 0.573223 0.994568
-0.475552 0.57273 1.10315
-0.481392 0.572253 1.09265
-0.50488 0.571793 1.07324
-0.427019 0.571351 1.1044
-0.538498 0.570928 1.04078
-0.643885 0.570724 0.978801
-0.629473 0.570448 0.977203
-0.573031 0.570076 0.997256
-0.527903 0.569839 1.01078
-0.619696 0.569672 0.955399
-0.609292 0.569355 0.952105
-0.504464 0.569171 0.995158
-0.527652 0.569032 0.973906
-0.739077 0.568882 0.858626
-0.500982 0.568753 0.967963
-0.623955 0.568544 0.897308
-0.669987 0.568552 0.863681
-0.493429 0.568463 0.941995
-0.763752 0.568406 0.796662
-0.693448 0.568372 0.821482
-0.587942 0.568363 0.863741
-0.581177 0.568379 0.856461
-0.634505 0.568419 0.818966
-0.389434 0.568495 0.93043
-0.594777 0.568572 0.816671
-0.437139 0.568665 0.884296
-0.747867 0.56878 0.717583
-0.522692 0.56892 0.818641
-0.484951 0.569125 0.825524
-0.581837 0.569302 0.765292
-0.446138 0.569503 0.821168
-0.453117 0.569809 0.804974
-0.508702 0.570059 0.764849
-0.525087 0.57041 0.743613
-0.443478 0.570855 0.7707
-0.553742 0.571246 0.702211
-0.466246 0.571736 0.731894
-0.309622 0.57225 0.795953
-0.474852 0.57289 0.698166
-0.404661 0.573641 0.717281
-0.341357 0.574433 0.732629
-0.304293 0.575494 0.73291
-0.444579 0.576876 0.642172
-0.325772 0.579347 0.673096
-0.437103 0.595665 1.18675
-0.573168 0.593686 1.11987
-0.419248 0.592316 1.19435
-0.312237 0.590956 1.24537
-0.540789 0.589914 1.12672
-0.633711 0.589024 1.07499
-0.676272 0.58844 1.04659
-0.464204 0.58745 1.14803
-0.546244 0.586893 1.09977
-0.429939 0.586081 1.15229
-0.714135 0.585557 1.00279
-0.619151 0.585048 1.04281
-0.560613 0.584556 1.06453
-0.575749 0.58408 1.04932
-0.747698 0.583623 0.955603
-0.582965 0.583184 1.03013
-0.485617 0.583096 1.06876
-0.66211 0.582687 0.972508
-0.498083 0.582299 1.0464
-0.616953 0.582052 0.977953
-0.60108 0.581877 0.976428
-0.650317 0.581545 0.943365
-0.76684 0.581352 0.875777
-0.612075 0.581067 0.944431
-0.632135 0.581046 0.923974
-0.43594 0.580798 1.01312
-0.67435 0.580685 0.884094
-0.607593 0.580583 0.907582
-0.520705 0.580506 0.940976
-0.655846 0.580453 0.863201
-0.529843 0.580487 0.915426
-0.613884 0.580369 0.863637
-0.631821 0.580378 0.844056
-0.714164 0.580442 0.791911
-0.597534 0.580489 0.839365
-0.512463 0.580561 0.870867
-0.495143 0.580654 0.868353
-0.46816 0.580764 0.870553
-0.619477 0.580899 0.783424
-0.588028 0.581111 0.787162
-0.46572 0.581284 0.836588
-0.390256 0.581482 0.862411
-0.645769 0.581789 0.721992
-0.405615 0.582037 0.829803
-0.507099 0.582391 0.766063
-0.497985 0.582767 0.75746
-0.613946 0.583219 0.685779
-0.570334 0.583656 0.693973
-0.55011 0.58425 0.689376
-0.374527 0.584894 0.762084
-0.309064 0.585588 0.779368
-0.401495 0.586394 0.716898
-0.460321 0.58724 0.670918
-0.299168 0.58887 0.729416
-0.159632 0.591102 0.772821
-0.40102 0.607288 1.211
-0.538017 0.605577 1.14183
-0.514839 0.603869 1.15279
-0.416934 0.602798 1.19739
-0.443299 0.601881 1.17896
-0.609395 0.60084 1.09144
-0.565032 0.600252 1.10647
-0.69227 0.599389 1.03737
-0.533135 0.598828 1.10966
-0.418856 0.598145 1.16029
-0.770187 0.597353 0.978801
-0.568641 0.596845 1.07204
-0.586313 0.596354 1.05559
-0.582812 0.596115 1.04819
-0.618864 0.595782 1.02161
-0.66771 0.595337 0.989331
-0.602151 0.594912 1.01414
-0.659745 0.594509 0.977264
-0.628348 0.594316 0.983586
-0.676582 0.59407 0.950427
-0.596913 0.593722 0.981865
-0.661647 0.593519 0.940206
-0.60397 0.593366 0.959446
-0.585575 0.593079 0.959899
-0.595997 0.592934 0.945051
-0.659014 0.592812 0.903763
-0.521492 0.592703 0.96267
-0.600876 0.5926 0.913082
-0.699788 0.592528 0.853544
-0.486684 0.59248 0.94986
-0.620499 0.592411 0.872852
-0.550811 0.592401 0.897215
-0.321994 0.592416 1.00098
-0.446458 0.592457 0.927937
-0.568997 0.592524 0.855687
-0.307281 0.592617 0.97539
-0.56861 0.592723 0.833489
-0.570321 0.592854 0.821222
-0.591928 0.593072 0.798431
-0.572676 0.59324 0.79639
-0.479581 0.593435 0.83109
-0.518947 0.593656 0.79938
-0.505224 0.59399 0.793448
-0.500846 0.594347 0.782683
-0.516373 0.594726 0.761805
-0.567291 0.595127 0.723071
-0.35216 0.595612 0.816783
-0.485855 0.596148 0.73572
-0.373151 0.596798 0.777065
-0.453288 0.597498 0.721624
-0.363868 0.598317 0.750129
-0.517 0.599178 0.657044
-0.394408 0.600637 0.697709
-0.499681 0.602476 0.621782
-0.661704 0.621057 1.08502
-0.409312 0.618538 1.21497
-0.408569 0.617111 1.21284
-0.43634 0.615692 1.19645
-0.5896 0.614751 1.11459
-0.583412 0.613677 1.11326
-0.570668 0.612768 1.11427
-0.513462 0.61203 1.13654
-0.470033 0.611163 1.15271
-0.547031 0.610601 1.10688
-0.596675 0.610053 1.07467
-0.45563 0.60952 1.13774
-0.717596 0.609004 0.999212
-0.504254 0.608505 1.09826
-0.669671 0.608025 1.00783
-0.498518 0.607564 1.08558
-0.617946 0.607124 1.01794
-0.685086 0.606705 0.976325
-0.633255 0.606635 0.992088
-0.671153 0.606249 0.964921
-0.83213 0.605886 0.876084
-0.438222 0.605713 1.06353
-0.608013 0.605513 0.969312
-0.598299 0.60521 0.965479
-0.661116 0.605056 0.924473
-0.670621 0.604927 0.909972
-0.780438 0.604804 0.845278
-0.599537 0.604596 0.926483
-0.647187 0.604528 0.892542
-0.574819 0.604561 0.917982
-0.755305 0.604417 0.818107
-0.737772 0.604412 0.816362
-0.550113 0.604475 0.899258
-0.571492 0.604434 0.878289
-0.608924 0.604482 0.848732
-0.550687 0.604555 0.86684
-0.579882 0.604656 0.841061
-0.533938 0.604869 0.85212
-0.696072 0.605007 0.759622
-0.401375 0.605072 0.895999
-0.587968 0.605362 0.79028
-0.480894 0.60558 0.831851
-0.526636 0.605824 0.796835
-0.492806 0.606186 0.800826
-0.57039 0.60657 0.748952
-0.381182 0.607015 0.830061
-0.577632 0.607459 0.718334
-0.403756 0.608008 0.791066
-0.511602 0.608573 0.722809
-0.201994 0.609259 0.862454
-0.600068 0.610203 0.646526
-0.291814 0.611079 0.784182
-0.37229 0.612489 0.723874
-0.342516 0.614148 0.716976
-0.308854 0.632629 1.26768
-0.628989 0.630375 1.10959
-0.663842 0.628597 1.0915
-0.496191 0.627632 1.1701
-0.591656 0.626526 1.11797
-0.81343 0.625438 1.00263
-0.63665 0.624523 1.0856
-0.634268 0.623926 1.07957
-0.422287 0.623341 1.17828
-0.547392 0.622343 1.11088
-0.710013 0.621795 1.02213
-0.66455 0.621264 1.03734
-0.651932 0.620749 1.03605
-0.694616 0.620254 1.00701
-0.612616 0.619777 1.04022
-0.415438 0.619322 1.13092
-0.67248 0.619102 0.993119
-0.693828 0.618815 0.973569
-0.643781 0.618413 0.990416
-0.619574 0.618035 0.994217
-0.70742 0.617855 0.940815
-0.736965 0.617645 0.916749
-0.719514 0.617327 0.916837
-0.855398 0.617178 0.839248
-0.500303 0.617027 1.00717
-0.564046 0.616774 0.966288
-0.509854 0.616673 0.983463
-0.593835 0.61657 0.931564
-0.686139 0.616507 0.875265
-0.709542 0.616469 0.853262
-0.726455 0.616401 0.834694
-0.730385 0.616403 0.822185
-0.520029 0.616431 0.916658
-0.520996 0.616485 0.905304
-0.542689 0.616566 0.883419
-0.585719 0.616671 0.850711
-0.538695 0.616782 0.862992
-0.598404 0.616809 0.82243
-0.635077 0.616971 0.792534
-0.502305 0.617262 0.846535
-0.703872 0.617477 0.733846
-0.544885 0.617718 0.801257
-0.594644 0.618083 0.763496
-0.615177 0.618471 0.740191
-0.46604 0.618881 0.801563
-0.416497 0.619314 0.812978
-0.400082 0.61983 0.80728
-0.313066 0.620408 0.836464
-0.464868 0.621101 0.745478
-0.452367 0.621926 0.73576
-0.342303 0.62294 0.773561
-0.373318 0.624116 0.739731
-0.471442 0.62544 0.671341
-0.226288 0.629118 0.759099
-0.21418 0.646746 1.31773
-0.443299 0.643816 1.20858
-0.479465 0.642333 1.18796
-0.562496 0.640853 1.14394
-0.458403 0.639388 1.19345
-0.569245 0.638266 1.13361
-0.447611 0.637322 1.18906
-0.656562 0.636704 1.07739
-0.654484 0.635645 1.07376
-0.576597 0.635059 1.10538
-0.631573 0.634487 1.07051
-0.508393 0.633931 1.12465
-0.483636 0.633391 1.1295
-0.686416 0.632869 1.0205
-0.502037 0.632366 1.10499
-0.551823 0.631883 1.07229
-0.646475 0.631421 1.01706
-0.550053 0.630981 1.05726
-0.753183 0.630563 0.947556
-0.47518 0.630363 1.07716
-0.628871 0.629981 0.991998
-0.707953 0.629762 0.943194
-0.566105 0.629429 1.00553
-0.545501 0.629272 1.00622
-0.693478 0.629112 0.922635
-0.709808 0.628845 0.905522
-0.508137 0.628852 0.995782
-0.641869 0.628625 0.919739
-0.66343 0.628522 0.899045
-0.58272 0.628464 0.929219
-0.549238 0.628432 0.935628
-0.481752 0.628364 0.959253
-0.691361 0.628372 0.843874
-0.637847 0.628375 0.860087
-0.742069 0.628451 0.796987
-0.617777 0.628557 0.847959
-0.560993 0.628554 0.865838
-0.583466 0.628684 0.843271
-0.484184 0.628952 0.880729
-0.673911 0.629136 0.774196
-0.685796 0.629347 0.756408
-0.399536 0.629585 0.887516
-0.398865 0.62985 0.875651
-0.602403 0.630243 0.760873
-0.562926 0.63066 0.767446
-0.554652 0.631099 0.75826
-0.453116 0.631613 0.795218
-0.580639 0.632204 0.717143
-0.330344 0.632902 0.827279
-0.500189 0.633653 0.726986
-0.286673 0.63454 0.817487
-0.44439 0.635709 0.720537
-0.322953 0.6373 0.760424
-0.517797 0.639663 0.637168
-0.535926 0.657946 1.16489
-0.392538 0.655608 1.23848
-0.38046 0.653761 1.24383
-0.58137 0.65226 1.14085
-0.657827 0.651107 1.09823
-0.617346 0.650134 1.11312
-0.741905 0.64902 1.04632
-0.646924 0.648399 1.08658
-0.684938 0.647791 1.0603
-0.5565 0.646745 1.1197
-0.648273 0.646174 1.06638
-0.849947 0.645619 0.958032
-0.472677 0.645082 1.13908
-0.719295 0.644563 1.00809
-0.831925 0.644065 0.944006
-0.54316 0.643587 1.08052
-0.668205 0.643356 1.00873
-0.605323 0.642911 1.03214
-0.758682 0.64249 0.947306
-0.560828 0.642238 1.03712
-0.355466 0.641864 1.1314
-0.467722 0.641686 1.06575
-0.694037 0.641351 0.943991
-0.618405 0.641182 0.972251
-0.648486 0.6409 0.948319
-0.657306 0.640769 0.934142
-0.732693 0.640664 0.886537
-0.69185 0.640554 0.897078
-0.661281 0.640487 0.902229
-0.513432 0.640398 0.966155
-0.695715 0.640305 0.865045
-0.553005 0.64032 0.925794
-0.551145 0.640274 0.916472
-0.710482 0.640331 0.825949
-0.605433 0.640414 0.867455
-0.551724 0.640525 0.883121
-0.591243 0.64065 0.852088
-0.619444 0.640802 0.826548
-0.678573 0.640981 0.78537
-0.516498 0.641188 0.85462
-0.493277 0.641423 0.854268
-0.51345 0.641686 0.832042
-0.594428 0.642083 0.778586
-0.560724 0.642399 0.782954
-0.503511 0.642844 0.798269
-0.618551 0.643356 0.727034
-0.415075 0.643863 0.815072
-0.458504 0.644569 0.778406
-0.510627 0.645318 0.737099
-0.499796 0.646232 0.726224
-0.522731 0.647267 0.697675
-0.39775 0.64877 0.740125
-0.428073 0.650845 0.701282
-0.43938 0.66941 1.21948
-0.587108 0.667018 1.14759
-0.551073 0.665481 1.16308
-0.592001 0.663958 1.14007
-0.659234 0.662959 1.10113
-0.588314 0.661809 1.13211
-0.552584 0.661168 1.14278
-0.633908 0.660061 1.09747
-0.611728 0.659452 1.10124
-0.56154 0.658857 1.11896
-0.620774 0.658277 1.0819
-0.668437 0.657552 1.05144
-0.53199 0.657009 1.11206
-0.698526 0.656485 1.0211
-0.710205 0.655981 1.00747
-0.586592 0.655498 1.06139
-0.561076 0.655038 1.06615
-0.668713 0.654754 1.00336
-0.584781 0.654544 1.03595
-0.533485 0.654141 1.05331
-0.503785 0.653765 1.05974
-0.748724 0.653414 0.928715
-0.574873 0.653395 1.00522
-0.65474 0.653084 0.956522
-0.536132 0.652801 1.00692
-0.502981 0.652686 1.01362
-0.642389 0.652569 0.93407
-0.725403 0.652459 0.882677
-0.540099 0.65231 0.965674
-0.564642 0.65229 0.943004
-0.701539 0.652223 0.864426
-0.453684 0.652245 0.977715
-0.600697 0.652201 0.893952
-0.597308 0.652264 0.884761
-0.648293 0.652356 0.848219
-0.430772 0.652475 0.945762
-0.672581 0.652607 0.813564
-0.623375 0.652767 0.826699
-0.384067 0.652956 0.934711
-0.673729 0.653172 0.778065
-0.677599 0.653417 0.764141
-0.587327 0.653803 0.796437
-0.582218 0.654207 0.78603
-0.510339 0.654549 0.809372
-0.589214 0.655024 0.75652
-0.436407 0.655625 0.818727
-0.598846 0.656211 0.723392
-0.519079 0.656955 0.748174
-0.533004 0.657754 0.725756
-0.548047 0.658792 0.70129
-0.487274 0.660027 0.71349
-0.296099 0.661706 0.78813
-0.257267 0.665218 0.775254
-0.397027 0.684422 1.23905
-0.520484 0.680818 1.18532
-0.377499 0.678903 1.25606
-0.409836 0.67734 1.23736
-0.469085 0.676135 1.20337
-0.601446 0.674945 1.13278
-0.561729 0.67395 1.14723
-0.56771 0.672806 1.13967
-0.643244 0.672174 1.09462
-0.662052 0.671555 1.07789
-0.557319 0.670486 1.12537
-0.665469 0.669908 1.06379
-0.673323 0.669348 1.05229
-0.608283 0.668807 1.07715
-0.808527 0.668286 0.969271
-0.588323 0.667787 1.07152
-0.732712 0.667545 0.99008
-0.514801 0.667079 1.09103
-0.825285 0.666637 0.927657
-0.604436 0.666219 1.02983
-0.638712 0.665827 1.00432
-0.64183 0.665641 0.993261
-0.557293 0.665441 1.02611
-0.611549 0.665114 0.990272
-0.610752 0.664816 0.981815
-0.693099 0.664677 0.930899
-0.510972 0.664568 1.01206
-0.600745 0.664341 0.957938
-0.620625 0.664286 0.937797
-0.489191 0.664198 0.993503
-0.762399 0.664185 0.846468
-0.622381 0.664119 0.906343
-0.631202 0.664105 0.891507
-0.579984 0.664204 0.906041
-0.676216 0.664176 0.847576
-0.492595 0.664271 0.928333
-0.738117 0.664403 0.794298
-0.503292 0.66456 0.900294
-0.696681 0.664745 0.792013
-0.688648 0.664958 0.784271
-0.502748 0.6652 0.865289
-0.513876 0.66547 0.847619
-0.629882 0.665768 0.777336
-0.607205 0.66621 0.775541
-0.377343 0.666787 0.876526
-0.45584 0.667199 0.824296
-0.478169 0.667835 0.798802
-0.475531 0.668457 0.785852
-0.652665 0.669346 0.681409
-0.473637 0.670283 0.75473
-0.486829 0.671412 0.730758
-0.447453 0.672819 0.731363
-0.268445 0.675579 0.793591
-0.384064 0.694993 1.25628
-0.652242 0.692171 1.12587
-0.560885 0.690575 1.169
-0.471866 0.68899 1.21096
-0.460171 0.687768 1.21242
-0.619672 0.686745 1.12729
-0.667505 0.685564 1.09886
-0.573666 0.68491 1.13854
-0.727058 0.683777 1.05714
-0.545649 0.683158 1.14047
-0.49037 0.682555 1.16067
-0.638939 0.681796 1.0798
-0.488169 0.68123 1.14759
-0.694394 0.680683 1.0368
-0.562444 0.680157 1.095
-0.496144 0.679653 1.12028
-0.663851 0.679171 1.02845
-0.638972 0.678714 1.0328
-0.609915 0.67828 1.03912
-0.690437 0.678073 0.989447
-0.714182 0.677679 0.969182
-0.675246 0.67747 0.979259
-0.675396 0.677128 0.970525
-0.677051 0.676967 0.960057
-0.515153 0.676668 1.03213
-0.667366 0.67655 0.946161
-0.748641 0.676308 0.896348
-0.730363 0.676348 0.894763
-0.599342 0.67615 0.950865
-0.723785 0.676063 0.878626
-0.584118 0.675992 0.938356
-0.519982 0.676077 0.959446
-0.622424 0.675986 0.898233
-0.702143 0.676066 0.847427
-0.660624 0.676047 0.857788
-0.545616 0.676171 0.904093
-0.698837 0.676323 0.816118
-0.504399 0.676476 0.901963
-0.497629 0.67667 0.893733
-0.545486 0.676893 0.858017
-0.533648 0.67722 0.85155
-0.597493 0.677516 0.807407
-0.608489 0.677961 0.788817
-0.510874 0.678312 0.825065
-0.540133 0.678808 0.797026
-0.502944 0.679369 0.80182
-0.494476 0.68004 0.791593
-0.464989 0.680809 0.791279
-0.447281 0.681741 0.784104
-0.418883 0.682749 0.781794
-0.561066 0.684159 0.691798
-0.23735 0.68593 0.832575
-0.61546 0.706354 1.14699
-0.536037 0.70402 1.18768
-0.562752 0.702208 1.17272
-0.59725 0.7006 1.15291
-0.558392 0.699551 1.16698
-0.659237 0.698334 1.11208
-0.715552 0.69766 1.07672
-0.548112 0.696487 1.15581
-0.499856 0.695845 1.17261
-0.628261 0.695036 1.10196
-0.706882 0.694427 1.0552
-0.519521 0.693546 1.14286
-0.67841 0.692983 1.05576
-0.804977 0.692709 0.983337
-0.698547 0.691744 1.03103
-0.620955 0.691492 1.0606
-0.65373 0.691007 1.03621
-0.66282 0.690545 1.02356
-0.77757 0.690278 0.957068
-0.790888 0.689866 0.942065
-0.70294 0.68967 0.976558
-0.586808 0.689299 1.02608
-0.573021 0.688956 1.0243
-0.816691 0.688642 0.893643
-0.555863 0.688655 1.01348
-0.594357 0.688383 0.985194
-0.646993 0.688142 0.949681
-0.532066 0.688085 0.996955
-0.679715 0.68799 0.913148
-0.64155 0.687904 0.922207
-0.595152 0.687841 0.935258
-0.564144 0.687884 0.940028
-0.531929 0.687844 0.945862
-0.567328 0.687932 0.917184
-0.581403 0.687916 0.899743
-0.593007 0.688048 0.882712
-0.656018 0.688209 0.839811
-0.563035 0.6884 0.87474
-0.62837 0.68862 0.83034
-0.464105 0.688869 0.900569
-0.462988 0.689147 0.889053
-0.564487 0.689454 0.826056
-0.595914 0.689916 0.797211
-0.590131 0.690409 0.786778
-0.49938 0.690815 0.819312
-0.511601 0.691535 0.798555
-0.468649 0.692241 0.805441
-0.505374 0.693053 0.771861
-0.367879 0.69403 0.824412
-0.472442 0.695302 0.754208
-0.573283 0.696937 0.683728
-0.322396 0.699518 0.783579
-0.553699 0.717658 1.18433
-0.457461 0.715644 1.23165
-0.471677 0.713997 1.22199
-0.698756 0.712724 1.10408
-0.682126 0.711467 1.10799
-0.530929 0.710422 1.17815
-0.632907 0.709211 1.1226
-0.584417 0.708547 1.13956
-0.667652 0.707708 1.09156
-0.698287 0.706763 1.07042
-0.507697 0.706155 1.15821
-0.658117 0.70538 1.07636
-0.651396 0.704812 1.07206
-0.622012 0.704264 1.07899
-0.494457 0.703738 1.13492
-0.673841 0.703235 1.03727
-0.701234 0.702993 1.01429
-0.712128 0.702527 1.00072
-0.691691 0.702086 1.0027
-0.57461 0.701672 1.05288
-0.661847 0.701285 1.00077
-0.722254 0.701103 0.961012
-0.750707 0.700758 0.938089
-0.583811 0.70061 1.01182
-0.860526 0.700323 0.864478
-0.560416 0.700191 1.00474
-0.474286 0.700067 1.03797
-0.491793 0.6999 1.01961
-0.600164 0.699721 0.955895
-0.654669 0.699799 0.917736
-0.680712 0.699666 0.894939
-0.653829 0.699718 0.897615
-0.593954 0.699679 0.917273
-0.590672 0.699761 0.907983
-0.495654 0.699901 0.944242
-0.591022 0.700048 0.88527
-0.548292 0.700074 0.896001
-0.575861 0.700274 0.870624
-0.584801 0.700504 0.854393
-0.592729 0.700764 0.838498
-0.583919 0.701141 0.830311
-0.602511 0.701475 0.808654
-0.413444 0.701968 0.889933
-0.49364 0.702358 0.837141
-0.515392 0.703058 0.811822
-0.626392 0.70364 0.742523
-0.586535 0.704438 0.747423
-0.61153 0.705395 0.718975
-0.402264 0.706441 0.80712
-0.266564 0.70791 0.856063
-0.407258 0.709747 0.764667
-0.431706 0.732798 1.24376
-0.520808 0.729477 1.20451
-0.575392 0.727227 1.17741
-0.514311 0.725557 1.20538
-0.560297 0.724268 1.178
-0.621294 0.723196 1.14209
-0.762705 0.721948 1.06688
-0.554109 0.721262 1.16393
-0.643115 0.720063 1.11473
-0.661834 0.719413 1.09799
-0.682146 0.718587 1.08136
-0.665743 0.717972 1.08204
-0.590133 0.717377 1.11225
-0.57752 0.716802 1.11088
-0.779601 0.71606 1.00302
-0.607174 0.71553 1.08136
-0.738842 0.715024 1.00755
-0.604224 0.714542 1.06678
-0.600344 0.714086 1.06052
-0.613972 0.713867 1.0443
-0.750119 0.713451 0.967847
-0.64847 0.713063 1.01016
-0.664439 0.712878 0.992625
-0.651381 0.712708 0.98953
-0.738872 0.712391 0.93693
-0.668619 0.712105 0.963053
-0.669572 0.71185 0.953419
-0.776699 0.7119 0.889107
-0.713886 0.71169 0.911127
-0.628027 0.711597 0.944061
-0.659095 0.711528 0.91841
-0.74475 0.711467 0.865424
-0.797227 0.711528 0.828387
-0.698392 0.711491 0.86752
-0.384961 0.711583 1.01326
-0.491412 0.711731 0.948766
-0.642296 0.711746 0.862758
-0.504188 0.711943 0.92027
-0.599747 0.71217 0.860782
-0.634213 0.712426 0.831672
-0.464479 0.712713 0.904493
-0.618728 0.713029 0.815152
-0.426319 0.713374 0.89897
-0.631092 0.714015 0.782577
-0.505842 0.714432 0.832398
-0.623139 0.715137 0.759354
-0.440211 0.71579 0.836688
-0.477288 0.716631 0.802962
-0.524567 0.71765 0.763123
-0.426645 0.71885 0.794846
-0.466546 0.720542 0.754886
-0.40019 0.723219 0.762509
-0.537071 0.744078 1.19751
-0.539779 0.741058 1.19977
-0.609775 0.739352 1.16219
-0.449686 0.737655 1.23967
-0.65637 0.736345 1.13194
-0.4172 0.735053 1.24709
-0.779035 0.733786 1.06166
-0.60867 0.733092 1.13958
-0.655156 0.731876 1.11164
-0.581828 0.73122 1.14091
-0.549879 0.73058 1.14943
-0.636403 0.729958 1.09864
-0.719115 0.72916 1.05064
-0.551639 0.72858 1.12669
-0.64068 0.728021 1.07438
-0.579218 0.727486 1.09723
-0.74708 0.726974 1.00532
-0.741967 0.726488 0.999776
-0.467594 0.726027 1.12875
-0.594116 0.725594 1.05715
-0.539659 0.725387 1.07492
-0.65475 0.724996 1.00884
-0.566908 0.724634 1.0441
-0.607542 0.724302 1.01498
-0.661366 0.724147 0.978367
-0.710405 0.723861 0.944825
-0.684092 0.72373 0.948172
-0.676759 0.723556 0.942257
-0.766839 0.723456 0.887255
-0.676161 0.723364 0.922592
-0.635066 0.723304 0.932977
-0.655087 0.723244 0.912802
-0.707059 0.723278 0.876168
-0.752143 0.723411 0.842455
-0.737631 0.723382 0.83939
-0.764983 0.723537 0.814425
-0.63394 0.723557 0.869364
-0.602412 0.723764 0.873556
-0.744343 0.724002 0.790853
-0.595203 0.724269 0.853517
-0.658265 0.724567 0.809913
-0.496575 0.724895 0.878515
-0.573481 0.725371 0.827011
-0.509417 0.725774 0.846376
-0.576451 0.726479 0.79855
-0.500013 0.726974 0.823576
-0.453041 0.727803 0.832048
-0.49176 0.728691 0.797331
-0.4981 0.729886 0.7771
-0.430995 0.731263 0.792566
-0.543399 0.733318 0.714531
-0.336495 0.737025 0.787019
-0.537812 0.755298 1.20364
-0.447336 0.752596 1.25078
-0.405963 0.750865 1.26889
-0.575225 0.749146 1.18166
-0.683069 0.747822 1.12334
-0.696697 0.746729 1.11105
-0.641774 0.745804 1.13228
-0.732476 0.744547 1.08231
-0.653664 0.743867 1.11437
-0.629393 0.743203 1.1191
-0.651743 0.742035 1.10296
-0.631829 0.741417 1.10533
-0.715775 0.74082 1.05569
-0.697255 0.740045 1.05817
-0.648959 0.739494 1.07447
-0.710447 0.739227 1.03449
-0.68351 0.738712 1.03996
-0.721137 0.738223 1.01303
-0.676245 0.73776 1.02724
-0.544753 0.737325 1.08464
-0.533144 0.737118 1.08097
-0.653858 0.736726 1.01206
-0.468219 0.736364 1.0962
-0.586008 0.736031 1.02848
-0.570305 0.73573 1.02736
-0.853873 0.735772 0.87489
-0.747465 0.735517 0.918904
-0.694808 0.735294 0.935885
-0.742706 0.735195 0.901968
-0.644202 0.735196 0.94075
-0.591125 0.735055 0.95754
-0.692951 0.734997 0.896457
-0.553135 0.735041 0.955671
-0.708258 0.735165 0.867006
-0.690065 0.735157 0.865677
-0.508926 0.735157 0.945777
-0.615474 0.735345 0.881065
-0.64536 0.735562 0.85452
-0.591887 0.735811 0.86949
-0.611307 0.736089 0.847846
-0.75452 0.736489 0.763662
-0.740126 0.736845 0.758504
-0.481513 0.737231 0.875287
-0.525507 0.73779 0.839839
-0.458034 0.738394 0.859868
-0.634914 0.739205 0.756611
-0.562294 0.739939 0.778484
-0.472792 0.740871 0.807725
-0.49167 0.742243 0.780389
-0.452759 0.743708 0.781415
-0.416421 0.746125 0.775986
-0.430198 0.767064 1.26123
-0.749285 0.764699 1.10183
-0.655472 0.76294 1.14616
-0.649804 0.761196 1.1464
-0.708598 0.75985 1.11259
-0.577246 0.758527 1.1738
-0.58734 0.757231 1.16419
-0.505556 0.756528 1.19778
-0.615941 0.75584 1.13523
-0.732363 0.754627 1.07215
-0.758378 0.753984 1.05162
-0.743371 0.75315 1.05252
-0.810698 0.752549 1.01118
-0.669208 0.751969 1.07415
-0.850921 0.751412 0.97543
-0.55376 0.75088 1.11604
-0.600524 0.750422 1.08435
-0.724115 0.74993 1.01442
-0.768459 0.749466 0.983999
-0.639692 0.749029 1.04001
-0.752994 0.748621 0.974854
-0.759857 0.748429 0.96188
-0.752877 0.748066 0.956666
-0.681724 0.747734 0.983397
-0.59067 0.747621 1.01901
-0.818921 0.747482 0.895101
-0.570295 0.747228 1.0102
-0.659023 0.747008 0.956471
-0.659164 0.74691 0.946426
-0.761634 0.746918 0.884688
-0.598741 0.74678 0.956366
-0.473637 0.746724 1.00874
-0.637979 0.74678 0.915831
-0.580532 0.746914 0.933419
-0.696963 0.746908 0.864773
-0.67618 0.747089 0.863783
-0.553185 0.747137 0.914574
-0.501095 0.747382 0.928902
-0.548365 0.747658 0.893385
-0.565125 0.747964 0.872957
-0.602446 0.748302 0.842082
-0.536638 0.74867 0.862605
-0.56873 0.749068 0.83401
-0.530622 0.749647 0.839565
-0.38912 0.750412 0.895829
-0.570923 0.750956 0.791577
-0.597103 0.751993 0.762539
-0.637995 0.753047 0.726026
-0.297013 0.754479 0.878427
-0.47844 0.756264 0.767726
-0.380547 0.759088 0.79113
-0.525244 0.77857 1.21853
-0.560327 0.776392 1.20013
-0.618344 0.774382 1.16957
-0.799548 0.773 1.0746
-0.498382 0.77186 1.21975
-0.874491 0.770517 1.02722
-0.531409 0.769202 1.1942
-0.621609 0.768491 1.14178
-0.52208 0.767234 1.18677
-0.647652 0.766565 1.11652
-0.739101 0.765698 1.06427
-0.618161 0.765069 1.11713
-0.616528 0.764461 1.11025
-0.576229 0.763664 1.12361
-0.632907 0.763104 1.08739
-0.804935 0.762569 0.993391
-0.814974 0.762059 0.980277
-0.732325 0.761815 1.01226
-0.810003 0.761347 0.96516
-0.658326 0.760907 1.03261
-0.606884 0.760497 1.04981
-0.62384 0.760303 1.03179
-0.652723 0.759938 1.00863
-0.680206 0.759605 0.98603
-0.940494 0.759303 0.84688
-0.649035 0.759165 0.98282
-0.573453 0.758913 1.01138
-0.697132 0.758695 0.940151
-0.697284 0.758695 0.929616
-0.478969 0.758543 1.02907
-0.848613 0.75848 0.834104
-0.68534 0.75856 0.904894
-0.655261 0.758494 0.909811
-0.591106 0.758637 0.930722
-0.68904 0.758634 0.871318
-0.539813 0.758826 0.934519
-0.611907 0.758879 0.887748
-0.694874 0.759136 0.834518
-0.653985 0.759423 0.843052
-0.749954 0.759742 0.782992
-0.597721 0.760092 0.846866
-0.704925 0.760472 0.780857
-0.7342 0.761022 0.752937
-0.668056 0.761479 0.773185
-0.435891 0.762295 0.874591
-0.639069 0.763026 0.758743
-0.592455 0.763967 0.766684
-0.532533 0.76511 0.780215
-0.484934 0.766711 0.785177
-0.614775 0.768736 0.699169
-0.480093 0.773635 0.730402
-0.545239 0.794857 1.20273
-0.553637 0.790662 1.20641
-0.559565 0.788218 1.20363
-0.602093 0.786408 1.17977
-0.525121 0.784618 1.21563
-0.697708 0.78324 1.1249
-0.531903 0.782258 1.20161
-0.599333 0.781154 1.16229
-0.702665 0.780208 1.10433
-0.717748 0.779161 1.09098
-0.756387 0.778261 1.06521
-0.748931 0.777605 1.06139
-0.769629 0.776748 1.04443
-0.735352 0.776136 1.05386
-0.680502 0.775547 1.07348
-0.822027 0.774982 0.994825
-0.829144 0.774228 0.984266
-0.6897 0.773716 1.04587
-0.725698 0.773471 1.01853
-0.72201 0.773001 1.01209
-0.790404 0.772561 0.969484
-0.569728 0.77215 1.07128
-0.755489 0.77177 0.969732
-0.695087 0.771591 0.990314
-0.735746 0.771259 0.961104
-0.735993 0.770959 0.951954
-0.704595 0.770692 0.958475
-0.741521 0.770571 0.93014
-0.597555 0.770459 0.992214
-0.64461 0.770365 0.958694
-0.503992 0.770216 1.01928
-0.815941 0.770155 0.853153
-0.783584 0.770245 0.858453
-0.699267 0.770182 0.890469
-0.792137 0.770337 0.832835
-0.569066 0.770336 0.933928
-0.657004 0.770538 0.878516
-0.657793 0.770598 0.867379
-0.763249 0.770866 0.802875
-0.593286 0.771165 0.875917
-0.810543 0.771496 0.755185
-0.642078 0.771692 0.827977
-0.551077 0.772378 0.85958
-0.547316 0.772818 0.848778
-0.48499 0.773447 0.866298
-0.556707 0.773972 0.817302
-0.665998 0.774877 0.747584
-0.515767 0.775992 0.806535
-0.448804 0.777123 0.823744
-0.534848 0.778794 0.761666
-0.547759 0.781316 0.731753
-0.421067 0.805983 1.27132
-0.533634 0.802094 1.22131
-0.67357 0.79985 1.15048
-0.589655 0.797779 1.19089
-0.680775 0.796361 1.14094
-0.645584 0.795201 1.15305
-0.68539 0.793829 1.12863
-0.668525 0.792853 1.13082
-0.823313 0.792127 1.04608
-0.736369 0.790838 1.08477
-0.520362 0.790156 1.18528
-0.718592 0.789264 1.07964
-0.774006 0.788625 1.04429
-0.693993 0.788007 1.07658
-0.630359 0.787188 1.1016
-0.58445 0.78662 1.11664
-0.804307 0.786078 0.998694
-0.692076 0.785563 1.04668
-0.65426 0.785098 1.05725
-0.719396 0.784627 1.01637
-0.872433 0.784186 0.931425
-0.723708 0.783774 0.997228
-0.50202 0.783395 1.09938
-0.77166 0.783217 0.954933
-0.684559 0.782885 0.989582
-0.677237 0.782587 0.984195
-0.757082 0.782322 0.935073
-0.639493 0.782403 0.98304
-0.659214 0.782188 0.963756
-0.669834 0.782008 0.948861
-0.580392 0.781863 0.983834
-0.877853 0.781804 0.824949
-0.608715 0.781903 0.948606
-0.847477 0.781846 0.819063
-0.735709 0.782011 0.863716
-0.808447 0.782013 0.816899
-0.550164 0.782226 0.934566
-0.738944 0.782292 0.829416
-0.742316 0.782572 0.815924
-0.691811 0.782883 0.829208
-0.557914 0.783053 0.884875
-0.580048 0.78343 0.861503
-0.689809 0.784138 0.792677
-0.646498 0.784425 0.802445
-0.619697 0.785248 0.801303
-0.526256 0.785938 0.834112
-0.568467 0.786864 0.797907
-0.614844 0.787936 0.758863
-0.470843 0.789274 0.813648
-0.413844 0.79101 0.822898
-0.629738 0.793957 0.689558
-0.778469 0.817443 1.09749
-0.550299 0.814134 1.21509
-0.722557 0.811612 1.12917
-0.70538 0.809755 1.13515
-0.761982 0.808316 1.10246
-0.639235 0.806899 1.1594
-0.472796 0.805509 1.23809
-0.856553 0.804761 1.03891
-0.698957 0.803428 1.113
-0.669189 0.802721 1.12045
-0.78443 0.801796 1.05638
-0.729281 0.801129 1.07637
-0.76614 0.800249 1.05134
-0.72482 0.799628 1.06425
-0.614087 0.79903 1.11179
-0.645847 0.798229 1.08901
-0.751782 0.797684 1.02801
-0.655098 0.797167 1.0682
-0.737657 0.796919 1.01757
-0.64293 0.796446 1.05661
-0.760098 0.796002 0.989584
-0.65552 0.795588 1.0333
-0.780735 0.794992 0.962974
-0.62779 0.794814 1.02981
-0.63795 0.794484 1.01581
-0.630779 0.794331 1.00966
-0.595394 0.794133 1.01783
-0.758179 0.794014 0.926558
-0.697942 0.793801 0.947231
-0.67646 0.793624 0.948367
-0.72964 0.793483 0.912008
-0.795714 0.793625 0.867875
-0.60356 0.793536 0.953941
-0.668347 0.793484 0.911366
-0.683534 0.793659 0.892509
-0.790351 0.793664 0.828646
-0.663865 0.793889 0.880383
-0.602037 0.793961 0.90052
-0.685267 0.794253 0.847068
-0.754483 0.794396 0.801335
-0.586409 0.794754 0.873202
-0.458852 0.795144 0.924648
-0.673987 0.795701 0.803928
-0.595094 0.796171 0.830634
-0.505448 0.797016 0.86087
-0.474093 0.797761 0.862433
-0.586149 0.798736 0.791138
-0.643199 0.799612 0.747808
-0.460231 0.80114 0.821252
-0.24084 0.803069 0.910885
-0.306522 0.806767 0.849162
-0.58845 0.829111 1.19634
-0.475822 0.82549 1.2573
-0.501794 0.823594 1.2417
-0.876244 0.821711 1.05186
-0.474631 0.820252 1.24828
-0.800221 0.818815 1.08104
-0.839214 0.817406 1.05702
-0.643175 0.816403 1.1488
-0.800925 0.8153 1.06414
-0.65633 0.814341 1.13005
-0.758797 0.813648 1.0713
-0.674743 0.812733 1.1068
-0.611438 0.812083 1.13078
-0.694816 0.811456 1.08134
-0.632914 0.810617 1.10549
-0.896085 0.810042 0.965959
-0.673942 0.809493 1.06898
-0.90937 0.808742 0.944134
-0.807828 0.808494 0.985545
-0.797043 0.808019 0.982598
-0.835673 0.807575 0.954819
-0.76412 0.807162 0.982001
-0.712443 0.806968 0.998269
-0.604982 0.806604 1.0432
-0.78934 0.806273 0.942087
-0.603975 0.805976 1.02568
-0.744713 0.805841 0.945501
-0.842541 0.805596 0.887277
-0.815661 0.805387 0.89125
-0.602492 0.805214 0.988207
-0.783088 0.805141 0.887823
-0.706036 0.805227 0.91553
-0.73583 0.805143 0.890601
-0.709678 0.805096 0.893475
-0.846199 0.805283 0.813918
-0.53159 0.805291 0.960763
-0.582145 0.805527 0.923948
-0.66163 0.805606 0.87341
-0.604041 0.80591 0.890338
-0.68651 0.80606 0.837961
-0.504588 0.806432 0.916724
-0.728105 0.806835 0.792606
-0.571815 0.80741 0.857561
-0.599979 0.807893 0.830714
-0.617407 0.808588 0.808203
-0.680272 0.809525 0.761792
-0.57894 0.810357 0.797963
-0.534005 0.811586 0.803992
-0.639712 0.813269 0.732462
-0.454718 0.815271 0.80469
-0.435864 0.819607 0.782406
-0.577034 0.840485 1.207
-0.523148 0.837478 1.2358
-0.780904 0.835556 1.10431
-0.737077 0.833388 1.1247
-0.634979 0.83191 1.17136
-0.74519 0.830455 1.1118
-0.593053 0.829284 1.18225
-0.711306 0.828266 1.11689
-0.613012 0.8269 1.16131
-0.707579 0.826181 1.10656
-0.735555 0.825231 1.08612
-0.602954 0.824554 1.14482
-0.902682 0.823652 0.98834
-0.721812 0.823022 1.071
-0.711741 0.822416 1.06818
-0.802549 0.821596 1.01586
-0.794492 0.821046 1.01182
-0.759761 0.820524 1.02101
-0.708457 0.820274 1.0373
-0.630247 0.819563 1.06908
-0.822499 0.819119 0.964467
-0.665224 0.818707 1.03449
-0.708215 0.818513 1.00342
-0.709566 0.81815 0.993923
-0.689017 0.817821 0.995237
-0.77583 0.817527 0.942724
-0.784109 0.817393 0.928763
-0.72944 0.817152 0.946765
-0.726468 0.816946 0.938762
-0.736644 0.816777 0.924024
-0.67425 0.816706 0.945129
-0.757875 0.816802 0.892463
-0.715064 0.816723 0.903815
-0.648642 0.816682 0.926804
-0.636486 0.816879 0.921561
-0.59156 0.816891 0.933551
-0.740023 0.816941 0.848672
-0.61318 0.817225 0.900357
-0.632589 0.817542 0.878757
-0.65208 0.8177 0.857852
-0.775906 0.818084 0.783713
-0.602016 0.818501 0.858271
-0.640314 0.819094 0.825896
-0.750091 0.819591 0.758217
-0.584931 0.820305 0.826968
-0.596552 0.821267 0.806137
-0.565155 0.822119 0.807313
-0.526165 0.82347 0.809878
-0.599015 0.825097 0.755177
-0.474802 0.827302 0.796191
-0.552644 0.852498 1.22138
-0.566774 0.849447 1.21618
-0.602703 0.847231 1.1967
-0.524805 0.845297 1.23303
-0.598144 0.843799 1.19197
-0.649578 0.842325 1.1618
-0.752269 0.84088 1.10591
-0.684083 0.84011 1.13267
-0.663657 0.838985 1.13707
-0.853528 0.837743 1.03683
-0.591569 0.837039 1.16027
-0.730709 0.836101 1.08417
-0.678645 0.835442 1.1025
-0.566472 0.834807 1.1508
-0.844368 0.833948 1.00505
-0.777571 0.833367 1.03047
-0.862652 0.832813 0.979842
-0.836517 0.832303 0.984651
-0.636644 0.831795 1.07633
-0.651129 0.831318 1.06071
-0.718976 0.830872 1.01829
-0.895309 0.830458 0.921494
-0.656224 0.830029 1.03248
-0.737813 0.829668 0.982849
-0.692909 0.829341 0.996318
-0.804383 0.829191 0.930826
-0.81632 0.828917 0.915655
-0.715577 0.828679 0.956671
-0.836143 0.828477 0.886877
-0.787385 0.82839 0.901236
-0.79787 0.828462 0.885264
-0.868481 0.828351 0.84005
-0.859292 0.828277 0.834569
-0.743785 0.828241 0.882079
-0.758744 0.828447 0.863261
-0.620133 0.828466 0.922073
-0.616488 0.828523 0.913229
-0.752155 0.82882 0.833628
-0.641602 0.828949 0.877896
-0.730682 0.829315 0.821262
-0.672302 0.829713 0.838198
-0.63704 0.82995 0.844307
-0.560354 0.830754 0.868494
-0.638009 0.831078 0.817725
-0.529652 0.831999 0.857169
-0.545926 0.832804 0.834818
-0.656369 0.833857 0.764199
-0.682423 0.835239 0.7342
-0.652865 0.83673 0.731464
-0.547636 0.83932 0.761331
-0.563702 0.86449 1.21806
-0.595162 0.86112 1.20531
-0.487018 0.859145 1.25677
-0.574858 0.857186 1.21021
-0.662861 0.855669 1.16182
-0.660421 0.854175 1.15858
-0.804493 0.852712 1.082
-0.78132 0.851667 1.08735
-0.821054 0.850907 1.06009
-0.748123 0.849538 1.09172
-0.57652 0.848565 1.17106
-0.614653 0.847878 1.14437
-0.810042 0.847213 1.03896
-0.90627 0.846316 0.984134
-0.713916 0.845704 1.07242
-0.745843 0.844866 1.04953
-0.745559 0.844584 1.04041
-0.67197 0.844044 1.06905
-0.786885 0.843534 1.00332
-0.631349 0.842808 1.07375
-0.852135 0.842363 0.954837
-0.853749 0.842152 0.944507
-0.755071 0.841757 0.985129
-0.838907 0.841395 0.934355
-0.756235 0.841068 0.966694
-0.720172 0.840918 0.974965
-0.805156 0.840413 0.924271
-0.630137 0.840291 1.00191
-0.693119 0.840208 0.960377
-0.695938 0.840123 0.948943
-0.785934 0.839979 0.894179
-0.807229 0.839873 0.873601
-0.840123 0.839805 0.847058
-0.664783 0.839775 0.924463
-0.759793 0.83999 0.8656
-0.809434 0.840015 0.830266
-0.676595 0.840078 0.886
-0.678178 0.840388 0.87341
-0.668337 0.840526 0.867303
-0.714118 0.840905 0.83229
-0.545973 0.841316 0.90408
-0.696086 0.841562 0.817486
-0.731082 0.842195 0.786676
-0.614002 0.842724 0.832368
-0.763843 0.843479 0.743542
-0.641416 0.844494 0.789638
-0.521262 0.845388 0.835129
-0.41621 0.846805 0.870628
-0.561444 0.848507 0.779624
-0.52709 0.850977 0.774799
-0.726759 0.87618 1.13988
-0.720614 0.87304 1.14483
-0.707459 0.871039 1.14878
-0.564806 0.868776 1.2186
-0.864305 0.867239 1.06445
-0.732178 0.865728 1.12605
-0.834712 0.864797 1.068
-0.756071 0.863465 1.1022
-0.64412 0.862426 1.15189
-0.640027 0.861582 1.14687
-0.68954 0.860328 1.11675
-0.745294 0.859635 1.08124
-0.740017 0.8587 1.07725
-0.789139 0.858058 1.04487
-0.72374 0.85718 1.07076
-0.824316 0.856883 1.01124
-0.690921 0.85631 1.06988
-0.882952 0.855511 0.966772
-0.630284 0.855 1.08482
-0.697543 0.854521 1.04277
-0.661765 0.854293 1.0512
-0.660125 0.853614 1.04448
-0.880699 0.85322 0.925449
-0.864958 0.852861 0.924441
-0.735945 0.852695 0.979252
-0.730021 0.852388 0.973122
-0.701502 0.852119 0.978141
-0.763176 0.851886 0.93791
-0.885516 0.851783 0.866787
-0.635789 0.851607 0.982023
-0.734758 0.851468 0.92275
-0.755251 0.851367 0.902551
-0.675894 0.851305 0.932111
-0.895837 0.851289 0.811822
-0.704975 0.851282 0.896894
-0.839492 0.851517 0.818208
-0.774304 0.851568 0.840181
-0.799055 0.851873 0.816058
-0.642078 0.851999 0.883587
-0.645409 0.852374 0.86985
-0.840497 0.852689 0.760494
-0.661601 0.85315 0.837464
-0.789443 0.853643 0.760908
-0.58318 0.854345 0.850453
-0.598059 0.85512 0.829075
-0.652545 0.85616 0.786674
-0.554373 0.857075 0.821147
-0.557153 0.858523 0.802688
-0.469148 0.860079 0.829091
-0.548574 0.862779 0.766493
-0.578793 0.888124 1.21612
-0.711726 0.88494 1.15153
-0.686648 0.882626 1.16258
-0.594893 0.880618 1.20581
-0.632528 0.879061 1.1826
-0.648327 0.877531 1.17023
-0.6536 0.876435 1.16143
-0.720931 0.875243 1.12201
-0.67053 0.874191 1.14092
-0.745642 0.87316 1.09701
-0.779012 0.872345 1.07313
-0.819796 0.871372 1.04619
-0.782707 0.870698 1.057
-0.706935 0.86983 1.08797
-0.825421 0.869198 1.02085
-0.811753 0.868326 1.02081
-0.864957 0.867753 0.986125
-0.878077 0.867209 0.971375
-0.74048 0.866436 1.03295
-0.731205 0.866192 1.02817
-0.646857 0.86573 1.06186
-0.756365 0.865301 0.99848
-0.782828 0.864654 0.977554
-0.699718 0.864471 1.00948
-0.684523 0.864132 1.0081
-0.877456 0.863829 0.902522
-0.815601 0.863563 0.924185
-0.827391 0.863444 0.908407
-0.809945 0.863234 0.907636
-0.782125 0.863063 0.911896
-0.741305 0.862929 0.922494
-0.73438 0.862877 0.915798
-0.892759 0.862802 0.826551
-0.696744 0.862765 0.914335
-0.539272 0.862989 0.981715
-0.892736 0.863009 0.794513
-0.656869 0.863068 0.901805
-0.75712 0.863386 0.8399
-0.831206 0.863521 0.791879
-0.673872 0.863693 0.859394
-0.795151 0.864118 0.786487
-0.853649 0.864712 0.744209
-0.75016 0.865221 0.783292
-0.546097 0.865942 0.871702
-0.637514 0.866329 0.813844
-0.69979 0.867374 0.767603
-0.580938 0.868738 0.81047
-0.489633 0.869741 0.841156
-0.435449 0.871805 0.848469
-0.593949 0.874374 0.747108
-0.711629 0.900046 1.15198
-0.729699 0.896818 1.14482
-0.716947 0.894471 1.14972
-0.675975 0.892438 1.16755
-0.783929 0.890863 1.10917
-0.717998 0.889603 1.13653
-0.714732 0.888203 1.13314
-0.673508 0.887 1.14798
-0.702751 0.885935 1.12707
-0.832999 0.884892 1.05559
-0.630864 0.883872 1.15024
-0.790607 0.883159 1.06274
-0.760817 0.882191 1.07105
-0.720942 0.881529 1.08319
-0.813585 0.880618 1.03009
-0.87755 0.880012 0.99012
-0.796617 0.879435 1.02249
-0.696448 0.87862 1.06547
-0.657594 0.87836 1.07554
-0.749455 0.877863 1.02122
-0.789126 0.877137 0.993962
-0.698349 0.87671 1.03071
-0.800332 0.876509 0.970142
-0.989518 0.876134 0.866704
-0.779173 0.875541 0.963954
-0.66467 0.875241 1.01207
-0.613954 0.875106 1.02761
-0.638039 0.874862 1.0062
-0.625044 0.874657 1.00318
-0.75723 0.874491 0.927418
-0.735025 0.874422 0.928435
-0.709748 0.874313 0.931159
-0.698364 0.874244 0.926771
-0.76644 0.874214 0.882486
-0.897419 0.874448 0.805623
-0.617485 0.874475 0.935098
-0.683566 0.874542 0.891396
-0.541163 0.874647 0.951763
-0.725432 0.875016 0.847654
-0.723976 0.875197 0.837212
-0.667976 0.875636 0.852916
-0.553123 0.875892 0.898834
-0.766371 0.87656 0.778894
-0.575506 0.877118 0.861475
-0.734368 0.877912 0.768144
-0.549099 0.878778 0.846536
-0.757266 0.879918 0.726983
-0.506521 0.881402 0.835327
-0.739136 0.882997 0.701465
-0.600575 0.886125 0.74631
-0.608685 0.911947 1.20574
-0.706596 0.908675 1.15867
-0.699041 0.906296 1.16098
-0.742949 0.904675 1.13468
-0.508844 0.90294 1.24786
-0.809182 0.901496 1.09274
-0.636814 0.899951 1.17439
-0.76046 0.898844 1.10636
-0.986967 0.897368 0.988379
-0.624399 0.896604 1.16217
-0.822154 0.895572 1.05686
-0.720451 0.894566 1.10121
-0.71997 0.893874 1.09373
-0.699778 0.892924 1.09714
-0.912007 0.892287 0.983122
-0.625225 0.891398 1.11963
-0.637812 0.891099 1.10411
-0.768081 0.890544 1.03077
-0.884457 0.88974 0.965413
-0.904215 0.889244 0.947128
-0.94896 0.888782 0.916224
-0.921815 0.888295 0.921378
-0.836013 0.887888 0.955548
-0.760293 0.887516 0.98454
-0.681937 0.887181 1.01471
-0.590414 0.887027 1.05072
-0.707701 0.88649 0.983914
-0.784761 0.886252 0.935998
-0.874367 0.886147 0.88126
-0.73938 0.885966 0.939135
-0.588342 0.885824 1.00488
-0.854607 0.885722 0.861806
-0.891186 0.885659 0.833414
-0.68207 0.885643 0.927676
-0.75682 0.88588 0.878937
-0.719098 0.885892 0.887379
-0.74772 0.885946 0.862469
-0.779019 0.88604 0.836051
-0.783874 0.886405 0.821697
-0.76631 0.886575 0.819375
-0.803329 0.887129 0.788112
-0.663868 0.887394 0.846318
-0.797393 0.887917 0.766911
-0.752594 0.888655 0.775723
-0.669139 0.889469 0.803517
-0.607984 0.890123 0.820838
-0.729288 0.891316 0.744564
-0.55623 0.892547 0.815271
-0.52602 0.894466 0.81151
-0.460859 0.897297 0.821165
-0.735977 0.923826 1.14441
-0.596992 0.920653 1.21525
-0.652545 0.918405 1.18539
-0.697397 0.916458 1.15978
-0.678309 0.914531 1.1661
-0.766936 0.912937 1.11734
-0.731763 0.911678 1.12923
-0.722985 0.910558 1.12741
-0.669237 0.909458 1.14803
-0.910772 0.908295 1.02127
-0.646603 0.907252 1.14693
-0.687813 0.906235 1.11982
-0.862393 0.905246 1.02593
-0.748195 0.904578 1.0752
-0.799477 0.903937 1.04164
-0.879372 0.903341 0.993616
-0.768534 0.902746 1.04096
-0.869798 0.901899 0.98327
-0.7385 0.901369 1.04062
-0.85197 0.900872 0.975461
-0.760215 0.90036 1.01299
-0.701066 0.899917 1.03395
-0.779556 0.899509 0.98596
-0.967656 0.899048 0.883389
-0.756126 0.898697 0.980194
-0.703778 0.898384 0.997264
-0.56795 0.898109 1.05593
-0.673441 0.897986 0.993317
-0.900091 0.897769 0.870515
-0.777276 0.897334 0.923345
-0.583779 0.897199 1.01029
-0.830565 0.897146 0.87676
-0.669619 0.89707 0.94719
-0.715569 0.897047 0.913953
-0.7539 0.897278 0.883469
-0.857034 0.8973 0.821451
-0.663253 0.897362 0.907721
-0.827332 0.897465 0.814891
-0.745276 0.897843 0.843963
-0.718328 0.898023 0.846312
-0.605491 0.898242 0.891436
-0.612516 0.898729 0.875486
-0.911343 0.899409 0.712797
-0.684503 0.899758 0.814344
-0.731937 0.90057 0.776763
-0.506701 0.901456 0.875177
-0.613136 0.902628 0.806505
-0.613107 0.90415 0.789527
-0.53909 0.905784 0.809023
-0.5485 0.908429 0.782378
-0.667785 0.93582 1.18033
-0.722772 0.932465 1.15472
-0.685749 0.930333 1.17059
