ply
format ascii 1.0
comment Created by Open3D
element vertex 1754
property double x
property double y
property double z
end_header
-0.523209 0.521607 0.993074
-0.517822 0.52137 0.986859
-0.595947 0.521152 0.938768
-0.558811 0.520862 0.94884
-0.570103 0.520815 0.932937
-0.456119 0.520557 0.981216
-0.620151 0.520409 0.889689
-0.536574 0.520386 0.921059
-0.628835 0.520269 0.865204
-0.598465 0.520177 0.870488
-0.551153 0.520093 0.884183
-0.542728 0.520031 0.878275
-0.533806 0.520048 0.872029
-0.588898 0.519991 0.834328
-0.605752 0.520013 0.81516
-0.546913 0.520057 0.833676
-0.503939 0.52003 0.844782
-0.533012 0.520136 0.81887
-0.458247 0.520207 0.84514
-0.484571 0.520282 0.820826
-0.459132 0.52038 0.822223
-0.443575 0.520568 0.817982
-0.480589 0.520712 0.787791
-0.438188 0.520889 0.797041
-0.456207 0.521067 0.776077
-0.510732 0.521329 0.736201
-0.447376 0.521586 0.755292
-0.435669 0.521875 0.748303
-0.521235 0.522184 0.69251
-0.444598 0.522579 0.717137
-0.438601 0.522941 0.706686
-0.449231 0.523372 0.687366
-0.409488 0.523929 0.69223
-0.376746 0.524531 0.693219
-0.378145 0.52503 0.677918
-0.317039 0.525742 0.692175
-0.317695 0.526706 0.673521
-0.258015 0.528008 0.68232
-0.240734 0.53021 0.662705
-0.444468 0.545905 1.15521
-0.390957 0.543969 1.184
-0.445332 0.542715 1.15438
-0.4613 0.541586 1.14317
-0.5308 0.540635 1.10405
-0.562962 0.539813 1.08276
-0.52388 0.539275 1.09521
-0.537926 0.538484 1.08283
-0.593851 0.537859 1.04842
-0.521173 0.537111 1.07917
-0.556505 0.536868 1.05249
-0.580796 0.536501 1.03219
-0.433453 0.53604 1.09838
-0.589991 0.535593 1.01254
-0.601293 0.535164 0.999215
-0.537756 0.534751 1.02321
-0.660617 0.53446 0.953179
-0.500682 0.534084 1.02515
-0.579933 0.533904 0.976177
-0.5084 0.533657 1.00306
-0.541245 0.533331 0.978333
-0.617394 0.533123 0.931128
-0.615578 0.532979 0.922466
-0.546363 0.532801 0.947743
-0.603285 0.532644 0.909814
-0.597023 0.532528 0.903194
-0.530355 0.532403 0.92684
-0.629935 0.5323 0.867212
-0.556022 0.532213 0.89422
-0.537741 0.532144 0.893283
-0.487319 0.53216 0.907801
-0.559678 0.532125 0.861306
-0.544678 0.532113 0.858324
-0.59826 0.532124 0.82088
-0.517806 0.532178 0.850139
-0.531252 0.532224 0.832505
-0.562456 0.532294 0.805812
-0.527556 0.532375 0.812087
-0.494415 0.532536 0.816895
-0.529042 0.532651 0.788146
-0.542782 0.532791 0.769656
-0.51583 0.533023 0.770814
-0.497338 0.53321 0.768076
-0.476488 0.533476 0.765911
-0.582229 0.533696 0.700794
-0.541855 0.534001 0.70808
-0.343552 0.534327 0.794163
-0.423842 0.534673 0.740784
-0.44768 0.535038 0.715465
-0.404321 0.53557 0.722468
-0.437815 0.536039 0.691506
-0.427756 0.536646 0.681244
-0.424126 0.537297 0.667403
-0.29964 0.538083 0.712927
-0.317933 0.539079 0.685408
-0.319158 0.540424 0.663696
-0.133762 0.542692 0.728082
-0.378487 0.560185 1.1888
-0.488818 0.556959 1.14367
-0.467348 0.555675 1.15195
-0.424813 0.554517 1.16998
-0.503979 0.553537 1.12605
-0.427634 0.55229 1.16166
-0.54373 0.551737 1.09652
-0.565036 0.550925 1.08052
-0.542594 0.550396 1.08454
-0.583444 0.549879 1.05687
-0.577142 0.549374 1.0527
-0.541824 0.548882 1.06298
-0.521965 0.548405 1.06545
-0.595784 0.547943 1.02099
-0.517877 0.547498 1.05231
-0.606571 0.54718 0.999479
-0.520924 0.546769 1.03446
-0.590128 0.546378 0.991904
-0.513387 0.546189 1.02095
-0.504422 0.545933 1.01658
-0.691685 0.545591 0.914688
-0.572681 0.545374 0.965092
-0.62848 0.545222 0.927651
-0.572285 0.545035 0.946456
-0.571943 0.54477 0.937879
-0.524313 0.544744 0.951297
-0.520898 0.54461 0.943362
-0.561836 0.544404 0.913758
-0.524206 0.544404 0.922005
-0.538746 0.544316 0.904782
-0.553344 0.544251 0.887375
-0.491927 0.544208 0.907814
-0.566472 0.54419 0.860108
-0.564115 0.544232 0.850417
-0.514243 0.544249 0.86467
-0.519955 0.544289 0.850959
-0.534978 0.544359 0.832375
-0.537707 0.544435 0.819894
-0.587694 0.544601 0.783137
-0.534415 0.544712 0.798402
-0.552468 0.544847 0.777818
-0.443634 0.545007 0.820495
-0.454178 0.545264 0.802769
-0.349538 0.545541 0.842481
-0.407349 0.545773 0.801286
-0.445783 0.546065 0.769326
-0.463049 0.546372 0.747831
-0.40214 0.546743 0.764942
-0.438253 0.547184 0.733005
-0.451918 0.547647 0.712118
-0.387909 0.54823 0.729155
-0.497621 0.548736 0.659878
-0.339922 0.549393 0.723161
-0.423614 0.550145 0.665015
-0.376468 0.551157 0.670298
-0.230805 0.552526 0.722115
-0.278852 0.555434 0.665403
-0.40519 0.570673 1.18963
-0.563829 0.568645 1.11233
-0.462396 0.567334 1.16059
-0.507263 0.566452 1.13302
-0.591621 0.565165 1.08832
-0.593557 0.564594 1.08028
-0.564051 0.563753 1.08973
-0.4145 0.56281 1.15989
-0.557981 0.562278 1.08091
-0.629007 0.561757 1.0381
-0.523018 0.561251 1.08373
-0.605876 0.560758 1.03486
-0.559705 0.560281 1.05043
-0.579341 0.55982 1.033
-0.556156 0.559492 1.03612
-0.494891 0.559066 1.05895
-0.667595 0.558659 0.964682
-0.611122 0.558463 0.983615
-0.593184 0.558197 0.983757
-0.599013 0.55784 0.972629
-0.597637 0.557612 0.964251
-0.69651 0.557453 0.9053
-0.513817 0.557256 0.98739
-0.702642 0.556977 0.884287
-0.574882 0.556948 0.937783
-0.564577 0.556704 0.934021
-0.698055 0.556585 0.857528
-0.576327 0.556484 0.908513
-0.513796 0.5564 0.929794
-0.595654 0.556338 0.878725
-0.605775 0.5563 0.863364
-0.572327 0.556336 0.869276
-0.584891 0.556286 0.85278
-0.526131 0.556296 0.871528
-0.639792 0.556419 0.803282
-0.537549 0.556401 0.843964
-0.562632 0.556472 0.820362
-0.549683 0.556652 0.815012
-0.466194 0.556771 0.845348
-0.544356 0.55688 0.794924
-0.542529 0.557036 0.784159
-0.473923 0.557295 0.806052
-0.532721 0.5575 0.764616
-0.535738 0.557803 0.750358
-0.49087 0.558056 0.760393
-0.401502 0.558437 0.791742
-0.485418 0.55884 0.736285
-0.377024 0.559228 0.777077
-0.45503 0.559699 0.724046
-0.350288 0.560224 0.761988
-0.381212 0.56092 0.730829
-0.424864 0.561601 0.69339
-0.357416 0.562381 0.710745
-0.388597 0.563429 0.676803
-0.322413 0.564593 0.690643
-0.349072 0.56727 0.646878
-0.414667 0.585 1.18558
-0.433098 0.58236 1.18183
-0.534275 0.580282 1.13331
-0.481929 0.579379 1.15433
-0.57415 0.578054 1.10572
-0.603908 0.577174 1.08562
-0.551991 0.576181 1.10709
-0.520335 0.575617 1.11577
-0.680949 0.575064 1.02826
-0.518075 0.574255 1.10414
-0.548022 0.573732 1.08183
-0.584309 0.573223 1.05627
-0.60549 0.57273 1.03818
-0.631949 0.572253 1.01738
-0.533378 0.571793 1.05899
-0.57637 0.571351 1.02972
-0.545539 0.570928 1.03726
-0.61267 0.570724 0.994409
-0.580222 0.570448 1.00183
-0.592486 0.570076 0.987528
-0.523118 0.569839 1.01318
-0.671293 0.569672 0.929601
-0.66424 0.569355 0.924631
-0.582777 0.569171 0.956001
-0.628847 0.569032 0.923309
-0.607035 0.568882 0.924647
-0.610135 0.568753 0.913387
-0.554915 0.568544 0.931828
-0.571079 0.568552 0.913135
-0.572887 0.568463 0.902267
-0.637117 0.568406 0.85998
-0.616686 0.568372 0.859864
-0.588655 0.568363 0.863384
-0.644548 0.568379 0.824776
-0.545423 0.568419 0.863507
-0.548387 0.568495 0.850954
-0.516887 0.568572 0.855616
-0.510378 0.568665 0.847677
-0.479811 0.56878 0.851611
-0.468967 0.56892 0.845504
-0.536471 0.569125 0.799764
-0.559802 0.569302 0.776309
-0.442354 0.569503 0.82306
-0.463078 0.569809 0.799993
-0.506506 0.570059 0.765947
-0.555647 0.57041 0.728333
-0.400492 0.570855 0.792193
-0.441912 0.571246 0.758125
-0.417621 0.571736 0.756207
-0.459992 0.57225 0.720768
-0.42699 0.57289 0.722097
-0.324179 0.573641 0.757522
-0.446844 0.574433 0.679886
-0.395186 0.575494 0.687464
-0.377293 0.576876 0.675815
-0.267193 0.579347 0.702385
-0.462155 0.595665 1.17422
-0.522272 0.593686 1.14531
-0.445465 0.592316 1.18124
-0.5527 0.590956 1.12514
-0.508651 0.589914 1.14279
-0.483614 0.589024 1.15004
-0.576734 0.58844 1.09635
-0.569271 0.58745 1.09549
-0.54712 0.586893 1.09933
-0.686017 0.586081 1.02425
-0.596271 0.585557 1.06173
-0.605217 0.585048 1.04978
-0.541735 0.584556 1.07397
-0.610513 0.58408 1.03194
-0.601051 0.583623 1.02893
-0.62018 0.583184 1.01152
-0.572414 0.583096 1.02536
-0.551508 0.582687 1.02781
-0.587507 0.582299 1.00168
-0.632604 0.582052 0.970127
-0.591921 0.581877 0.981008
-0.664337 0.581545 0.936355
-0.642755 0.581352 0.93782
-0.616732 0.581067 0.942103
-0.634306 0.581046 0.922889
-0.601027 0.580798 0.930577
-0.536731 0.580685 0.952904
-0.493817 0.580583 0.96447
-0.598224 0.580506 0.902217
-0.539549 0.580453 0.92135
-0.55716 0.580487 0.901768
-0.618858 0.580369 0.86115
-0.547048 0.580378 0.886442
-0.468774 0.580442 0.914606
-0.566613 0.580489 0.854825
-0.438741 0.580561 0.907728
-0.576289 0.580654 0.82778
-0.551892 0.580764 0.828686
-0.553705 0.580899 0.81631
-0.571828 0.581111 0.795262
-0.503332 0.581284 0.817782
-0.564103 0.581482 0.775487
-0.553715 0.581789 0.768019
-0.555011 0.582037 0.755106
-0.472047 0.582391 0.783589
-0.465231 0.582767 0.773837
-0.467722 0.583219 0.758891
-0.485342 0.583656 0.736468
-0.402007 0.58425 0.763427
-0.525262 0.584894 0.686717
-0.397177 0.585588 0.735311
-0.408984 0.586394 0.713153
-0.377218 0.58724 0.712469
-0.308484 0.58887 0.724758
-0.359799 0.591102 0.672737
-0.547522 0.607288 1.13775
-0.458488 0.605577 1.18159
-0.609621 0.603869 1.1054
-0.52416 0.602798 1.14378
-0.505606 0.601881 1.14781
-0.620031 0.60084 1.08612
-0.565357 0.600252 1.10631
-0.457934 0.599389 1.15454
-0.562405 0.598828 1.09503
-0.567944 0.598145 1.08575
-0.528782 0.597353 1.0995
-0.526846 0.596845 1.09294
-0.529399 0.596354 1.08405
-0.626232 0.596115 1.02648
-0.597036 0.595782 1.03252
-0.619177 0.595337 1.0136
-0.586523 0.594912 1.02196
-0.606537 0.594509 1.00387
-0.583047 0.594316 1.00624
-0.556446 0.59407 1.01049
-0.672864 0.593722 0.94389
-0.556995 0.593519 0.992532
-0.574929 0.593366 0.973967
-0.687923 0.593079 0.908724
-0.579478 0.592934 0.953311
-0.679872 0.592812 0.893333
-0.65321 0.592703 0.896811
-0.570936 0.5926 0.928052
-0.575581 0.592528 0.915648
-0.596674 0.59248 0.894865
-0.595989 0.592411 0.885106
-0.653862 0.592401 0.84569
-0.522371 0.592416 0.900792
-0.531725 0.592457 0.885303
-0.557952 0.592524 0.861209
-0.629105 0.592617 0.814478
-0.571876 0.592723 0.831856
-0.498103 0.592854 0.857331
-0.542402 0.593072 0.823194
-0.478893 0.59324 0.843282
-0.533078 0.593435 0.804342
-0.588641 0.593656 0.764533
-0.575134 0.59399 0.758493
-0.522265 0.594347 0.771973
-0.496375 0.594726 0.771804
-0.601706 0.595127 0.705863
-0.484947 0.595612 0.750389
-0.396136 0.596148 0.780579
-0.429901 0.596798 0.74869
-0.342298 0.597498 0.777119
-0.432943 0.598317 0.715592
-0.388388 0.599178 0.72135
-0.349311 0.600637 0.720257
-0.493791 0.602476 0.624727
-0.427268 0.621057 1.20223
-0.500186 0.618538 1.16953
-0.506949 0.617111 1.16365
-0.553375 0.615692 1.13794
-0.495656 0.614751 1.16156
-0.606746 0.613677 1.10159
-0.642323 0.612768 1.07844
-0.679448 0.61203 1.05354
-0.659937 0.611163 1.05775
-0.574219 0.610601 1.09329
-0.551237 0.610053 1.09739
-0.620402 0.60952 1.05535
-0.587115 0.609004 1.06445
-0.623132 0.608505 1.03882
-0.700232 0.608025 0.992547
-0.656697 0.607564 1.00649
-0.695536 0.607124 0.979143
-0.646199 0.606705 0.995768
-0.635131 0.606635 0.99115
-0.564354 0.606249 1.01832
-0.621224 0.605886 0.981537
-0.520563 0.605713 1.02236
-0.604911 0.605513 0.970863
-0.665503 0.60521 0.931876
-0.656222 0.605056 0.92692
-0.643429 0.604927 0.923568
-0.651735 0.604804 0.90963
-0.583136 0.604596 0.934683
-0.508608 0.604528 0.961832
-0.597829 0.604561 0.906477
-0.661322 0.604417 0.865099
-0.563779 0.604412 0.903359
-0.64768 0.604475 0.850474
-0.54526 0.604434 0.891405
-0.539652 0.604482 0.883368
-0.533088 0.604555 0.875639
-0.552906 0.604656 0.854548
-0.545493 0.604869 0.846343
-0.570698 0.605007 0.822309
-0.566574 0.605072 0.813399
-0.494272 0.605362 0.837128
-0.557241 0.60558 0.793678
-0.495422 0.605824 0.812441
-0.543719 0.606186 0.77537
-0.484554 0.60657 0.79187
-0.441176 0.607015 0.800064
-0.422089 0.607459 0.796106
-0.428016 0.608008 0.778936
-0.473574 0.608573 0.741823
-0.396915 0.609259 0.764993
-0.426579 0.610203 0.733271
-0.404699 0.611079 0.72774
-0.38531 0.612489 0.717364
-0.320589 0.614148 0.72794
-0.562449 0.632629 1.14088
-0.520789 0.630375 1.16369
-0.512651 0.628597 1.1671
-0.585295 0.627632 1.12555
-0.584293 0.626526 1.12165
-0.51933 0.625438 1.14968
-0.539745 0.624523 1.13405
-0.586321 0.623926 1.10354
-0.603494 0.623341 1.08768
-0.535705 0.622343 1.11672
-0.576794 0.621795 1.08874
-0.625081 0.621264 1.05708
-0.613818 0.620749 1.05511
-0.591845 0.620254 1.0584
-0.649995 0.619777 1.02153
-0.592986 0.619322 1.04214
-0.639547 0.619102 1.00959
-0.599384 0.618815 1.02079
-0.618148 0.618413 1.00323
-0.636738 0.618035 0.985635
-0.620393 0.617855 0.984328
-0.53006 0.617645 1.0202
-0.622561 0.617327 0.965313
-0.555386 0.617178 0.989254
-0.613871 0.617027 0.950382
-0.67434 0.616774 0.911141
-0.587271 0.616673 0.944755
-0.635717 0.61657 0.910623
-0.628796 0.616507 0.903936
-0.609227 0.616469 0.90342
-0.63242 0.616401 0.881711
-0.595281 0.616403 0.889738
-0.55737 0.616431 0.897988
-0.614353 0.616485 0.858626
-0.672232 0.616566 0.818647
-0.571678 0.616671 0.857732
-0.656697 0.616782 0.803991
-0.486249 0.616809 0.878508
-0.537203 0.616971 0.841471
-0.581122 0.617262 0.807126
-0.61207 0.617477 0.779748
-0.47178 0.617718 0.837809
-0.562938 0.618083 0.779349
-0.523437 0.618471 0.786061
-0.60302 0.618881 0.733073
-0.476749 0.619314 0.782853
-0.471901 0.61983 0.771371
-0.432265 0.620408 0.776864
-0.465077 0.621101 0.745373
-0.379403 0.621926 0.772242
-0.415343 0.62294 0.737041
-0.386836 0.624116 0.732972
-0.344332 0.62544 0.734896
-0.290014 0.629118 0.727236
-0.502391 0.646746 1.17362
-0.506635 0.643816 1.17691
-0.454342 0.642333 1.20053
-0.475139 0.640853 1.18762
-0.488056 0.639388 1.17863
-0.616018 0.638266 1.11023
-0.647778 0.637322 1.08897
-0.545786 0.636704 1.13278
-0.602863 0.635645 1.09957
-0.67701 0.635059 1.05518
-0.660353 0.634487 1.05612
-0.58976 0.633931 1.08397
-0.549042 0.633391 1.0968
-0.674345 0.632869 1.02654
-0.582278 0.632366 1.06487
-0.621964 0.631883 1.03722
-0.627254 0.631421 1.02667
-0.491151 0.630981 1.08671
-0.662636 0.630563 0.992829
-0.669094 0.630363 0.980207
-0.597107 0.629981 1.00788
-0.586805 0.629762 1.00377
-0.661129 0.629429 0.958019
-0.629672 0.629272 0.964131
-0.63778 0.629112 0.950484
-0.600622 0.628845 0.960115
-0.644481 0.628852 0.92761
-0.570972 0.628625 0.955187
-0.702243 0.628522 0.879639
-0.54696 0.628464 0.9471
-0.644922 0.628432 0.887785
-0.476298 0.628364 0.96198
-0.630168 0.628372 0.87447
-0.571823 0.628375 0.893099
-0.530883 0.628451 0.90258
-0.623248 0.628557 0.845224
-0.634741 0.628554 0.828964
-0.56337 0.628684 0.853319
-0.519095 0.628952 0.863273
-0.518168 0.629136 0.852068
-0.500527 0.629347 0.849043
-0.569772 0.629585 0.802398
-0.615948 0.62985 0.767109
-0.44983 0.630243 0.83716
-0.537672 0.63066 0.780073
-0.501951 0.631099 0.78461
-0.458804 0.631613 0.792374
-0.496516 0.632204 0.759204
-0.426502 0.632902 0.7792
-0.437898 0.633653 0.758132
-0.392582 0.63454 0.764532
-0.493446 0.635709 0.696009
-0.461998 0.6373 0.690902
-0.351779 0.639663 0.720177
-0.424336 0.657946 1.22068
-0.547046 0.655608 1.16123
-0.602024 0.653761 1.13305
-0.553468 0.65226 1.1548
-0.537189 0.651107 1.15855
-0.557132 0.650134 1.14323
-0.536147 0.64902 1.14919
-0.650965 0.648399 1.08456
-0.549556 0.647791 1.12799
-0.587614 0.646745 1.10414
-0.630224 0.646174 1.0754
-0.655835 0.645619 1.05509
-0.61843 0.645082 1.0662
-0.527942 0.644563 1.10377
-0.614388 0.644065 1.05277
-0.665695 0.643587 1.01925
-0.64343 0.643356 1.02112
-0.611461 0.642911 1.02907
-0.66952 0.64249 0.991887
-0.493454 0.642238 1.07081
-0.641473 0.641864 0.9884
-0.604256 0.641686 0.997486
-0.617297 0.641351 0.982361
-0.59861 0.641182 0.982148
-0.684179 0.6409 0.930472
-0.689972 0.640769 0.917809
-0.662528 0.640664 0.921619
-0.64609 0.640554 0.919959
-0.632608 0.640487 0.916566
-0.598216 0.640398 0.923763
-0.623443 0.640305 0.901181
-0.567148 0.64032 0.918722
-0.58658 0.640274 0.898755
-0.547106 0.640331 0.907638
-0.546277 0.640414 0.897032
-0.631988 0.640525 0.84299
-0.557272 0.64065 0.869074
-0.539415 0.640802 0.866562
-0.633905 0.640981 0.807704
-0.549887 0.641188 0.837926
-0.489269 0.641423 0.856272
-0.475409 0.641686 0.851063
-0.54533 0.642083 0.803135
-0.505467 0.642399 0.810582
-0.531181 0.642844 0.784434
-0.493908 0.643356 0.789355
-0.505164 0.643863 0.770027
-0.567532 0.644569 0.723891
-0.462477 0.645318 0.761174
-0.440369 0.646232 0.755938
-0.417702 0.647267 0.750189
-0.345163 0.64877 0.766418
-0.367323 0.650845 0.731658
-0.445137 0.66941 1.21661
-0.5316 0.667018 1.17534
-0.555742 0.665481 1.16075
-0.59305 0.663958 1.13954
-0.491269 0.662959 1.18511
-0.514959 0.661809 1.16879
-0.605867 0.661168 1.11614
-0.673809 0.660061 1.07752
-0.678915 0.659452 1.06765
-0.615809 0.658857 1.09183
-0.589554 0.658277 1.09751
-0.62121 0.657552 1.07505
-0.609609 0.657009 1.07325
-0.606059 0.656485 1.06733
-0.64107 0.655981 1.04204
-0.691003 0.655498 1.00918
-0.604345 0.655038 1.04451
-0.554893 0.654754 1.06027
-0.61836 0.654544 1.01916
-0.703779 0.654141 0.968163
-0.646739 0.653765 0.988263
-0.569677 0.653414 1.01824
-0.651627 0.653395 0.966839
-0.664854 0.653084 0.951465
-0.606147 0.652801 0.971909
-0.616066 0.652686 0.957079
-0.529854 0.652569 0.990338
-0.673278 0.652459 0.90874
-0.656696 0.65231 0.907375
-0.587584 0.65229 0.931532
-0.626728 0.652223 0.901832
-0.702254 0.652245 0.85343
-0.634693 0.652201 0.876954
-0.521956 0.652264 0.922437
-0.570669 0.652356 0.887031
-0.57034 0.652475 0.875978
-0.564865 0.652607 0.867422
-0.570752 0.652767 0.85301
-0.565138 0.652956 0.844176
-0.589163 0.653172 0.820349
-0.522089 0.653417 0.841896
-0.634182 0.653803 0.77301
-0.571523 0.654207 0.791378
-0.514354 0.654549 0.807365
-0.563956 0.655024 0.769149
-0.494123 0.655625 0.789869
-0.544055 0.656211 0.750788
-0.456956 0.656955 0.779235
-0.410254 0.657754 0.787131
-0.462196 0.658792 0.744215
-0.527927 0.660027 0.693163
-0.454018 0.661706 0.70917
-0.282839 0.665218 0.762468
-0.565949 0.684422 1.15459
-0.488051 0.680818 1.20153
-0.479392 0.678903 1.20512
-0.553545 0.67734 1.16551
-0.632522 0.676135 1.12165
-0.537162 0.674945 1.16492
-0.593409 0.67395 1.13139
-0.592452 0.672806 1.1273
-0.586848 0.672174 1.12282
-0.510994 0.671555 1.15342
-0.655404 0.670486 1.07633
-0.657786 0.669908 1.06764
-0.704914 0.669348 1.03649
-0.637028 0.668807 1.06278
-0.620972 0.668286 1.06305
-0.556145 0.667787 1.08761
-0.629747 0.667545 1.04156
-0.622992 0.667079 1.03693
-0.680039 0.666637 1.00028
-0.625943 0.666219 1.01908
-0.597485 0.665827 1.02494
-0.663092 0.665641 0.98263
-0.601615 0.665441 1.00395
-0.637366 0.665114 0.977363
-0.628122 0.664816 0.973129
-0.63662 0.664677 0.959139
-0.545267 0.664568 0.994912
-0.570153 0.664341 0.973234
-0.699301 0.664286 0.89846
-0.640257 0.664198 0.91797
-0.626836 0.664185 0.91425
-0.576326 0.664119 0.92937
-0.574164 0.664105 0.920025
-0.63031 0.664204 0.880878
-0.607548 0.664176 0.88191
-0.561567 0.664271 0.893847
-0.63781 0.664403 0.844451
-0.512494 0.66456 0.895693
-0.543794 0.664745 0.868457
-0.565646 0.664958 0.845772
-0.592744 0.6652 0.820291
-0.578041 0.66547 0.815536
-0.59455 0.665768 0.795001
-0.570757 0.66621 0.793766
-0.535408 0.666787 0.797494
-0.503965 0.667199 0.800233
-0.454408 0.667835 0.810682
-0.41048 0.668457 0.818378
-0.47264 0.669346 0.771422
-0.55162 0.670283 0.715739
-0.512397 0.671412 0.717973
-0.332411 0.672819 0.788884
-0.397314 0.675579 0.729157
-0.472664 0.694993 1.21198
-0.506515 0.692171 1.19873
-0.516537 0.690575 1.19117
-0.583033 0.68899 1.15537
-0.657241 0.687768 1.11389
-0.648838 0.686745 1.11271
-0.610185 0.685564 1.12752
-0.581746 0.68491 1.1345
-0.553459 0.683777 1.14394
-0.591585 0.683158 1.1175
-0.561422 0.682555 1.12515
-0.649004 0.681796 1.07476
-0.607234 0.68123 1.08806
-0.629691 0.680683 1.06915
-0.610746 0.680157 1.07085
-0.670774 0.679653 1.03297
-0.629533 0.679171 1.04561
-0.733321 0.678714 0.985629
-0.663864 0.67828 1.01215
-0.655284 0.678073 1.00702
-0.631781 0.677679 1.01038
-0.586721 0.67747 1.02352
-0.643662 0.677128 0.986392
-0.661747 0.676967 0.967709
-0.675831 0.676668 0.951792
-0.657526 0.67655 0.951081
-0.592101 0.676308 0.974618
-0.589562 0.676348 0.965164
-0.575195 0.67615 0.962939
-0.662831 0.676063 0.909103
-0.615895 0.675992 0.922468
-0.648374 0.676077 0.89525
-0.629783 0.675986 0.894554
-0.69552 0.676066 0.850739
-0.627174 0.676047 0.874513
-0.619723 0.676171 0.86704
-0.60906 0.676323 0.861006
-0.586771 0.676476 0.860777
-0.601005 0.67667 0.842044
-0.546818 0.676893 0.857351
-0.587589 0.67722 0.82458
-0.609623 0.677516 0.801342
-0.573192 0.677961 0.806466
-0.555473 0.678312 0.802766
-0.492525 0.678808 0.820831
-0.486924 0.679369 0.80983
-0.499985 0.68004 0.788839
-0.502684 0.680809 0.772432
-0.382572 0.681741 0.816459
-0.392825 0.682749 0.794822
-0.396412 0.684159 0.774125
-0.39073 0.68593 0.755886
-0.503897 0.706354 1.20277
-0.662412 0.70402 1.12449
-0.569596 0.702208 1.1693
-0.576783 0.7006 1.16314
-0.600936 0.699551 1.1457
-0.609742 0.698334 1.13683
-0.555535 0.69766 1.15673
-0.608279 0.696487 1.12573
-0.619692 0.695845 1.11269
-0.662169 0.695036 1.08501
-0.661841 0.694427 1.07772
-0.657042 0.693546 1.0741
-0.650653 0.692983 1.06964
-0.719021 0.692709 1.02631
-0.72786 0.691744 1.01638
-0.64809 0.691492 1.04703
-0.658405 0.691007 1.03388
-0.680192 0.690545 1.01488
-0.618319 0.690278 1.03669
-0.698888 0.689866 0.988065
-0.648306 0.68967 1.00387
-0.659063 0.689299 0.989957
-0.702694 0.688956 0.959463
-0.746633 0.688642 0.928672
-0.694567 0.688655 0.944127
-0.689188 0.688383 0.937778
-0.571005 0.688142 0.987675
-0.629111 0.688085 0.948433
-0.548364 0.68799 0.978824
-0.672271 0.687904 0.906847
-0.659353 0.687841 0.903157
-0.638054 0.687884 0.903073
-0.609311 0.687844 0.907171
-0.609283 0.687932 0.896207
-0.672186 0.687916 0.854351
-0.655007 0.688048 0.851712
-0.665013 0.688209 0.835313
-0.575738 0.6884 0.868388
-0.597034 0.68862 0.846007
-0.613502 0.688869 0.82587
-0.670776 0.689147 0.785158
-0.543386 0.689454 0.836606
-0.486243 0.689916 0.852047
-0.545273 0.690409 0.809208
-0.594523 0.690815 0.771741
-0.408503 0.691535 0.850104
-0.499565 0.692241 0.789983
-0.438306 0.693053 0.805395
-0.476103 0.69403 0.7703
-0.377359 0.695302 0.80175
-0.432391 0.696937 0.754174
-0.401641 0.699518 0.743957
-0.619002 0.717658 1.15167
-0.525438 0.715644 1.19766
-0.547644 0.713997 1.184
-0.570964 0.712724 1.16797
-0.617715 0.711467 1.14019
-0.562139 0.710422 1.16255
-0.594911 0.709211 1.1416
-0.642815 0.708547 1.11036
-0.601441 0.707708 1.12466
-0.614826 0.706763 1.11215
-0.669518 0.706155 1.0773
-0.726905 0.70538 1.04197
-0.665846 0.704812 1.06483
-0.667634 0.704264 1.05618
-0.687359 0.703738 1.03847
-0.651598 0.703235 1.04839
-0.633635 0.702993 1.04809
-0.66179 0.702527 1.02589
-0.587763 0.702086 1.05467
-0.697909 0.701672 0.991231
-0.597124 0.701285 1.03313
-0.635914 0.701103 1.00418
-0.637479 0.700758 0.994703
-0.65808 0.70061 0.974685
-0.759995 0.700323 0.914743
-0.641434 0.700191 0.964227
-0.637484 0.700067 0.956369
-0.734431 0.6999 0.898292
-0.691221 0.699721 0.910367
-0.60737 0.699799 0.941385
-0.724452 0.699666 0.873069
-0.724074 0.699718 0.862492
-0.574258 0.699679 0.927121
-0.603723 0.699761 0.901458
-0.64118 0.699901 0.871479
-0.636379 0.700048 0.862592
-0.667458 0.700074 0.836417
-0.448639 0.700274 0.934235
-0.617165 0.700504 0.838211
-0.584077 0.700764 0.842824
-0.61846 0.701141 0.81304
-0.581974 0.701475 0.818923
-0.510761 0.701968 0.841275
-0.528676 0.702358 0.819623
-0.582154 0.703058 0.778442
-0.534834 0.70364 0.788301
-0.533142 0.704438 0.77412
-0.4236 0.705395 0.81294
-0.425752 0.706441 0.795376
-0.370509 0.70791 0.804091
-0.393089 0.709747 0.771751
-0.559776 0.732798 1.17973
-0.485435 0.729477 1.2222
-0.541101 0.727227 1.19455
-0.569486 0.725557 1.17779
-0.59933 0.724268 1.15849
-0.65527 0.723196 1.12511
-0.634763 0.721948 1.13085
-0.571705 0.721262 1.15513
-0.655417 0.720063 1.10858
-0.592699 0.719413 1.13256
-0.683115 0.718587 1.08087
-0.715702 0.717972 1.05706
-0.634827 0.717377 1.0899
-0.655352 0.716802 1.07197
-0.683806 0.71606 1.05092
-0.624517 0.71553 1.07269
-0.670648 0.715024 1.04165
-0.624025 0.714542 1.05688
-0.639602 0.714086 1.04089
-0.728647 0.713867 0.986965
-0.696717 0.713451 0.994548
-0.65006 0.713063 1.00936
-0.662115 0.712878 0.993787
-0.755607 0.712708 0.937417
-0.688778 0.712391 0.961977
-0.69738 0.712105 0.948672
-0.630415 0.71185 0.972998
-0.694597 0.7119 0.930158
-0.568693 0.71169 0.983723
-0.73076 0.711597 0.892695
-0.719587 0.711528 0.888164
-0.646506 0.711467 0.914546
-0.683883 0.711528 0.88506
-0.663309 0.711491 0.885062
-0.603767 0.711583 0.903858
-0.61212 0.711731 0.888412
-0.6462 0.711746 0.860806
-0.635128 0.711943 0.8548
-0.58545 0.71217 0.86793
-0.610574 0.712426 0.843492
-0.532532 0.712713 0.870466
-0.688719 0.713029 0.780157
-0.585566 0.713374 0.819347
-0.556207 0.714015 0.82002
-0.67423 0.714432 0.748205
-0.536381 0.715137 0.802734
-0.56933 0.71579 0.772129
-0.50734 0.716631 0.787935
-0.461435 0.71765 0.794688
-0.463765 0.71885 0.776286
-0.431123 0.720542 0.772598
-0.409325 0.723219 0.757941
-0.598655 0.744078 1.16672
-0.615639 0.741058 1.16184
-0.601622 0.739352 1.16627
-0.578936 0.737655 1.17504
-0.684518 0.736345 1.11787
-0.623104 0.735053 1.14414
-0.689658 0.733786 1.10635
-0.666941 0.733092 1.11045
-0.633756 0.731876 1.12234
-0.737086 0.73122 1.06328
-0.682259 0.73058 1.08324
-0.664686 0.729958 1.0845
-0.609719 0.72916 1.10534
-0.636448 0.72858 1.08428
-0.67657 0.728021 1.05644
-0.630695 0.727486 1.07149
-0.627556 0.726974 1.06508
-0.653773 0.726488 1.04387
-0.746649 0.726027 0.989222
-0.672007 0.725594 1.01821
-0.629208 0.725387 1.03014
-0.712588 0.724996 0.979924
-0.725321 0.724634 0.964895
-0.768608 0.724302 0.934446
-0.708564 0.724147 0.954769
-0.684997 0.723861 0.957529
-0.654074 0.72373 0.963181
-0.687434 0.723556 0.936919
-0.686834 0.723456 0.927257
-0.734677 0.723364 0.893335
-0.64375 0.723304 0.928634
-0.693609 0.723244 0.893541
-0.672803 0.723278 0.893296
-0.641603 0.723411 0.897725
-0.641938 0.723382 0.887236
-0.587009 0.723537 0.903412
-0.635088 0.723557 0.86879
-0.620688 0.723764 0.864418
-0.651913 0.724002 0.837068
-0.56505 0.724269 0.868594
-0.654631 0.724567 0.81173
-0.609101 0.724895 0.822252
-0.63276 0.725371 0.797372
-0.601523 0.725774 0.800323
-0.658473 0.726479 0.757539
-0.663857 0.726974 0.741654
-0.487942 0.727803 0.814597
-0.558081 0.728691 0.764171
-0.486946 0.729886 0.782677
-0.485784 0.731263 0.765171
-0.455273 0.733318 0.758594
-0.422702 0.737025 0.743915
-0.570885 0.755298 1.1871
-0.55312 0.752596 1.19789
-0.500888 0.750865 1.22142
-0.617632 0.749146 1.16046
-0.689416 0.747822 1.12016
-0.620427 0.746729 1.14919
-0.613324 0.745804 1.14651
-0.586261 0.744547 1.15542
-0.61892 0.743867 1.13174
-0.662656 0.743203 1.10247
-0.652012 0.742035 1.10283
-0.625417 0.741417 1.10854
-0.621496 0.74082 1.10283
-0.62077 0.740045 1.09641
-0.607793 0.739494 1.09505
-0.710816 0.739227 1.03431
-0.644914 0.738712 1.05926
-0.697927 0.738223 1.02463
-0.683195 0.73776 1.02377
-0.67421 0.737325 1.01991
-0.69452 0.737118 1.00028
-0.599933 0.736726 1.03903
-0.661063 0.736364 0.999777
-0.747824 0.736031 0.947572
-0.692038 0.73573 0.966494
-0.683512 0.735772 0.960071
-0.69442 0.735517 0.945427
-0.643565 0.735294 0.961506
-0.65051 0.735195 0.948065
-0.673629 0.735196 0.926037
-0.684295 0.735055 0.910955
-0.656312 0.734997 0.914776
-0.620051 0.735041 0.922213
-0.582813 0.735165 0.929729
-0.732861 0.735157 0.844279
-0.626847 0.735157 0.886816
-0.630448 0.735345 0.873578
-0.588145 0.735562 0.883128
-0.623102 0.735811 0.853882
-0.583576 0.736089 0.861712
-0.659996 0.736489 0.810924
-0.586783 0.736845 0.835175
-0.554121 0.737231 0.838983
-0.521391 0.73779 0.841897
-0.602395 0.738394 0.787688
-0.622096 0.739205 0.76302
-0.431488 0.739939 0.843887
-0.500108 0.740871 0.794067
-0.430377 0.742243 0.811036
-0.512979 0.743708 0.751304
-0.487793 0.746125 0.7403
-0.516061 0.767064 1.21829
-0.636011 0.764699 1.15847
-0.59335 0.76294 1.17722
-0.595444 0.761196 1.17358
-0.514241 0.75985 1.20977
-0.611354 0.758527 1.15675
-0.715913 0.757231 1.09991
-0.623115 0.756528 1.139
-0.585106 0.75584 1.15064
-0.655566 0.754627 1.11055
-0.667373 0.753984 1.09713
-0.671272 0.75315 1.08857
-0.666713 0.752549 1.08317
-0.710804 0.751969 1.05335
-0.694325 0.751412 1.05373
-0.739718 0.75088 1.02306
-0.728024 0.750422 1.0206
-0.671825 0.74993 1.04057
-0.692384 0.749466 1.02204
-0.67537 0.749029 1.02217
-0.688897 0.748621 1.0069
-0.734781 0.748429 0.974418
-0.622528 0.748066 1.02184
-0.715211 0.747734 0.966654
-0.745297 0.747621 0.941696
-0.740619 0.747482 0.934252
-0.57382 0.747228 1.00844
-0.64554 0.747008 0.963212
-0.648315 0.74691 0.951851
-0.721105 0.746918 0.904952
-0.739543 0.74678 0.885965
-0.66024 0.746724 0.91544
-0.689399 0.74678 0.890121
-0.664445 0.746914 0.891463
-0.698159 0.746908 0.864175
-0.661763 0.747089 0.870992
-0.649249 0.747137 0.866542
-0.593569 0.747382 0.882665
-0.651034 0.747658 0.842051
-0.546855 0.747964 0.882092
-0.513364 0.748302 0.886623
-0.664407 0.74867 0.79872
-0.637422 0.749068 0.799664
-0.634465 0.749647 0.787643
-0.591735 0.750412 0.794522
-0.606972 0.750956 0.773553
-0.561203 0.751993 0.780488
-0.523479 0.753047 0.783284
-0.519253 0.754479 0.767307
-0.53612 0.756264 0.738886
-0.432716 0.759088 0.765046
-0.586722 0.77857 1.18779
-0.567103 0.776392 1.19675
-0.674662 0.774382 1.14141
-0.630796 0.773 1.15898
-0.624359 0.77186 1.15676
-0.536454 0.770517 1.19624
-0.684592 0.769202 1.1176
-0.67846 0.768491 1.11335
-0.649823 0.767234 1.1229
-0.689437 0.766565 1.09563
-0.660405 0.765698 1.10362
-0.646387 0.765069 1.10302
-0.687917 0.764461 1.07456
-0.659984 0.763664 1.08174
-0.703666 0.763104 1.05201
-0.651789 0.762569 1.06996
-0.698986 0.762059 1.03827
-0.6381 0.761815 1.05938
-0.732588 0.761347 1.00387
-0.74678 0.760907 0.988383
-0.725364 0.760497 0.990574
-0.774234 0.760303 0.956592
-0.694301 0.759938 0.987842
-0.709695 0.759605 0.971285
-0.642279 0.759303 0.995987
-0.680278 0.759165 0.967199
-0.634122 0.758913 0.981045
-0.721015 0.758695 0.928209
-0.642627 0.758695 0.956945
-0.705323 0.758543 0.91589
-0.703401 0.75848 0.90671
-0.659666 0.75856 0.917731
-0.745863 0.758494 0.86451
-0.624191 0.758637 0.914179
-0.686537 0.758634 0.872569
-0.769273 0.758826 0.81979
-0.65383 0.758879 0.866787
-0.581919 0.759136 0.890996
-0.704207 0.759423 0.817941
-0.600917 0.759742 0.85751
-0.619588 0.760092 0.835933
-0.63089 0.760472 0.817875
-0.492434 0.761022 0.873819
-0.632963 0.761479 0.790732
-0.524937 0.762295 0.830068
-0.586308 0.763026 0.785124
-0.57051 0.763967 0.777656
-0.501103 0.76511 0.79593
-0.515637 0.766711 0.769825
-0.496233 0.768736 0.75844
-0.402207 0.773635 0.769345
-0.482208 0.794857 1.23424
-0.57433 0.790662 1.19606
-0.637577 0.788218 1.16462
-0.658539 0.786408 1.15155
-0.657642 0.784618 1.14936
-0.662478 0.78324 1.14251
-0.680363 0.782258 1.12738
-0.647089 0.781154 1.13841
-0.608853 0.780208 1.15124
-0.656428 0.779161 1.12164
-0.720362 0.778261 1.08322
-0.66454 0.777605 1.10358
-0.691667 0.776748 1.08341
-0.670078 0.776136 1.0865
-0.700032 0.775547 1.06372
-0.676435 0.774982 1.06762
-0.699747 0.774228 1.04896
-0.648052 0.773716 1.0667
-0.66461 0.773471 1.04908
-0.707301 0.773001 1.01944
-0.721879 0.772561 1.00375
-0.73135 0.77215 0.990474
-0.807672 0.77177 0.943641
-0.793453 0.771591 0.941131
-0.722679 0.771259 0.967637
-0.680694 0.770959 0.979603
-0.618527 0.770692 1.00151
-0.571392 0.770571 1.01521
-0.749974 0.770459 0.916005
-0.677339 0.770365 0.942329
-0.697914 0.770216 0.922315
-0.628588 0.770155 0.94683
-0.675041 0.770245 0.912724
-0.695779 0.770182 0.892213
-0.700207 0.770337 0.8788
-0.642497 0.770336 0.897213
-0.666981 0.770538 0.873527
-0.656978 0.770598 0.867787
-0.557307 0.770866 0.905846
-0.748132 0.771165 0.798494
-0.642768 0.771496 0.839072
-0.61509 0.771692 0.841471
-0.610919 0.772378 0.829659
-0.635091 0.772818 0.804891
-0.528165 0.773447 0.84471
-0.595191 0.773972 0.79806
-0.553278 0.774877 0.803944
-0.488644 0.775992 0.820096
-0.621757 0.777123 0.737268
-0.485939 0.778794 0.78612
-0.471131 0.781316 0.770067
-0.481981 0.805983 1.24086
-0.560316 0.802094 1.20796
-0.579125 0.79985 1.1977
-0.619934 0.797779 1.17575
-0.669671 0.796361 1.1465
-0.618097 0.795201 1.16679
-0.604759 0.793829 1.16895
-0.697488 0.792853 1.11634
-0.650727 0.792127 1.13238
-0.704685 0.790838 1.10061
-0.686342 0.790156 1.10229
-0.705792 0.789264 1.08604
-0.712339 0.788625 1.07513
-0.716356 0.788007 1.0654
-0.637641 0.787188 1.09796
-0.665857 0.78662 1.07594
-0.667587 0.786078 1.06705
-0.718998 0.785563 1.03322
-0.704027 0.785098 1.03236
-0.652555 0.784627 1.04979
-0.709514 0.784186 1.01288
-0.771143 0.783774 0.973511
-0.718551 0.783395 0.991114
-0.73923 0.783217 0.971148
-0.687502 0.782885 0.988111
-0.720622 0.782587 0.962502
-0.6857 0.782322 0.970764
-0.706762 0.782403 0.949406
-0.753922 0.782188 0.916402
-0.698806 0.782008 0.934375
-0.693216 0.781863 0.927422
-0.687358 0.781804 0.920197
-0.72108 0.781903 0.892423
-0.735804 0.781846 0.8749
-0.676492 0.782011 0.893325
-0.662721 0.782013 0.889762
-0.767772 0.782226 0.825762
-0.672108 0.782292 0.862834
-0.612775 0.782572 0.880695
-0.701395 0.782883 0.824416
-0.659392 0.783053 0.834135
-0.545016 0.78343 0.879018
-0.703564 0.784138 0.785799
-0.567759 0.784425 0.841815
-0.640481 0.785248 0.790911
-0.575901 0.785938 0.80929
-0.620483 0.786864 0.771899
-0.643694 0.787936 0.744437
-0.584095 0.789274 0.757022
-0.529071 0.79101 0.765285
-0.505563 0.793957 0.751646
-0.609325 0.817443 1.18206
-0.63266 0.814134 1.17391
-0.608106 0.811612 1.1864
-0.620603 0.809755 1.17754
-0.662862 0.808316 1.15202
-0.67636 0.806899 1.14083
-0.65369 0.805509 1.14765
-0.716513 0.804761 1.10893
-0.667418 0.803428 1.12877
-0.662624 0.802721 1.12373
-0.638339 0.801796 1.12942
-0.727768 0.801129 1.07713
-0.746029 0.800249 1.06139
-0.718299 0.799628 1.06751
-0.789535 0.79903 1.02407
-0.71842 0.798229 1.05272
-0.752913 0.797684 1.02744
-0.673375 0.797167 1.05906
-0.715321 0.796919 1.02873
-0.732709 0.796446 1.01172
-0.691699 0.796002 1.02378
-0.696191 0.795588 1.01297
-0.712766 0.794992 0.996959
-0.732697 0.794814 0.97736
-0.758867 0.794484 0.955352
-0.666415 0.794331 0.991842
-0.829697 0.794133 0.900682
-0.672496 0.794014 0.9694
-0.709932 0.793801 0.941236
-0.761727 0.793624 0.905733
-0.754905 0.793483 0.899375
-0.74003 0.793625 0.895718
-0.685773 0.793536 0.912834
-0.748505 0.793484 0.871287
-0.676796 0.793659 0.895878
-0.680157 0.793664 0.883743
-0.715368 0.793889 0.854632
-0.643212 0.793961 0.879932
-0.733177 0.794253 0.823113
-0.698008 0.794396 0.829572
-0.682799 0.794754 0.825007
-0.681227 0.795144 0.813461
-0.670223 0.795701 0.80581
-0.626138 0.796171 0.815112
-0.626506 0.797016 0.800341
-0.563335 0.797761 0.817812
-0.561885 0.798736 0.803269
-0.584285 0.799612 0.777265
-0.537224 0.80114 0.782755
-0.565339 0.803069 0.748635
-0.415286 0.806767 0.79478
-0.618283 0.829111 1.18143
-0.590944 0.82549 1.19974
-0.661673 0.823594 1.16176
-0.61205 0.821711 1.18396
-0.672638 0.820252 1.14928
-0.70725 0.818815 1.12753
-0.710256 0.817406 1.1215
-0.681661 0.816403 1.12955
-0.739269 0.8153 1.09497
-0.662377 0.814341 1.12703
-0.698984 0.813648 1.10121
-0.667272 0.812733 1.11053
-0.73362 0.812083 1.06969
-0.629278 0.811456 1.11411
-0.699751 0.810617 1.07207
-0.734952 0.810042 1.04653
-0.807181 0.809493 1.00236
-0.69466 0.808742 1.05149
-0.721752 0.808494 1.02858
-0.725252 0.808019 1.01849
-0.722895 0.807575 1.01121
-0.7783 0.807162 0.974911
-0.74828 0.806968 0.980351
-0.673049 0.806604 1.00917
-0.743641 0.806273 0.964936
-0.725618 0.805976 0.964863
-0.72871 0.805841 0.953503
-0.659422 0.805596 0.978836
-0.672941 0.805387 0.96261
-0.771863 0.805214 0.903521
-0.664159 0.805141 0.947288
-0.705476 0.805227 0.91581
-0.771021 0.805143 0.873005
-0.691097 0.805096 0.902766
-0.679002 0.805283 0.897517
-0.657329 0.805291 0.897894
-0.714188 0.805527 0.857927
-0.585384 0.805606 0.911533
-0.663881 0.80591 0.860418
-0.670003 0.80606 0.846215
-0.606622 0.806432 0.865707
-0.557787 0.806835 0.877765
-0.617444 0.80741 0.834747
-0.63345 0.807893 0.813979
-0.570399 0.808588 0.831707
-0.536179 0.809525 0.833839
-0.561597 0.810357 0.806634
-0.579862 0.811586 0.781063
-0.585271 0.813269 0.759682
-0.548625 0.815271 0.757736
-0.443461 0.819607 0.778607
-0.629463 0.840485 1.18079
-0.632154 0.837478 1.1813
-0.594205 0.835556 1.19766
-0.66571 0.833388 1.16038
-0.749313 0.83191 1.11419
-0.626705 0.830455 1.17105
-0.632679 0.829284 1.16244
-0.722502 0.828266 1.11129
-0.714188 0.8269 1.11072
-0.729866 0.826181 1.09542
-0.669699 0.825231 1.11905
-0.759263 0.824554 1.06666
-0.665578 0.823652 1.10689
-0.713341 0.823022 1.07524
-0.771765 0.822416 1.03817
-0.737167 0.821596 1.04856
-0.69355 0.821046 1.06229
-0.742146 0.820524 1.02981
-0.780787 0.820274 1.00113
-0.697372 0.819563 1.03552
-0.697183 0.819119 1.02713
-0.717906 0.818707 1.00815
-0.761838 0.818513 0.976605
-0.717336 0.81815 0.990038
-0.782488 0.817821 0.948502
-0.641064 0.817527 1.01011
-0.841292 0.817393 0.900172
-0.625579 0.817152 0.998695
-0.631583 0.816946 0.986204
-0.826397 0.816777 0.879148
-0.741728 0.816706 0.91139
-0.66683 0.816802 0.937986
-0.677505 0.816723 0.922595
-0.68732 0.816682 0.907465
-0.689562 0.816879 0.895023
-0.687183 0.816891 0.885739
-0.688272 0.816941 0.874548
-0.677547 0.817225 0.868174
-0.698287 0.817542 0.845908
-0.623859 0.8177 0.871962
-0.715633 0.818084 0.813849
-0.593773 0.818501 0.862392
-0.654621 0.819094 0.818742
-0.621489 0.819591 0.822518
-0.550639 0.820305 0.844114
-0.612735 0.821267 0.798045
-0.642708 0.822119 0.768536
-0.623298 0.82347 0.761311
-0.571004 0.825097 0.769183
-0.532394 0.827302 0.767395
-0.677649 0.852498 1.15888
-0.59321 0.849447 1.20296
-0.710114 0.847231 1.143
-0.674005 0.845297 1.15843
-0.683443 0.843799 1.14932
-0.573254 0.842325 1.19996
-0.68716 0.84088 1.13847
-0.693046 0.84011 1.12819
-0.708156 0.838985 1.11482
-0.732854 0.837743 1.09717
-0.766147 0.837039 1.07298
-0.660943 0.836101 1.11905
-0.742087 0.835442 1.07078
-0.775314 0.834807 1.04638
-0.715324 0.833948 1.06957
-0.800426 0.833367 1.01904
-0.732996 0.832813 1.04467
-0.797959 0.832303 1.00393
-0.759705 0.831795 1.0148
-0.772058 0.831318 1.00025
-0.715114 0.830872 1.02022
-0.730775 0.830458 1.00376
-0.745002 0.830029 0.988094
-0.655071 0.829668 1.02422
-0.700605 0.829341 0.99247
-0.627582 0.829191 1.01923
-0.688758 0.828917 0.979436
-0.701542 0.828679 0.963689
-0.743901 0.828477 0.932998
-0.681999 0.82839 0.953929
-0.709617 0.828462 0.92939
-0.751631 0.828351 0.898475
-0.653053 0.828277 0.937689
-0.683005 0.828241 0.91247
-0.711753 0.828447 0.886756
-0.739135 0.828466 0.862572
-0.68437 0.828523 0.879288
-0.641127 0.82882 0.889142
-0.673045 0.828949 0.862175
-0.658879 0.829315 0.857163
-0.571516 0.829713 0.888591
-0.654359 0.82995 0.835648
-0.68944 0.830754 0.803952
-0.637942 0.831078 0.817758
-0.62724 0.831999 0.808375
-0.618727 0.832804 0.798417
-0.552959 0.833857 0.815904
-0.566341 0.835239 0.792241
-0.538633 0.83673 0.78858
-0.534658 0.83932 0.76782
-0.66436 0.86449 1.16773
-0.727099 0.86112 1.13934
-0.6067 0.859145 1.19692
-0.647114 0.857186 1.17409
-0.626677 0.855669 1.17991
-0.705045 0.854175 1.13627
-0.689106 0.852712 1.1397
-0.668823 0.851667 1.1436
-0.709662 0.850907 1.11579
-0.667912 0.849538 1.13183
-0.756346 0.848565 1.08115
-0.670015 0.847878 1.11669
-0.680175 0.847213 1.1039
-0.721403 0.846316 1.07657
-0.750717 0.845704 1.05402
-0.708401 0.844866 1.06825
-0.79142 0.844584 1.01748
-0.763248 0.844044 1.02341
-0.773429 0.843534 1.01005
-0.759068 0.842808 1.00989
-0.778027 0.842363 0.991891
-0.735269 0.842152 1.00375
-0.856063 0.841757 0.934632
-0.755588 0.841395 0.976015
-0.668157 0.841068 1.01073
-0.761893 0.840918 0.954105
-0.727322 0.840413 0.963188
-0.786956 0.840291 0.923499
-0.683512 0.840208 0.96518
-0.743414 0.840123 0.925205
-0.727599 0.839979 0.923347
-0.797066 0.839873 0.878683
-0.726101 0.839805 0.904069
-0.698798 0.839775 0.907455
-0.765079 0.83999 0.862957
-0.741831 0.840015 0.864068
-0.724041 0.840078 0.862276
-0.720716 0.840388 0.852141
-0.665062 0.840526 0.868941
-0.660121 0.840905 0.859288
-0.691713 0.841316 0.831209
-0.72386 0.841562 0.803599
-0.715624 0.842195 0.794405
-0.631023 0.842724 0.823858
-0.570123 0.843479 0.840402
-0.683977 0.844494 0.768358
-0.670526 0.845388 0.760498
-0.618765 0.846805 0.769351
-0.536622 0.848507 0.792035
-0.529646 0.850977 0.773521
-0.646534 0.87618 1.17999
-0.595025 0.87304 1.20762
-0.646904 0.871039 1.17906
-0.783566 0.868776 1.10922
-0.728631 0.867239 1.13229
-0.744358 0.865728 1.11996
-0.59774 0.864797 1.18649
-0.679329 0.863465 1.14057
-0.617272 0.862426 1.16531
-0.652883 0.861582 1.14044
-0.779017 0.860328 1.07202
-0.781544 0.859635 1.06311
-0.651032 0.8587 1.12174
-0.774187 0.858058 1.05235
-0.678082 0.85718 1.09358
-0.756225 0.856883 1.04529
-0.786839 0.85631 1.02192
-0.842941 0.855511 0.986778
-0.752092 0.855 1.02391
-0.729172 0.854521 1.02696
-0.758597 0.854293 1.00278
-0.650526 0.853614 1.04927
-0.805979 0.85322 0.962809
-0.717158 0.852861 0.998341
-0.717034 0.852695 0.988707
-0.779803 0.852388 0.948231
-0.786029 0.852119 0.935877
-0.77692 0.851886 0.931038
-0.779185 0.851783 0.919953
-0.578562 0.851607 1.01064
-0.761249 0.851468 0.909504
-0.73161 0.851367 0.914371
-0.700296 0.851305 0.91991
-0.692593 0.851289 0.913444
-0.773779 0.851282 0.862493
-0.74235 0.851517 0.866779
-0.785185 0.851568 0.834741
-0.793391 0.851873 0.81889
-0.663002 0.851999 0.873125
-0.645684 0.852374 0.869713
-0.713574 0.852689 0.823955
-0.735895 0.85315 0.800317
-0.712198 0.853643 0.79953
-0.727083 0.854345 0.778502
-0.588958 0.85512 0.833626
-0.678632 0.85616 0.77363
-0.589862 0.857075 0.803402
-0.595875 0.858523 0.783327
-0.645329 0.860079 0.741
-0.501638 0.862779 0.789962
-0.559858 0.888124 1.22559
-0.579544 0.88494 1.21762
-0.683565 0.882626 1.16412
-0.591736 0.880618 1.20739
-0.73453 0.879061 1.1316
-0.660303 0.877531 1.16424
-0.767077 0.876435 1.10469
-0.689524 0.875243 1.13771
-0.685234 0.874191 1.13357
-0.732095 0.87316 1.10379
-0.782665 0.872345 1.0713
-0.764134 0.871372 1.07402
-0.705339 0.870698 1.09569
-0.774538 0.86983 1.05416
-0.724563 0.869198 1.07128
-0.749496 0.868326 1.05194
-0.729142 0.867753 1.05403
-0.713273 0.867209 1.05378
-0.659888 0.866436 1.07325
-0.750905 0.866192 1.01832
-0.688102 0.86573 1.04123
-0.717477 0.865301 1.01792
-0.702842 0.864654 1.01755
-0.773223 0.864471 0.972723
-0.648898 0.864132 1.02592
-0.719118 0.863829 0.98169
-0.763488 0.863563 0.950242
-0.726934 0.863444 0.958635
-0.717079 0.863234 0.954069
-0.89009 0.863063 0.857913
-0.782775 0.862929 0.901759
-0.726707 0.862877 0.919634
-0.688391 0.862802 0.928735
-0.706378 0.862765 0.909518
-0.798176 0.862989 0.852263
-0.783809 0.863009 0.848976
-0.629928 0.863068 0.915275
-0.726665 0.863386 0.855128
-0.746765 0.863521 0.834099
-0.765669 0.863693 0.813496
-0.643614 0.864118 0.862256
-0.708573 0.864712 0.816747
-0.699178 0.865221 0.808783
-0.68069 0.865942 0.804405
-0.66134 0.866329 0.801931
-0.565848 0.867374 0.834574
-0.662262 0.868738 0.769808
-0.621683 0.869741 0.775132
-0.582182 0.871805 0.775103
-0.621812 0.874374 0.733177
-0.563097 0.900046 1.22624
-0.635937 0.896818 1.1917
-0.693327 0.894471 1.16153
-0.705198 0.892438 1.15294
-0.714204 0.890863 1.14404
-0.666238 0.889603 1.16241
-0.703515 0.888203 1.13875
-0.751667 0.887 1.1089
-0.64893 0.885935 1.15398
-0.705387 0.884892 1.1194
-0.713385 0.883872 1.10898
-0.747422 0.883159 1.08433
-0.693271 0.882191 1.10482
-0.816049 0.881529 1.03564
-0.761956 0.880618 1.05591
-0.726379 0.880012 1.06571
-0.787848 0.879435 1.02688
-0.871746 0.87862 0.977819
-0.713493 0.87836 1.04759
-0.774682 0.877863 1.00861
-0.7312 0.877137 1.02292
-0.774515 0.87671 0.992623
-0.721108 0.876509 1.00975
-0.830477 0.876134 0.946225
-0.843736 0.875541 0.931672
-0.791188 0.875241 0.948808
-0.705297 0.875106 0.981937
-0.815659 0.874862 0.917394
-0.725915 0.874657 0.952749
-0.790027 0.874491 0.911019
-0.735545 0.874422 0.928175
-0.774929 0.874313 0.898568
-0.733115 0.874244 0.909395
-0.695346 0.874214 0.918033
-0.741578 0.874448 0.883543
-0.768322 0.874475 0.859679
-0.734323 0.874542 0.866017
-0.739315 0.874647 0.852688
-0.710084 0.875016 0.855328
-0.722032 0.875197 0.838184
-0.772858 0.875636 0.800474
-0.660344 0.875892 0.845224
-0.725435 0.87656 0.799362
-0.667484 0.877118 0.815486
-0.626206 0.877912 0.822225
-0.706653 0.878778 0.767759
-0.638499 0.879918 0.786366
-0.646565 0.881402 0.765305
-0.570573 0.882997 0.785746
-0.598829 0.886125 0.747184
-0.670471 0.911947 1.17485
-0.614442 0.908675 1.20475
-0.668755 0.906296 1.17612
-0.712084 0.904675 1.15011
-0.682371 0.90294 1.1611
-0.664737 0.901496 1.16496
-0.765405 0.899951 1.1101
-0.677349 0.898844 1.14792
-0.76206 0.897368 1.10083
-0.728074 0.896604 1.11033
-0.805962 0.895572 1.06496
-0.734554 0.894566 1.09416
-0.665757 0.893874 1.12083
-0.762069 0.892924 1.066
-0.634956 0.892287 1.12165
-0.765139 0.891398 1.04967
-0.713212 0.891099 1.06641
-0.783257 0.890544 1.02319
-0.711349 0.88974 1.05197
-0.731349 0.889244 1.03356
-0.788463 0.888782 0.996473
-0.781604 0.888295 0.991483
-0.842198 0.887888 0.952455
-0.720009 0.887516 1.00468
-0.904892 0.887181 0.903231
-0.815707 0.887027 0.938074
-0.701835 0.88649 0.986847
-0.815061 0.886252 0.920848
-0.714433 0.886147 0.961226
-0.710418 0.885966 0.953617
-0.775171 0.885824 0.911463
-0.668907 0.885722 0.954657
-0.786313 0.885659 0.885851
-0.768718 0.885643 0.884352
-0.778682 0.88588 0.868006
-0.745921 0.885892 0.873967
-0.753333 0.885946 0.859662
-0.751935 0.88604 0.849592
-0.653848 0.886405 0.886711
-0.712566 0.886575 0.846247
-0.582486 0.887129 0.898534
-0.631882 0.887394 0.862311
-0.702129 0.887917 0.814543
-0.659469 0.888655 0.822286
-0.59371 0.889469 0.841232
-0.654968 0.890123 0.797346
-0.658828 0.891316 0.779794
-0.592156 0.892547 0.797308
-0.561139 0.894466 0.79395
-0.636546 0.897297 0.733322
-0.632623 0.923826 1.19609
-0.589133 0.920653 1.21918
-0.735368 0.918405 1.14397
-0.680444 0.916458 1.16825
-0.655718 0.914531 1.1774
-0.748985 0.912937 1.12632
-0.696519 0.911678 1.14685
-0.702078 0.910558 1.13786
-0.828237 0.909458 1.06853
-0.785991 0.908295 1.08366
-0.701075 0.907252 1.11969
-0.737384 0.906235 1.09503
-0.677998 0.905246 1.11813
-0.753211 0.904578 1.0727
-0.791474 0.903937 1.04565
-0.794944 0.903341 1.03583
-0.786404 0.902746 1.03203
-0.782763 0.901899 1.02679
-0.814431 0.901369 1.00265
-0.794411 0.900872 1.00424
-0.831249 0.90036 0.977475
-0.756271 0.899917 1.00635
-0.746404 0.899509 1.00254
-0.836134 0.899048 0.94915
-0.825907 0.898697 0.945303
-0.782499 0.898384 0.957904
-0.793075 0.898109 0.943365
-0.761465 0.897986 0.949305
-0.765288 0.897769 0.937916
-0.763364 0.897334 0.930301
-0.751406 0.897199 0.926479
-0.780299 0.897146 0.901893
-0.769446 0.89707 0.897277
-0.744418 0.897047 0.899529
-0.825819 0.897278 0.847509
-0.839823 0.8973 0.830056
-0.679787 0.897362 0.899454
-0.712546 0.897465 0.872284
-0.784901 0.897843 0.82415
-0.730264 0.898023 0.840345
-0.759981 0.898242 0.814191
-0.718765 0.898729 0.822361
-0.633327 0.899409 0.851805
-0.670166 0.899758 0.821513
-0.714945 0.90057 0.785259
-0.663714 0.901456 0.79667
-0.647506 0.902628 0.78932
-0.613234 0.90415 0.789464
-0.59557 0.905784 0.780783
-0.582572 0.908429 0.765342
-0.575669 0.93582 1.22639
-0.64024 0.932465 1.19598
-0.586057 0.930333 1.22044
-0.688245 0.928219 1.16669
-0.707869 0.926266 1.15367
-0.795357 0.924965 1.1043
-0.809208 0.923494 1.09242
-0.701674 0.922251 1.14039
-0.804782 0.921138 1.08258
-0.695222 0.920047 1.13104
-0.843089 0.918981 1.05072
-0.801617 0.918243 1.06383
-0.87697 0.91723 1.01961
-0.76769 0.916545 1.06645
-0.81634 0.915591 1.03539
-0.816647 0.914963 1.02726
-0.725396 0.914075 1.06593
-0.753868 0.913511 1.04349
-0.802554 0.912953 1.01094
-0.838509 0.912441 0.984577
-0.753692 0.911962 1.01848
-0.730331 0.911238 1.02265
-0.790417 0.911031 0.983046
-0.861459 0.910645 0.938688
-0.822944 0.910021 0.950068
-0.692669 0.909712 1.00608
-0.770945 0.909572 0.957141
-0.761717 0.909321 0.952406
-0.724003 0.909109 0.961762
-0.76938 0.908937 0.929416
-0.769626 0.908866 0.919228
-0.805406 0.908754 0.891442
-0.778832 0.908682 0.89467
-0.800104 0.908651 0.87381
-0.730644 0.908651 0.898191
-0.840808 0.908681 0.832635
-0.804061 0.908751 0.840366
-0.691205 0.908802 0.886234
-0.695168 0.908933 0.873355
-0.742606 0.909444 0.837151
-0.777468 0.909672 0.808406
-0.667962 0.910174 0.850693
-0.673808 0.910478 0.836124
