ply
format ascii 1.0
comment Created by Open3D
element vertex 1751
property double x
property double y
property double z
end_header
0.944823 -0.42977 4.69572
0.82598 -0.429285 4.62307
0.861296 -0.428797 4.62754
0.911741 -0.428536 4.63917
0.81232 -0.428043 4.57633
0.841566 -0.427548 4.57787
1.08865 -0.427051 4.68836
0.668632 -0.426551 4.46534
0.85 -0.426049 4.54304
0.893449 -0.425546 4.55183
0.689991 -0.42504 4.43719
0.793777 -0.424533 4.47622
0.785213 -0.424024 4.45911
0.777842 -0.423513 4.44264
0.615509 -0.422779 4.34922
0.737099 -0.422265 4.3973
0.831333 -0.42175 4.43175
0.841471 -0.421232 4.42418
0.745467 -0.420714 4.36358
0.684957 -0.420193 4.32077
0.718318 -0.419457 4.32546
0.70156 -0.418934 4.3046
0.712523 -0.41841 4.29764
0.79562 -0.417884 4.32679
0.676135 -0.417148 4.25523
0.739087 -0.41662 4.27438
0.577745 -0.41609 4.18143
0.767401 -0.415463 4.26428
0.705069 -0.414932 4.22091
0.6648 -0.4144 4.18861
0.54992 -0.413665 4.11961
0.657301 -0.413131 4.16121
0.678222 -0.41251 4.15987
0.522011 -0.411974 4.06977
0.607856 -0.411357 4.10095
0.481834 -0.410819 4.02602
0.522543 -0.410206 4.03471
0.576899 -0.409666 4.05004
0.4912 -0.409124 3.99538
0.45551 -0.408581 3.96577
0.517134 -0.408027 3.98489
0.533926 -0.407484 3.98159
0.62319 -0.406939 4.01457
0.621525 -0.406453 4.00193
0.427968 -0.405912 3.89356
0.385028 -0.405365 3.86055
0.5012 -0.404906 3.90684
0.327092 -0.404386 3.80822
0.516404 -0.40392 3.89117
0.474753 -0.403561 3.8583
0.496526 -0.403106 3.85749
0.504145 -0.402627 3.84972
0.552629 -0.402184 3.86229
0.38178 -0.401866 3.76478
0.434248 -0.401435 3.77936
0.31689 -0.401146 3.70853
0.435329 -0.400855 3.75563
0.476128 -0.40044 3.76439
0.469968 -0.400166 3.74916
0.364586 -0.399767 3.68482
0.494134 -0.399505 3.73745
0.477282 -0.399246 3.71688
0.361792 -0.398876 3.64744
0.400912 -0.398629 3.65485
0.549268 -0.398385 3.71688
0.440597 -0.398178 3.65028
0.335609 -0.397945 3.58562
0.398059 -0.397717 3.60469
0.466756 -0.397403 3.62724
0.48619 -0.397317 3.62425
0.482836 -0.397024 3.61072
0.402511 -0.396948 3.55783
0.457664 -0.396673 3.57351
0.599134 -0.396606 3.63149
0.379618 -0.396481 3.50923
0.409754 -0.396366 3.51176
0.43934 -0.396313 3.51376
0.290386 -0.396215 3.42668
0.600311 -0.39617 3.56882
0.291934 -0.396127 3.40181
0.470395 -0.396141 3.47796
0.439056 -0.396203 3.449
0.599511 -0.396273 3.51589
0.680192 -0.396581 3.54181
0.412188 -0.396668 3.39438
0.68456 -0.397236 3.51492
0.569977 -0.397821 3.44187
0.670335 -0.419588 5.57892
0.591671 -0.419619 5.52527
0.441473 -0.419649 5.43585
0.453818 -0.419692 5.4277
0.640314 -0.419725 5.50662
0.67522 -0.419758 5.50974
0.646993 -0.419792 5.4813
0.593657 -0.419825 5.44029
0.634802 -0.41986 5.44653
0.747617 -0.419894 5.4886
0.731735 -0.419928 5.46632
0.9072 -0.419963 5.53971
0.847033 -0.419998 5.49528
0.631557 -0.420033 5.37319
0.696628 -0.420067 5.39138
0.902292 -0.420102 5.47986
0.799768 -0.420162 5.41424
0.7629 -0.420137 5.38145
0.805794 -0.420171 5.38854
0.797371 -0.420205 5.36997
0.676111 -0.42021 5.29498
0.711672 -0.420242 5.29839
0.828552 -0.420273 5.34247
0.569504 -0.420304 5.19857
0.774459 -0.420335 5.28668
0.736698 -0.420364 5.25343
0.831221 -0.420428 5.28631
0.704312 -0.420393 5.2085
0.747773 -0.42042 5.21585
0.997872 -0.420409 5.32654
0.898237 -0.420433 5.26234
0.80534 -0.420457 5.20152
0.817088 -0.420478 5.19301
0.858642 -0.420499 5.19941
0.979468 -0.420517 5.24544
0.860896 -0.420579 5.17175
0.897951 -0.420535 5.17593
0.870766 -0.42055 5.14796
0.789837 -0.420563 5.09311
0.799 -0.420575 5.08331
0.933571 -0.420584 5.13622
0.888332 -0.420591 5.09922
0.921755 -0.420647 5.10151
0.951367 -0.42065 5.10194
0.853818 -0.420651 5.03879
0.933871 -0.420703 5.06439
0.895669 -0.4207 5.03092
0.824279 -0.420749 4.98079
0.811877 -0.420845 4.96011
0.941497 -0.420949 5.01043
0.959084 -0.421097 5.00467
0.872628 -0.421464 4.94663
1.04004 -0.415696 4.72451
0.901424 -0.414838 4.64267
0.836894 -0.414127 4.59764
0.981319 -0.413729 4.6565
0.793104 -0.413014 4.54972
0.99486 -0.412299 4.63798
0.888062 -0.41181 4.57152
0.888866 -0.41118 4.55921
0.862441 -0.410688 4.53302
0.769419 -0.409969 4.47407
0.8406 -0.409473 4.49677
0.984535 -0.408753 4.5564
0.682615 -0.408255 4.39263
0.830784 -0.407755 4.45394
0.87483 -0.407033 4.46375
0.675891 -0.40653 4.35159
0.762195 -0.405808 4.38263
0.955166 -0.405303 4.46651
0.73966 -0.404796 4.34619
0.637717 -0.404074 4.28323
0.747266 -0.403565 4.32552
0.881459 -0.402844 4.38072
0.706452 -0.402333 4.28082
0.513622 -0.401612 4.1726
0.696421 -0.401099 4.25168
0.700732 -0.400584 4.24155
0.768318 -0.399864 4.26367
0.728875 -0.399348 4.23175
0.698559 -0.398735 4.20471
0.603425 -0.39811 4.14533
0.640066 -0.3975 4.15184
0.519257 -0.39698 4.07939
0.595821 -0.396373 4.10594
0.489674 -0.395742 4.04124
0.581355 -0.395137 4.07541
0.480493 -0.394536 4.01335
0.635033 -0.394012 4.07878
0.593454 -0.393414 4.04643
0.544662 -0.392889 4.01028
0.602385 -0.392362 4.02742
0.571437 -0.391834 4.00027
0.51477 -0.391238 3.96052
0.567243 -0.390708 3.97517
0.437701 -0.390233 3.89865
0.5141 -0.389683 3.92539
0.264951 -0.389162 3.7893
0.33559 -0.388701 3.81293
0.473082 -0.388198 3.87016
0.535373 -0.387748 3.88964
0.432373 -0.3874 3.82614
0.371889 -0.386961 3.78425
0.588707 -0.386497 3.88113
0.441866 -0.386069 3.79608
0.45038 -0.38576 3.7883
0.390722 -0.385343 3.74685
0.369388 -0.385064 3.72408
0.487365 -0.384781 3.77099
0.351719 -0.38438 3.69156
0.417958 -0.383984 3.71309
0.577579 -0.383728 3.78079
0.537952 -0.383474 3.74887
0.450125 -0.383094 3.69337
0.395976 -0.382848 3.6542
0.394708 -0.382626 3.64138
0.532997 -0.382261 3.69895
0.355295 -0.382158 3.59746
0.391051 -0.381834 3.60363
0.367878 -0.381613 3.57992
0.50678 -0.381395 3.63726
0.427554 -0.381226 3.58533
0.516621 -0.381018 3.61773
0.299916 -0.380814 3.49725
0.421802 -0.380669 3.54581
0.345841 -0.380475 3.49568
0.403716 -0.380348 3.51218
0.369205 -0.380163 3.48275
0.501046 -0.380052 3.53618
0.412068 -0.380001 3.47894
0.278779 -0.379906 3.39974
0.33744 -0.379821 3.41648
0.501456 -0.379782 3.48569
0.414426 -0.379801 3.42911
0.445757 -0.379865 3.4315
0.438509 -0.379936 3.41455
0.401484 -0.380034 3.38258
0.431663 -0.380219 3.3838
0.544583 -0.380536 3.42573
0.416632 -0.381096 3.34601
0.651569 -0.403043 5.56968
0.538567 -0.403087 5.49886
0.652511 -0.403131 5.54151
0.648998 -0.403175 5.52542
0.707012 -0.403231 5.5401
0.740965 -0.403277 5.54275
0.659783 -0.403322 5.48782
0.631449 -0.403368 5.45931
0.592478 -0.40343 5.42549
0.732692 -0.403477 5.48125
0.846425 -0.403524 5.52376
0.638468 -0.403571 5.40543
0.621396 -0.403618 5.38254
0.6549 -0.403685 5.38493
0.66898 -0.403732 5.3776
0.529376 -0.403779 5.29343
0.750028 -0.403825 5.38939
0.659885 -0.403871 5.32994
0.659704 -0.403942 5.31547
0.761549 -0.403988 5.35201
0.715404 -0.404033 5.31456
0.880931 -0.404078 5.38293
0.78481 -0.40415 5.32047
0.743095 -0.404194 5.28522
1.0215 -0.404236 5.41002
0.692336 -0.40431 5.23103
0.716747 -0.404351 5.22883
0.950661 -0.404424 5.33137
0.793142 -0.404463 5.2382
0.935671 -0.404537 5.29503
1.03425 -0.404574 5.32991
0.891075 -0.404647 5.24388
0.860516 -0.404793 5.21412
0.894546 -0.404865 5.21668
0.900605 -0.404937 5.20526
0.993674 -0.40508 5.23729
0.885232 -0.405151 5.1686
1.09599 -0.405334 5.25942
0.79095 -0.405447 5.09239
0.918009 -0.405787 5.14122
0.996617 -0.40622 5.16573
0.955041 -0.395521 4.54829
0.865111 -0.394455 4.49179
0.822584 -0.393747 4.4582
0.7602 -0.393038 4.41473
0.793755 -0.392199 4.41961
1.02216 -0.391492 4.52164
0.750936 -0.390785 4.3739
0.784142 -0.390293 4.37787
0.625165 -0.389585 4.28636
0.652571 -0.388878 4.28808
0.746221 -0.388172 4.32297
0.577948 -0.387677 4.22637
0.823682 -0.386971 4.3374
0.815707 -0.386267 4.32162
0.664431 -0.385768 4.23365
0.74056 -0.385065 4.26001
0.654231 -0.384363 4.20519
0.560674 -0.383862 4.14621
0.548772 -0.38316 4.12869
0.647106 -0.382658 4.16574
0.677322 -0.381957 4.16937
0.710283 -0.381362 4.1741
0.561536 -0.380858 4.08773
0.575253 -0.380161 4.08324
0.661723 -0.379654 4.11456
0.557723 -0.37904 4.05104
0.867789 -0.37837 4.19477
0.612751 -0.377786 4.05572
0.523595 -0.377277 3.9994
0.399806 -0.376695 3.92604
0.509479 -0.376117 3.96944
0.499043 -0.375606 3.9526
0.471848 -0.37505 3.92757
0.447335 -0.374518 3.90384
0.419897 -0.374021 3.87856
0.652502 -0.373495 3.98344
0.540091 -0.372991 3.91577
0.379304 -0.372547 3.82372
0.569768 -0.372062 3.90749
0.35165 -0.371718 3.78647
0.301382 -0.371291 3.74972
0.47892 -0.370867 3.82688
0.423744 -0.370419 3.78782
0.414309 -0.370007 3.77152
0.660317 -0.369707 3.88252
0.490343 -0.369305 3.78596
0.491409 -0.369035 3.77442
0.628214 -0.368642 3.83127
0.565425 -0.368374 3.78784
0.23896 -0.367992 3.61306
0.491174 -0.36774 3.72711
0.328981 -0.367492 3.63396
0.437188 -0.367131 3.67649
0.412981 -0.366893 3.65233
0.501632 -0.366659 3.6846
0.342291 -0.366326 3.59331
0.242967 -0.366102 3.53158
0.248388 -0.365882 3.52222
0.262864 -0.365665 3.51739
0.28236 -0.365365 3.51546
0.2556 -0.365158 3.49
0.412553 -0.365 3.5562
0.365871 -0.364803 3.52076
0.284078 -0.364609 3.46776
0.377798 -0.364419 3.50252
0.336828 -0.36429 3.46967
0.234818 -0.36411 3.40655
0.441133 -0.363997 3.49728
0.455182 -0.363945 3.49159
0.342383 -0.363729 3.42328
0.337101 -0.363684 3.4079
0.362662 -0.363602 3.40814
0.272845 -0.363529 3.35065
0.485361 -0.363582 3.4437
0.400697 -0.363553 3.38857
0.438828 -0.363618 3.39437
0.420166 -0.363689 3.37173
0.485493 -0.363768 3.39105
0.403096 -0.364069 3.33536
0.469813 -0.364381 3.35415
0.502134 -0.365261 3.35277
0.715493 -0.386532 5.58747
0.623845 -0.386587 5.52732
0.75248 -0.386642 5.5773
0.659837 -0.386708 5.51665
0.748236 -0.386764 5.54651
0.719229 -0.386902 5.5177
0.791607 -0.386889 5.53951
0.703409 -0.386946 5.48106
0.883421 -0.387076 5.55673
0.595116 -0.38715 5.39822
0.700816 -0.387208 5.4367
0.661184 -0.387265 5.40252
0.735567 -0.387342 5.42533
0.737282 -0.387399 5.41181
0.960207 -0.387477 5.50889
0.744892 -0.387535 5.38684
0.770195 -0.387614 5.3851
0.797224 -0.387751 5.38421
0.72924 -0.387832 5.33581
0.674259 -0.387913 5.2939
0.874762 -0.387969 5.37974
0.941003 -0.38805 5.39843
0.796976 -0.388132 5.31199
0.824926 -0.388297 5.3115
0.962678 -0.38838 5.36593
1.01113 -0.388463 5.3757
0.97989 -0.388628 5.34559
0.829268 -0.388743 5.2558
0.850913 -0.388941 5.25209
0.692688 -0.38914 5.15844
0.940574 -0.389374 5.2678
0.842352 -0.389609 5.2041
1.00346 -0.390154 5.26986
0.708555 -0.377113 4.34573
0.934771 -0.375991 4.44787
0.72766 -0.374962 4.33318
0.837038 -0.37406 4.37645
0.727417 -0.37337 4.3097
0.768576 -0.372473 4.31897
0.926356 -0.371785 4.38602
0.808943 -0.371097 4.31552
0.668872 -0.370411 4.23374
0.693865 -0.369726 4.23454
0.654951 -0.369041 4.20344
0.687395 -0.368358 4.20806
0.781482 -0.367873 4.24293
0.671045 -0.36719 4.1762
0.660777 -0.366509 4.15961
0.763356 -0.365829 4.19948
0.496301 -0.365341 4.05396
0.464754 -0.364662 4.02686
0.594157 -0.364085 4.07994
0.477619 -0.36341 4.01044
0.442346 -0.362919 3.98098
0.53506 -0.362244 4.01618
0.589879 -0.361675 4.03213
0.400968 -0.361108 3.92624
0.558429 -0.360543 3.99357
0.638934 -0.360016 4.02233
0.539363 -0.35945 3.96123
0.460161 -0.358868 3.91042
0.402788 -0.35836 3.87029
0.410901 -0.357862 3.8629
0.562652 -0.357357 3.9274
0.635511 -0.356947 3.95212
0.287595 -0.356445 3.76685
0.548483 -0.356059 3.88556
0.517005 -0.355644 3.85822
0.481826 -0.355233 3.82906
0.51792 -0.354826 3.83554
0.484234 -0.354517 3.80677
0.384552 -0.35412 3.74538
0.230094 -0.353727 3.65662
0.493661 -0.353443 3.77645
0.418677 -0.35306 3.72744
0.329218 -0.352681 3.6712
0.467787 -0.352422 3.72849
0.425885 -0.352054 3.69603
0.440879 -0.351811 3.69151
0.352626 -0.351451 3.63589
0.407887 -0.351215 3.65151
0.441479 -0.350994 3.65625
0.234907 -0.350648 3.54148
0.252547 -0.350426 3.53828
0.468455 -0.350207 3.63422
0.380339 -0.349898 3.57857
0.194955 -0.349689 3.47385
0.440582 -0.349484 3.58464
0.510981 -0.349282 3.60781
0.452831 -0.349005 3.56708
0.397616 -0.348813 3.52743
0.402161 -0.348624 3.51766
0.302418 -0.348488 3.4555
0.370673 -0.348308 3.47756
0.328026 -0.348132 3.44417
0.54489 -0.348018 3.54024
0.381348 -0.34785 3.44639
0.323701 -0.347799 3.4049
0.440014 -0.347592 3.45119
0.377868 -0.347549 3.40743
0.320074 -0.34747 3.36603
0.351478 -0.3474 3.36919
0.435923 -0.347368 3.39867
0.508614 -0.347311 3.42242
0.379505 -0.347373 3.34463
0.371239 -0.347351 3.32771
0.588303 -0.347423 3.42295
0.452947 -0.347598 3.34142
0.405087 -0.347895 3.30296
0.421963 -0.348201 3.29679
0.591002 -0.349272 3.36246
0.616805 -0.370046 5.53832
0.826496 -0.370119 5.62884
0.59376 -0.370184 5.49813
0.714078 -0.370259 5.54395
0.628617 -0.370325 5.48688
0.622258 -0.370402 5.46935
0.761018 -0.370468 5.52437
0.774115 -0.370628 5.51659
0.63292 -0.370695 5.43162
0.732303 -0.370777 5.46694
0.685983 -0.37086 5.4294
0.56301 -0.370928 5.35353
0.860343 -0.371012 5.4878
0.861713 -0.371183 5.4741
0.611135 -0.371269 5.3344
0.897559 -0.371357 5.4632
0.908236 -0.371533 5.45412
1.03568 -0.371621 5.50341
0.683744 -0.37171 5.313
0.804986 -0.371888 5.35917
0.863697 -0.372092 5.37405
1.04418 -0.372207 5.44982
0.763382 -0.372414 5.29492
0.89682 -0.372622 5.34712
0.851854 -0.372858 5.31009
0.924942 -0.373096 5.33208
0.970561 -0.373633 5.34019
0.959405 -0.358556 4.40758
0.805847 -0.357359 4.3205
0.864484 -0.356284 4.33924
0.730542 -0.355415 4.26113
0.690317 -0.354748 4.22932
0.774317 -0.353885 4.26029
0.737759 -0.35322 4.23041
0.800139 -0.352556 4.25005
0.688066 -0.351893 4.18251
0.811821 -0.351232 4.23293
0.793788 -0.350571 4.21251
0.6665 -0.349912 4.1375
0.793334 -0.349253 4.18961
0.570035 -0.348596 4.06669
0.548429 -0.34794 4.04467
0.549412 -0.347383 4.03364
0.512204 -0.34673 4.00391
0.558213 -0.346078 4.01583
0.416398 -0.345527 3.93351
0.479487 -0.344952 3.95378
0.449342 -0.344403 3.92738
0.49627 -0.343856 3.93955
0.519867 -0.343273 3.94024
0.419245 -0.342779 3.87852
0.466764 -0.342293 3.89087
0.592826 -0.34181 3.94252
0.425391 -0.341337 3.84742
0.614117 -0.340875 3.9304
0.324913 -0.340467 3.77422
0.379975 -0.340063 3.7902
0.454187 -0.339623 3.81593
0.384976 -0.339228 3.76979
0.518191 -0.338837 3.82488
0.410769 -0.338539 3.75928
0.459236 -0.338157 3.77201
0.389226 -0.33778 3.72552
0.436311 -0.337505 3.73715
0.333615 -0.337137 3.67432
0.310237 -0.336774 3.65117
0.416363 -0.336523 3.69228
0.674688 -0.336285 3.80946
0.391857 -0.335935 3.65658
0.361081 -0.335589 3.62975
0.306602 -0.335362 3.59054
0.306763 -0.335139 3.57864
0.222186 -0.334816 3.52487
0.268158 -0.334602 3.53588
0.410518 -0.334278 3.59563
0.312865 -0.334071 3.53482
0.343411 -0.333867 3.53812
0.211856 -0.333667 3.46037
0.332126 -0.333388 3.50893
0.365851 -0.333197 3.5138
0.458959 -0.333009 3.54836
0.422091 -0.332825 3.51794
0.273696 -0.332688 3.43152
0.466976 -0.332401 3.51672
0.339392 -0.33234 3.44034
0.423048 -0.332114 3.47044
0.403916 -0.33195 3.44885
0.388493 -0.33179 3.4291
0.449972 -0.331695 3.44746
0.405446 -0.331542 3.41314
0.4917 -0.331501 3.44362
0.346499 -0.331425 3.35856
0.261 -0.331283 3.30372
0.416469 -0.33122 3.36894
0.28065 -0.331192 3.28833
0.421596 -0.331226 3.34575
0.404582 -0.331205 3.3245
0.453444 -0.331275 3.33567
0.36337 -0.33135 3.27734
0.288109 -0.331431 3.22637
0.470777 -0.331719 3.30316
0.433746 -0.332016 3.27002
0.488972 -0.333045 3.27866
0.615069 -0.353662 5.52335
0.62156 -0.353744 5.51225
0.846944 -0.353818 5.61059
0.633142 -0.353902 5.48934
0.795127 -0.354072 5.55601
0.639064 -0.354159 5.46361
0.699758 -0.354247 5.47958
0.673222 -0.354323 5.45193
0.777936 -0.354411 5.48989
0.709734 -0.354591 5.44142
0.742576 -0.354789 5.44346
0.856822 -0.354882 5.48616
0.708696 -0.354974 5.39767
0.872635 -0.355179 5.46522
0.828767 -0.355273 5.42884
0.690159 -0.355481 5.34508
0.981849 -0.355692 5.47645
0.800037 -0.355925 5.37106
0.861121 -0.356279 5.38708
0.883564 -0.356516 5.38377
0.823499 -0.357042 5.33912
0.86254 -0.340486 4.30929
0.768836 -0.339255 4.25269
0.733885 -0.338225 4.22489
0.680438 -0.337392 4.18726
0.699073 -0.336749 4.18507
0.674608 -0.335921 4.16204
0.676893 -0.335282 4.15178
0.700969 -0.33446 4.15312
0.497401 -0.333823 4.04003
0.644645 -0.333188 4.1024
0.638417 -0.332554 4.08808
0.643929 -0.331921 4.07967
0.559803 -0.331289 4.0265
0.565065 -0.330658 4.01806
0.716286 -0.32995 4.08296
0.539886 -0.329494 3.98312
0.515703 -0.328794 3.96038
0.392312 -0.328313 3.88723
0.447853 -0.32775 3.90391
0.488462 -0.327217 3.91305
0.477866 -0.326739 3.8964
0.338693 -0.326271 3.81547
0.482061 -0.325811 3.8758
0.521469 -0.32535 3.88421
0.395312 -0.324901 3.80981
0.354656 -0.324508 3.77796
0.287694 -0.324075 3.73316
0.455176 -0.323691 3.8054
0.41382 -0.323354 3.77305
0.353482 -0.322981 3.7314
0.479637 -0.322613 3.783
0.42947 -0.322247 3.74646
0.427102 -0.321885 3.73383
0.327115 -0.321527 3.6724
0.481682 -0.321268 3.73782
0.301477 -0.32102 3.63581
0.514491 -0.320685 3.73085
0.371899 -0.320344 3.64815
0.29921 -0.320114 3.59989
0.426343 -0.319892 3.65151
0.219414 -0.319564 3.53665
0.379338 -0.31924 3.60522
0.216592 -0.319028 3.51192
0.23523 -0.31882 3.50931
0.315981 -0.318615 3.53776
0.341137 -0.318323 3.53887
0.302467 -0.318128 3.5076
0.32481 -0.317827 3.50739
0.427015 -0.317638 3.54655
0.632159 -0.317452 3.63719
0.332617 -0.317269 3.47548
0.471415 -0.317019 3.53331
0.317799 -0.316845 3.44455
0.418011 -0.316675 3.48269
0.223795 -0.316507 3.37362
0.435354 -0.316342 3.46744
0.400658 -0.31618 3.43812
0.336642 -0.31597 3.39443
0.364971 -0.315921 3.39602
0.367868 -0.31577 3.38548
0.271929 -0.31558 3.32575
0.34339 -0.31554 3.34887
0.499302 -0.3154 3.41481
0.294955 -0.315332 3.3002
0.20366 -0.315272 3.24208
0.290716 -0.315143 3.27355
0.344655 -0.315119 3.28784
0.248151 -0.315156 3.22654
0.0467717 -0.315139 3.11314
0.349296 -0.315122 3.25168
0.434281 -0.315195 3.28091
0.423191 -0.315274 3.26205
0.305378 -0.315643 3.18802
0.24404 -0.31593 3.14271
0.400589 -0.316719 3.20316
0.682773 -0.337311 5.55751
0.500269 -0.337304 5.45185
0.926919 -0.337393 5.65082
0.595513 -0.337574 5.47079
0.853442 -0.337666 5.58538
0.860403 -0.337852 5.57452
0.707221 -0.337945 5.48353
0.678754 -0.338146 5.45493
0.744975 -0.338242 5.47363
0.815273 -0.338448 5.49438
0.856416 -0.338657 5.50054
0.710485 -0.33877 5.41313
0.966912 -0.338982 5.5269
0.873944 -0.339329 5.46596
0.811785 -0.339563 5.4204
1.03213 -0.339935 5.51606
0.840201 -0.340586 5.40555
0.734593 -0.32328 4.20732
0.685205 -0.321918 4.17376
0.860011 -0.320932 4.25104
0.717587 -0.320133 4.16909
0.746959 -0.319337 4.17309
0.65055 -0.318722 4.11358
0.571353 -0.317931 4.06341
0.504445 -0.317145 4.01943
0.717116 -0.316535 4.11462
0.554409 -0.315926 4.02216
0.597533 -0.315148 4.03335
0.491069 -0.314542 3.96912
0.46385 -0.313937 3.94455
0.496497 -0.313408 3.94966
0.343533 -0.312821 3.86224
0.568152 -0.312233 3.96368
0.570579 -0.311719 3.95375
0.504808 -0.311191 3.90983
0.408037 -0.310738 3.85012
0.435107 -0.310293 3.85234
0.492467 -0.309852 3.86973
0.4351 -0.309417 3.82976
0.540307 -0.308991 3.87107
0.296783 -0.308554 3.73811
0.521881 -0.308207 3.83908
0.272027 -0.307842 3.70269
0.407101 -0.307481 3.75877
0.606138 -0.307122 3.84686
0.259874 -0.306767 3.6623
0.400438 -0.306415 3.72118
0.52051 -0.30615 3.76942
0.336515 -0.305807 3.66603
0.543176 -0.305468 3.75798
0.247259 -0.305224 3.59819
0.470787 -0.304894 3.69858
0.368974 -0.304666 3.63581
0.466008 -0.30435 3.67293
0.243332 -0.30403 3.55025
0.179605 -0.303818 3.5065
0.195207 -0.30361 3.50242
0.364835 -0.303307 3.57587
0.277147 -0.303107 3.52013
0.239953 -0.302807 3.4902
0.356624 -0.302614 3.53665
0.437826 -0.302321 3.56593
0.25767 -0.302134 3.46397
0.1758 -0.30195 3.41115
0.30086 -0.30177 3.46179
0.322643 -0.301519 3.4612
0.311746 -0.301347 3.44385
0.360194 -0.301178 3.45617
0.453404 -0.300911 3.49145
0.181384 -0.300748 3.34353
0.36031 -0.300631 3.42083
0.228537 -0.300477 3.34302
0.207579 -0.300325 3.32061
0.255665 -0.300175 3.33271
0.347238 -0.300029 3.36656
0.229842 -0.299885 3.29592
0.296155 -0.299744 3.31712
0.220724 -0.299568 3.26769
0.442683 -0.299533 3.36609
0.46762 -0.299402 3.36658
0.420688 -0.299341 3.33071
0.329099 -0.299289 3.27246
0.311449 -0.299168 3.25161
0.182317 -0.299147 3.17441
0.273288 -0.299109 3.20736
0.378659 -0.299078 3.24747
0.401349 -0.299148 3.24558
0.123571 -0.299138 3.09398
0.466372 -0.299304 3.2515
0.286011 -0.299482 3.14735
0.276557 -0.299757 3.12798
0.257365 -0.300322 3.10177
0.799253 -0.320955 5.60167
0.805529 -0.32105 5.59043
0.805198 -0.321249 5.57594
0.933623 -0.321346 5.62575
0.876928 -0.32155 5.58305
0.912467 -0.321758 5.58644
0.614655 -0.321978 5.42315
0.763529 -0.322191 5.48317
0.928706 -0.322417 5.55134
0.837628 -0.32289 5.49141
0.757379 -0.323253 5.43683
0.866872 -0.324557 5.47722
0.856791 -0.305802 4.23213
0.729615 -0.304506 4.15992
0.755628 -0.303567 4.16299
0.662328 -0.302805 4.10578
0.63114 -0.302046 4.07968
0.563323 -0.30129 4.03532
0.620813 -0.300537 4.05366
0.4726 -0.299869 3.96886
0.6651 -0.299206 4.05446
0.369072 -0.298463 3.8962
0.555119 -0.297884 3.97833
0.492218 -0.297358 3.9358
0.578781 -0.296788 3.96825
0.388173 -0.296264 3.86196
0.495238 -0.29571 3.90469
0.448945 -0.29527 3.87026
0.293757 -0.294789 3.78162
0.387897 -0.294361 3.81744
0.533366 -0.293941 3.87892
0.276392 -0.293522 3.73921
0.459152 -0.293112 3.81936
0.324287 -0.292754 3.74049
0.353611 -0.292357 3.74393
0.336048 -0.292007 3.72374
0.35127 -0.29166 3.71995
0.44375 -0.291355 3.75461
0.290407 -0.291019 3.66655
0.388861 -0.290685 3.7044
0.373291 -0.290355 3.68525
0.379271 -0.29011 3.67646
0.327519 -0.289789 3.63924
0.430302 -0.289485 3.67921
0.262792 -0.289167 3.58414
0.267648 -0.288945 3.57477
0.428913 -0.288636 3.64408
0.169192 -0.288431 3.50237
0.24262 -0.288129 3.52779
0.380059 -0.28793 3.58466
0.255603 -0.287634 3.51115
0.452973 -0.287441 3.59799
0.267973 -0.287152 3.49422
0.360313 -0.286965 3.52855
0.274001 -0.286781 3.47356
0.347052 -0.28652 3.49872
0.295695 -0.286344 3.46119
0.417716 -0.286074 3.51093
0.314467 -0.285904 3.44746
0.361612 -0.285738 3.45918
0.239078 -0.285477 3.38664
0.289549 -0.285317 3.40003
0.286889 -0.285159 3.38684
0.311277 -0.285003 3.38718
0.263138 -0.284851 3.35124
0.498712 -0.284701 3.45716
0.310152 -0.284505 3.35133
0.448252 -0.284363 3.40849
0.360779 -0.284224 3.35286
0.266093 -0.284087 3.29362
0.289281 -0.283954 3.29332
0.216577 -0.283822 3.24506
0.225773 -0.283753 3.23736
0.333301 -0.283628 3.27919
0.31748 -0.283506 3.25934
0.447884 -0.283453 3.31216
0.304113 -0.283337 3.22831
0.2007 -0.283315 3.16401
0.290472 -0.283186 3.19705
0.319265 -0.283169 3.19883
0.274665 -0.283141 3.164
0.224445 -0.283129 3.12624
0.282794 -0.283191 3.14224
0.400419 -0.283268 3.18777
0.344103 -0.283353 3.14627
0.379209 -0.283524 3.14985
0.194437 -0.283791 3.04279
0.489409 -0.30481 5.43278
0.803473 -0.305017 5.57546
0.843946 -0.305234 5.58133
0.947124 -0.305565 5.61859
0.878104 -0.305789 5.56967
0.78097 -0.306251 5.50677
0.810073 -0.306854 5.50698
0.863851 -0.288114 4.20122
0.730758 -0.287054 4.12558
0.694373 -0.286163 4.09765
0.577639 -0.285361 4.02924
0.540392 -0.28464 4.00029
0.614084 -0.283922 4.02687
0.652352 -0.283207 4.03578
0.438034 -0.282495 3.91846
0.499663 -0.281849 3.93887
0.432594 -0.281304 3.89452
0.517897 -0.280765 3.92638
0.358318 -0.280297 3.83551
0.475711 -0.279806 3.88327
0.408129 -0.279346 3.83845
0.610796 -0.278875 3.92885
0.502587 -0.278477 3.8635
0.478348 -0.278073 3.84019
0.343031 -0.277678 3.76134
0.442924 -0.277335 3.79987
0.547676 -0.276952 3.84106
0.54801 -0.276616 3.82983
0.393202 -0.276247 3.74125
0.257439 -0.275919 3.662
0.344769 -0.275594 3.69431
0.438451 -0.275271 3.72982
0.328936 -0.274952 3.66374
0.477679 -0.274636 3.7268
0.258405 -0.274398 3.60545
0.34071 -0.27409 3.63531
0.389615 -0.273865 3.64801
0.40244 -0.273578 3.64306
0.296442 -0.273279 3.5788
0.252638 -0.272983 3.54564
0.27964 -0.27278 3.54737
0.412379 -0.272588 3.60193
0.297964 -0.272303 3.53347
0.103759 -0.272115 3.42457
0.305728 -0.271838 3.5143
0.364906 -0.271651 3.53213
0.272795 -0.271385 3.47481
0.235912 -0.27121 3.44457
0.460211 -0.270944 3.5455
0.294475 -0.270775 3.45083
0.300338 -0.270516 3.44255
0.256963 -0.270352 3.40906
0.375726 -0.27019 3.45665
0.326787 -0.269941 3.42096
0.161917 -0.269785 3.32673
0.186191 -0.269632 3.32706
0.291956 -0.269482 3.36814
0.175286 -0.269335 3.29799
0.3698 -0.269138 3.38378
0.294629 -0.268998 3.33437
0.462853 -0.268819 3.40693
0.428404 -0.268682 3.37788
0.262481 -0.268506 3.28338
0.15907 -0.268376 3.21983
0.162281 -0.268249 3.20958
0.406657 -0.268125 3.31991
0.302444 -0.268003 3.25594
0.271626 -0.267884 3.22866
0.246528 -0.267826 3.20381
0.278505 -0.267713 3.2079
0.370395 -0.267602 3.24195
0.332131 -0.267493 3.21091
0.190806 -0.267454 3.12784
0.340194 -0.267351 3.1906
0.412638 -0.267336 3.21425
0.41402 -0.26731 3.20244
0.256953 -0.26729 3.11137
0.24903 -0.267282 3.09479
0.291808 -0.26727 3.10358
0.303192 -0.267347 3.096
0.485428 -0.267511 3.17316
0.209943 -0.267595 3.02206
0.444319 -0.267938 3.12386
-0.11692 -0.229513 0.344607
0.0765385 -0.229343 0.433871
0.115344 -0.229113 0.447012
0.065631 -0.228995 0.413665
0.106507 -0.228765 0.427872
0.0611388 -0.228706 0.395526
-0.0481919 -0.228588 0.332402
0.0165485 -0.228359 0.358583
0.0341729 -0.228242 0.35896
-0.100078 -0.228013 0.285674
0.0164585 -0.227954 0.334325
-0.0892408 -0.227837 0.273071
0.0458245 -0.22772 0.332207
-0.0303771 -0.227492 0.288
-0.117205 -0.227433 0.235001
-0.0625148 -0.227316 0.253981
-0.0967134 -0.227199 0.228524
0.065276 -0.227141 0.299953
-0.0407306 -0.226914 0.240909
-0.0252091 -0.226797 0.240343
-0.0229086 -0.226681 0.233175
-0.13035 -0.226622 0.16992
-0.0502961 -0.226506 0.201644
0.145175 -0.22639 0.291086
-0.213733 -0.226222 0.104441
-0.00363131 -0.226105 0.201219
0.0782404 -0.225989 0.233891
-0.135295 -0.225874 0.118868
-0.175087 -0.225816 0.0894881
-0.239346 -0.2257 0.0491189
-0.207585 -0.225584 0.0567676
0.107399 -0.225526 0.204795
0.0649992 -0.225302 0.177736
0.020218 -0.225186 0.147143
-0.112638 -0.225071 0.0725219
-0.0797787 -0.225013 0.0795181
-0.00949108 -0.224898 0.106484
-0.15015 -0.224783 0.0279846
-0.095671 -0.224726 0.0458095
-0.137876 -0.224611 0.0165526
-0.0993291 -0.224496 0.02768
0.179842 -0.224439 0.15787
-0.22014 -0.224216 -0.0478538
-0.0204361 -0.224101 0.0438814
-0.0322324 -0.224044 0.028611
-0.0152588 -0.22393 0.0289961
0.717948 -0.288985 5.54777
0.752861 -0.289095 5.55077
0.577227 -0.289432 5.44861
0.772116 -0.271757 4.12962
0.745653 -0.270593 4.10817
0.743006 -0.269593 4.09797
0.603525 -0.268678 4.01905
0.407361 -0.267844 3.9115
0.55854 -0.267164 3.97694
0.594678 -0.266636 3.98418
0.615834 -0.265945 3.9848
0.494064 -0.26536 3.91349
0.551029 -0.26485 3.93123
0.568929 -0.264345 3.92945
0.628726 -0.263941 3.94816
0.4938 -0.263449 3.87001
0.543411 -0.263111 3.88335
0.478417 -0.262681 3.83992
0.298132 -0.262298 3.73864
0.474564 -0.261922 3.81571
0.417979 -0.261549 3.77631
0.442668 -0.261224 3.7773
0.311195 -0.260862 3.70046
0.443138 -0.260544 3.75511
0.496565 -0.260253 3.77038
0.285938 -0.259884 3.6541
0.234218 -0.259577 3.61696
0.383729 -0.259336 3.68007
0.187829 -0.259036 3.57085
0.311625 -0.258739 3.62149
0.282434 -0.258445 3.59566
0.375058 -0.258227 3.63029
0.292885 -0.257955 3.57788
0.313271 -0.257747 3.57639
0.300138 -0.257467 3.5586
0.319403 -0.257189 3.55703
0.252653 -0.257004 3.51189
0.239987 -0.256732 3.49436
0.18317 -0.256552 3.4542
0.360366 -0.256286 3.53161
0.303616 -0.256112 3.49149
0.214151 -0.255852 3.43559
0.251027 -0.255683 3.44228
0.182699 -0.255429 3.39695
0.314012 -0.255266 3.45086
0.457972 -0.255105 3.5111
0.171626 -0.25486 3.35677
0.323957 -0.254705 3.42118
0.153557 -0.254552 3.32424
0.36638 -0.254316 3.41949
0.235309 -0.254168 3.34221
0.260032 -0.254024 3.34281
0.452747 -0.253796 3.42802
0.227752 -0.253657 3.30376
0.283709 -0.25352 3.31997
0.298471 -0.253386 3.31559
0.151766 -0.253254 3.23046
0.238972 -0.253041 3.2629
0.338745 -0.252914 3.30101
0.212315 -0.25279 3.22601
0.434481 -0.252668 3.3253
0.311618 -0.252549 3.25207
0.324455 -0.252399 3.24693
0.234034 -0.252287 3.18989
0.167271 -0.252176 3.14468
0.136407 -0.252068 3.11742
0.186129 -0.251962 3.13044
0.336737 -0.251858 3.19389
0.132379 -0.251756 3.07986
0.202958 -0.25172 3.10278
0.304768 -0.251624 3.14181
0.449985 -0.25153 3.20253
0.210698 -0.251507 3.07043
0.494391 -0.251497 3.19971
0.174026 -0.25141 3.02761
0.301606 -0.251403 3.07882
0.182576 -0.25147 3.00612
0.305781 -0.251468 3.0551
0.24568 -0.251545 3.01176
0.277487 -0.251627 3.01434
0.310822 -0.251953 3.01559
0.0364552 -0.221309 0.803118
-0.141428 -0.220984 0.709253
-0.0991501 -0.220764 0.7235
0.13656 -0.220544 0.834481
0.0199183 -0.220325 0.769302
0.0226906 -0.220209 0.761847
0.0650571 -0.21999 0.776203
-0.220822 -0.219874 0.624448
-0.020374 -0.219656 0.717874
-0.0140583 -0.219598 0.711117
-0.0537748 -0.219483 0.682474
-0.0816345 -0.219265 0.661788
-0.0417291 -0.21915 0.672981
0.0545273 -0.218932 0.71438
-0.0819399 -0.218818 0.637411
-0.0094172 -0.21876 0.663812
-0.0429541 -0.218646 0.638325
0.0288829 -0.218429 0.667568
-0.0672672 -0.218315 0.610799
-0.0382147 -0.2182 0.616641
-0.0613218 -0.218143 0.595267
-0.00224057 -0.217927 0.618184
-0.00136145 -0.217813 0.609971
0.0094259 -0.217699 0.606721
-0.0656814 -0.217585 0.560534
-0.118427 -0.217427 0.526434
-0.00916195 -0.217314 0.572455
-0.0390593 -0.2172 0.548904
-0.0323952 -0.217086 0.543643
-0.105688 -0.216973 0.498412
-0.0374206 -0.216816 0.524873
0.00835428 -0.216703 0.539199
0.0451311 -0.216589 0.549034
-0.0710483 -0.216476 0.4824
-0.141441 -0.21642 0.437497
-0.188389 -0.216307 0.405496
-0.108787 -0.216094 0.438863
0.00776093 -0.215982 0.488633
0.00376151 -0.215869 0.478139
0.145786 -0.215813 0.539485
-0.0237311 -0.2157 0.446248
0.00313041 -0.215588 0.451209
-0.121986 -0.215476 0.380191
-0.102376 -0.21532 0.382462
-0.0193602 -0.215208 0.415531
-0.0875656 -0.215096 0.372998
0.0736857 -0.214985 0.445203
-0.0180549 -0.214929 0.389726
-0.0155293 -0.214817 0.382584
-0.0227446 -0.214705 0.370581
-0.184196 -0.21465 0.280267
-0.249546 -0.214538 0.239212
-0.0935151 -0.214328 0.310992
-0.160378 -0.214217 0.269204
-0.124003 -0.214162 0.277835
-0.0410744 -0.214051 0.310959
0.0430134 -0.21394 0.344671
-0.121996 -0.213829 0.253843
-0.104527 -0.213773 0.253048
-0.00756966 -0.213663 0.29322
-0.17053 -0.213552 0.203441
0.0424456 -0.213497 0.300419
0.068319 -0.213289 0.307241
-0.111802 -0.213178 0.208912
-0.0828113 -0.213068 0.215147
-0.0475552 -0.213013 0.223296
-0.0654629 -0.212903 0.206098
-0.137619 -0.212793 0.161785
0.0918168 -0.212738 0.267042
-0.0111265 -0.212629 0.207351
-0.138477 -0.212519 0.135464
0.0310289 -0.212464 0.210776
0.00977701 -0.212355 0.191954
-0.123152 -0.212245 0.117302
0.0712193 -0.212136 0.206309
0.0443933 -0.212081 0.183481
-0.211132 -0.211875 0.0497739
-0.116502 -0.211766 0.0889393
-0.136471 -0.211712 0.0695635
-0.109103 -0.211603 0.0751134
-0.170289 -0.211494 0.0363943
-0.151134 -0.21144 0.036599
-0.108807 -0.211331 0.049652
-0.0599512 -0.211223 0.0659776
-0.00194358 -0.211169 0.0856274
-0.147213 -0.21106 0.00490569
-0.188069 -0.210952 -0.0236009
0.0979918 -0.210898 0.110094
-0.222921 -0.21079 -0.0584261
0.906668 -0.255138 4.17276
0.547912 -0.253894 3.98607
0.582612 -0.25288 3.99506
0.610307 -0.252088 3.99951
0.802745 -0.2513 4.08639
0.49639 -0.250658 3.92319
0.507481 -0.250007 3.91883
0.492383 -0.249518 3.90057
0.527284 -0.249033 3.90733
0.506283 -0.248496 3.88649
0.331852 -0.248138 3.788
0.44804 -0.247702 3.83528
0.534773 -0.247293 3.86774
0.538359 -0.246875 3.85872
0.381823 -0.246562 3.76907
0.357882 -0.246207 3.74601
0.323087 -0.245855 3.71753
0.364679 -0.245507 3.72726
0.466004 -0.245205 3.76662
0.408959 -0.244905 3.72681
0.370557 -0.244573 3.69655
0.494435 -0.24428 3.74723
0.495304 -0.24399 3.73642
0.500757 -0.243702 3.72792
0.230375 -0.243417 3.58152
0.280298 -0.243197 3.59487
0.261525 -0.242919 3.57428
0.260994 -0.242712 3.56239
0.387973 -0.242441 3.61468
0.351682 -0.242186 3.58527
0.220977 -0.241919 3.50875
0.211711 -0.24173 3.49246
0.193573 -0.241477 3.47219
0.328235 -0.241297 3.52784
0.288294 -0.241046 3.49671
0.344533 -0.240876 3.51313
0.272652 -0.240625 3.46606
0.306712 -0.240461 3.4714
0.212326 -0.240222 3.41305
0.247273 -0.240056 3.41887
0.201443 -0.239899 3.38426
0.247546 -0.239662 3.39621
0.389795 -0.239511 3.45564
0.0617411 -0.23928 3.28051
-0.131864 -0.239133 3.17201
0.313408 -0.238989 3.38295
0.0936052 -0.238766 3.26195
0.221765 -0.238627 3.31433
0.201489 -0.23841 3.2931
0.341033 -0.238276 3.35116
0.0465829 -0.238065 3.19284
0.126352 -0.237936 3.22101
0.264932 -0.23781 3.27858
0.266391 -0.237686 3.26759
0.184014 -0.237485 3.21529
0.511992 -0.237366 3.36755
0.33031 -0.237249 3.26497
0.256449 -0.237135 3.21629
0.203095 -0.237022 3.17787
0.405423 -0.236834 3.26791
0.148072 -0.236727 3.12747
-0.0101085 -0.236621 3.03661
0.216891 -0.236518 3.13834
0.313309 -0.236417 3.17477
0.364812 -0.236318 3.18873
0.300411 -0.236221 3.14474
0.369561 -0.236126 3.16751
0.199681 -0.236033 3.07076
0.394445 -0.236003 3.1558
0.154339 -0.235915 3.02391
0.198357 -0.235829 3.03408
0.18743 -0.235745 3.01676
0.347268 -0.23573 3.08422
0.269781 -0.235651 3.0336
0.246672 -0.235647 3.0095
0.210037 -0.235642 2.97864
0.256135 -0.235641 2.98912
0.279525 -0.235716 2.98755
0.144369 -0.235794 2.90666
0.294234 -0.235953 2.96754
0.333834 -0.236422 2.97039
-0.0430512 -0.211134 1.04402
0.0480149 -0.210925 1.08219
0.045893 -0.210716 1.07378
-0.110506 -0.210507 0.988257
-0.000261722 -0.210299 1.03607
-0.126428 -0.210091 0.96569
-0.0976472 -0.209979 0.970976
-0.0887298 -0.209772 0.968169
0.0295566 -0.209716 1.01717
0.0257635 -0.209605 1.00621
0.0238769 -0.209398 0.998039
-0.0735579 -0.209286 0.940276
-0.169029 -0.20908 0.885345
-0.147543 -0.208969 0.887068
-0.164428 -0.208858 0.869616
-0.0121251 -0.208653 0.938613
0.0727443 -0.208542 0.972063
-0.0281818 -0.208431 0.912625
0.0313128 -0.208226 0.935259
0.141832 -0.208171 0.980485
-0.0389342 -0.208061 0.88116
0.0835778 -0.207857 0.93534
-0.0104314 -0.207747 0.879419
-0.069828 -0.207637 0.840813
-0.0473118 -0.207527 0.843174
-0.0935756 -0.207323 0.813019
-0.0617867 -0.207269 0.818943
-0.147452 -0.207159 0.767245
-0.0850555 -0.207049 0.789589
0.079462 -0.20694 0.863002
-0.146132 -0.206738 0.743246
-0.100617 -0.206628 0.757182
-0.0941371 -0.206574 0.750501
-0.0652807 -0.206465 0.756126
-0.0341876 -0.206263 0.764761
-0.135793 -0.206154 0.705179
-0.073466 -0.206046 0.727573
-0.153104 -0.205937 0.678994
-0.122195 -0.205882 0.684576
-0.0793414 -0.205774 0.697261
0.102938 -0.205574 0.781563
-0.0447366 -0.205466 0.699008
-0.0972968 -0.205357 0.664019
-0.0319298 -0.205303 0.686871
-0.19412 -0.205195 0.597084
0.0265168 -0.205087 0.69872
0.0748092 -0.204888 0.716103
-0.0104524 -0.20478 0.664814
-0.209137 -0.204726 0.55568
-0.114023 -0.204619 0.594596
-0.0336353 -0.204511 0.626157
-0.131903 -0.204403 0.568401
-0.0451361 -0.204296 0.603171
-0.191071 -0.204153 0.522373
-0.0840064 -0.204045 0.567314
-0.148588 -0.203938 0.526441
-0.0564606 -0.203831 0.563932
-0.0461506 -0.203777 0.559363
-0.142782 -0.20367 0.502491
-0.139781 -0.203564 0.495445
-0.143593 -0.203457 0.485001
-0.131398 -0.203261 0.484515
-0.0887654 -0.203208 0.496148
-0.0160808 -0.203102 0.523983
-0.155514 -0.202995 0.445769
-0.147995 -0.202889 0.44104
-0.174807 -0.202836 0.417978
-0.125242 -0.202729 0.434288
-0.0660309 -0.202623 0.45543
-0.0186776 -0.202517 0.470652
-0.100199 -0.202465 0.420263
-0.172539 -0.202271 0.377628
-0.169715 -0.202165 0.370616
0.00240448 -0.202059 0.448261
-0.204097 -0.202007 0.335413
-0.0561687 -0.201901 0.400978
-0.0503569 -0.201796 0.395495
-0.157435 -0.201743 0.332378
-0.0288158 -0.201638 0.388314
-0.084921 -0.201533 0.351897
-0.130221 -0.201428 0.320892
-0.113494 -0.201375 0.319704
-0.159955 -0.201184 0.290137
0.0746724 -0.201079 0.399125
-0.149647 -0.200974 0.278648
-0.190261 -0.200922 0.248822
-0.0918298 -0.200817 0.289737
-0.13066 -0.200713 0.262029
-0.0122651 -0.200661 0.311727
-0.136724 -0.200557 0.241221
-0.0731755 -0.200452 0.264728
-0.187532 -0.200348 0.19929
-0.172149 -0.200296 0.197508
-0.184279 -0.200193 0.1832
-0.13848 -0.200089 0.197865
-0.152424 -0.200037 0.181439
0.054744 -0.199933 0.276804
-0.105452 -0.199744 0.190546
-0.195916 -0.199692 0.135883
-0.0806026 -0.199589 0.18535
-0.0379904 -0.199485 0.198475
-0.128267 -0.199382 0.145165
-0.176253 -0.199331 0.111767
-0.0671493 -0.199228 0.158162
-0.275248 -0.199125 0.0459643
-0.184901 -0.199073 0.0817518
0.0265974 -0.19897 0.179368
-0.050886 -0.198868 0.132502
-0.067979 -0.198816 0.114589
-0.10391 -0.198714 0.0885142
-0.152611 -0.198612 0.0560631
-0.15173 -0.19856 0.0471553
-0.165265 -0.198458 0.0323024
-0.0930741 -0.198356 0.0603208
-0.199804 -0.198305 -0.00237363
-0.249563 -0.198203 -0.0353149
-0.107602 -0.198101 0.0276121
-0.147063 -0.19805 -0.00142952
-0.247001 -0.197948 -0.0594366
0.60333 -0.238454 3.99788
0.699909 -0.237083 4.04016
0.549287 -0.236199 3.95629
0.57274 -0.235404 3.95904
0.415716 -0.234783 3.87066
0.506416 -0.234253 3.90569
0.444318 -0.233646 3.86482
0.524958 -0.233191 3.89451
0.472131 -0.23274 3.85748
0.559331 -0.232378 3.88999
0.363988 -0.231938 3.78174
0.440647 -0.231554 3.8092
0.455036 -0.23116 3.80563
0.348822 -0.230865 3.74119
0.420176 -0.230534 3.76579
0.326518 -0.2302 3.70794
0.371565 -0.229872 3.71944
0.542056 -0.229588 3.79343
0.302561 -0.229271 3.66266
0.301364 -0.228993 3.65083
0.367149 -0.228717 3.6725
0.389252 -0.228444 3.67235
0.420505 -0.228173 3.67678
0.417175 -0.227904 3.66394
0.390537 -0.227696 3.63906
0.545784 -0.227434 3.70552
0.237538 -0.227175 3.54025
0.38286 -0.226935 3.60166
0.451924 -0.226744 3.62461
0.509116 -0.226492 3.64208
0.370514 -0.226313 3.56117
0.347294 -0.226076 3.53839
0.21299 -0.225832 3.46014
0.253339 -0.225666 3.46867
0.502441 -0.225431 3.58211
0.323344 -0.225273 3.4809
0.372024 -0.22504 3.49416
0.406705 -0.224887 3.49984
0.441915 -0.224659 3.50638
0.359862 -0.224511 3.4537
0.33437 -0.224288 3.42989
0.431412 -0.224145 3.46675
0.30436 -0.223991 3.39167
0.238161 -0.223774 3.34753
0.247512 -0.223637 3.34056
0.142534 -0.223425 3.27703
0.283205 -0.223292 3.33571
0.235695 -0.223086 3.30092
0.394709 -0.222958 3.36877
0.015845 -0.222832 3.16768
0.38164 -0.222634 3.33954
0.308987 -0.222513 3.29154
0.199826 -0.222394 3.22529
0.24365 -0.222277 3.23552
0.227681 -0.222129 3.21615
0.366956 -0.221977 3.27444
0.388299 -0.22183 3.27374
0.31021 -0.221721 3.22302
0.209019 -0.221541 3.16137
0.300848 -0.221436 3.19559
0.338435 -0.221333 3.20269
0.191907 -0.221233 3.11771
0.2162 -0.221062 3.1188
0.292278 -0.220966 3.14511
0.0652928 -0.220872 3.0199
0.236063 -0.22078 3.09355
0.119031 -0.22069 3.02329
0.33531 -0.220601 3.11968
0.103592 -0.220515 2.99206
0.180969 -0.22043 3.01899
0.205808 -0.220347 3.01964
0.334275 -0.220266 3.07209
0.244868 -0.220187 3.0156
0.0431387 -0.220109 2.90294
0.318372 -0.220097 3.02814
0.340376 -0.220024 3.02732
0.27135 -0.219952 2.98098
0.227675 -0.21995 2.94663
0.275073 -0.219951 2.9578
0.286051 -0.219952 2.95075
0.207495 -0.219958 2.89888
0.0815197 -0.220035 2.82259
0.249595 -0.220189 2.89254
0.343228 -0.220557 2.92307
0.130399 -0.200483 1.36563
0.115107 -0.200285 1.35022
-0.152965 -0.199997 1.21012
-0.155368 -0.19989 1.19952
0.0532303 -0.199693 1.29612
-0.0125438 -0.199496 1.25555
-0.0584276 -0.1993 1.22493
0.0161201 -0.199193 1.25287
-0.074059 -0.198998 1.20014
0.0896221 -0.198891 1.27266
0.072074 -0.198696 1.25628
-0.0953741 -0.198589 1.16327
-0.0709781 -0.198394 1.16788
-0.046348 -0.198288 1.17094
0.060421 -0.198182 1.21507
-0.0248753 -0.197988 1.16488
-0.107144 -0.197882 1.11452
-0.0914531 -0.197689 1.11485
0.0855714 -0.197583 1.19417
-0.162052 -0.197477 1.06117
-0.0322287 -0.197285 1.1186
-0.109574 -0.197179 1.07077
-0.0749237 -0.197074 1.07894
-0.127148 -0.196969 1.04368
-0.122038 -0.196777 1.03882
-0.09632 -0.196724 1.04152
-0.276184 -0.196619 0.942476
-0.106683 -0.196514 1.01813
0.0267459 -0.196323 1.07747
-0.164409 -0.196219 0.972822
-0.00990373 -0.196114 1.04101
-0.0506379 -0.195924 1.01331
-0.0887619 -0.19582 0.98521
-0.105713 -0.195715 0.967706
-0.0862216 -0.195611 0.968434
-0.0688325 -0.195558 0.967054
-0.0353955 -0.19537 0.976502
0.0412555 -0.195266 1.00584
0.170501 -0.195162 1.06149
-0.0187327 -0.195058 0.957908
-0.0485746 -0.194954 0.934031
-0.0852223 -0.194766 0.9085
-0.260487 -0.194714 0.810856
-0.00144448 -0.194611 0.931454
0.14711 -0.194507 0.996819
-0.195104 -0.194404 0.816809
-0.0523777 -0.194217 0.881023
-0.118281 -0.194114 0.839193
-0.0611079 -0.194011 0.858911
-0.0132255 -0.193959 0.872898
-0.0410341 -0.193856 0.850143
-0.156052 -0.193753 0.783792
-0.252534 -0.193568 0.728474
0.0415449 -0.193466 0.866697
-0.0142099 -0.193363 0.830012
-0.137053 -0.193312 0.758685
-0.204037 -0.193209 0.716403
-0.153308 -0.193107 0.732988
-0.233676 -0.193004 0.684033
-0.063229 -0.192821 0.762263
-0.0739968 -0.19277 0.747015
-0.152499 -0.192668 0.699026
-0.101118 -0.192565 0.715987
-0.0998501 -0.192463 0.707901
-0.162682 -0.192362 0.667775
0.020021 -0.192311 0.749298
-0.00874143 -0.192129 0.728003
-0.0127474 -0.192027 0.717321
-0.235004 -0.191926 0.597523
-0.0670479 -0.191824 0.672842
-0.144645 -0.191773 0.624256
-0.184065 -0.191672 0.595903
-0.222221 -0.191571 0.568192
-0.165992 -0.19147 0.587682
-0.0142064 -0.19129 0.656753
-0.145656 -0.191239 0.581281
-0.169376 -0.191138 0.560828
-0.145278 -0.191037 0.564294
-0.041448 -0.190937 0.607634
-0.00843502 -0.190886 0.614421
-0.187476 -0.190786 0.516343
-0.0484657 -0.190685 0.5773
-0.101323 -0.190585 0.542332
-0.101484 -0.190485 0.533722
-0.0880357 -0.190434 0.530761
0.000906997 -0.190256 0.568539
-0.0489095 -0.190156 0.535131
-0.113145 -0.190056 0.494523
-0.084542 -0.190006 0.499172
-0.124183 -0.189906 0.470878
-0.0741007 -0.189807 0.487455
-0.0828596 -0.189707 0.47462
-0.127094 -0.189657 0.442878
-0.161632 -0.189558 0.41717
-0.0373788 -0.189458 0.470867
-0.140208 -0.189359 0.411031
-0.131576 -0.189232 0.407592
-0.194244 -0.189133 0.367858
-0.0814996 -0.189034 0.415839
-0.208839 -0.188935 0.343788
-0.147663 -0.188886 0.364809
-0.0668661 -0.188787 0.396842
-0.0768601 -0.188688 0.383488
-0.101895 -0.188639 0.361424
-0.25144 -0.18854 0.278311
-0.0953931 -0.188442 0.348003
-0.106625 -0.188343 0.334064
-0.2038 -0.188294 0.275956
-0.0593053 -0.188196 0.339897
-0.0524416 -0.188098 0.335031
-0.280784 -0.188049 0.211359
-0.0594006 -0.187875 0.31565
-0.298725 -0.187777 0.187719
-0.154008 -0.187679 0.251818
-0.0936028 -0.18763 0.272551
-0.194359 -0.187532 0.213929
-0.163481 -0.187435 0.221132
-0.0984524 -0.187386 0.244196
-0.113983 -0.187289 0.228211
-0.339891 -0.187191 0.107046
-0.127092 -0.187143 0.204015
-0.187985 -0.187045 0.165373
-0.10494 -0.186948 0.198709
-0.116249 -0.186851 0.184877
-0.122292 -0.186803 0.17245
-0.176931 -0.186706 0.136968
0.0940546 -0.186609 0.264307
0.0162194 -0.186561 0.216003
-0.0635068 -0.186464 0.168002
-0.0342547 -0.186368 0.174499
0.0848992 -0.18632 0.224708
-0.14679 -0.186223 0.100749
-0.00764925 -0.186127 0.162214
-0.261618 -0.186004 0.0278291
-0.114374 -0.185908 0.0933652
-0.147816 -0.185812 0.0685668
-0.0456953 -0.185764 0.110301
-0.290663 -0.185668 -0.0202445
-0.0418647 -0.185572 0.096101
-0.267411 -0.185524 -0.0259793
-0.195376 -0.185429 0.00199976
-0.240083 -0.185333 -0.0283838
-0.223434 -0.185285 -0.0293478
-0.122109 -0.18519 0.0132998
0.647102 -0.221735 3.99752
0.603269 -0.220456 3.9698
0.738898 -0.219598 4.0294
0.516165 -0.219015 3.90822
0.58278 -0.218439 3.93176
0.560427 -0.217947 3.91034
0.42601 -0.217385 3.8334
0.404531 -0.216964 3.81209
0.565047 -0.216676 3.88097
0.409438 -0.216213 3.79297
0.232155 -0.215901 3.69319
0.623983 -0.215527 3.87841
0.463663 -0.215207 3.78725
0.374691 -0.214898 3.73173
0.569283 -0.214585 3.81805
0.45013 -0.214277 3.7475
0.440281 -0.214011 3.73135
0.240747 -0.213713 3.62061
0.287132 -0.213453 3.63261
0.322809 -0.213194 3.63927
0.357549 -0.212938 3.64547
0.0800007 -0.212684 3.49555
0.208938 -0.212433 3.54888
0.343411 -0.212237 3.6046
0.354472 -0.211991 3.59901
0.392396 -0.211766 3.60672
0.294443 -0.211524 3.54666
0.133472 -0.211284 3.45509
0.195905 -0.211108 3.47477
0.239606 -0.210885 3.48546
0.169049 -0.210652 3.43913
0.331301 -0.210488 3.5087
0.255964 -0.210268 3.45993
0.169218 -0.210112 3.40498
0.199506 -0.209892 3.40907
0.197283 -0.209745 3.39635
0.195539 -0.209527 3.38446
0.211952 -0.209384 3.38106
0.315337 -0.20917 3.42174
0.204635 -0.209032 3.35478
0.143569 -0.208824 3.31325
0.202532 -0.20869 3.33112
0.15363 -0.208547 3.29516
0.143494 -0.208344 3.27911
0.177846 -0.208215 3.28469
0.193571 -0.208017 3.28157
0.0610035 -0.207893 3.20369
0.0768218 -0.2077 3.20061
0.24046 -0.207581 3.27083
0.134288 -0.207463 3.20613
0.191934 -0.207323 3.22355
0.241298 -0.207164 3.23703
0.191023 -0.207026 3.20052
0.217877 -0.206846 3.20297
0.114591 -0.206738 3.13971
0.27584 -0.206631 3.20871
0.374702 -0.206527 3.24651
0.321094 -0.206357 3.20871
0.346103 -0.206257 3.20957
0.262942 -0.206121 3.15671
0.137716 -0.206024 3.08246
0.271434 -0.205861 3.13832
0.135098 -0.205768 3.0585
0.254576 -0.205677 3.10658
0.114516 -0.205587 3.02488
0.101522 -0.2055 3.00671
0.0471646 -0.205348 2.96851
0.115736 -0.205264 2.99111
0.112856 -0.205132 2.97848
0.062316 -0.205051 2.94152
0.188499 -0.204972 2.99291
0.331 -0.204894 3.05246
0.235033 -0.204818 2.99276
0.222361 -0.204679 2.97538
0.180385 -0.204606 2.94266
0.142379 -0.2046 2.91124
0.199576 -0.20453 2.92809
0.17512 -0.204462 2.90411
0.373873 -0.204395 2.99173
0.159847 -0.20433 2.87295
0.20274 -0.204331 2.88192
0.157896 -0.204269 2.8477
0.058522 -0.204272 2.78551
0.27843 -0.20428 2.88291
0.0903226 -0.204286 2.77633
0.240908 -0.204368 2.83824
0.345726 -0.204509 2.87659
0.287744 -0.205 2.82958
-0.00343655 -0.189236 1.49932
0.00590011 -0.188915 1.49839
0.132985 -0.18873 1.55386
-0.098245 -0.188545 1.43019
0.0441642 -0.18836 1.49335
-0.0848104 -0.188175 1.42084
0.102816 -0.18794 1.5076
0.206296 -0.187839 1.54979
-0.129371 -0.187655 1.37398
-0.150025 -0.187554 1.35413
-0.213705 -0.18737 1.31434
-0.0571552 -0.187269 1.38312
-0.0196784 -0.187087 1.39394
-0.120275 -0.186986 1.33417
-0.183121 -0.186804 1.29486
-0.0843686 -0.186703 1.33479
-0.00214051 -0.186603 1.36647
0.0400484 -0.186421 1.37972
0.0549005 -0.186321 1.37774
-0.00761122 -0.18622 1.33708
-0.0813521 -0.18604 1.29241
-0.0269844 -0.18594 1.31022
-0.152327 -0.185839 1.23819
-0.0712911 -0.18566 1.27094
0.0150766 -0.18556 1.30479
-0.202695 -0.18546 1.18658
0.000534023 -0.185281 1.28047
0.00337981 -0.185181 1.27259
-0.0403066 -0.185082 1.24146
-0.0981336 -0.184904 1.20486
-0.120373 -0.184804 1.18448
0.0910872 -0.184705 1.28096
-0.113719 -0.184655 1.1683
0.00435389 -0.184556 1.2181
0.0852544 -0.184379 1.25093
-0.0478585 -0.18428 1.17516
0.0462185 -0.184181 1.213
-0.147286 -0.184082 1.10707
-0.0604556 -0.183906 1.14291
0.0337563 -0.183807 1.18085
-0.180184 -0.183709 1.06473
-0.152873 -0.18361 1.06924
-0.198912 -0.183436 1.0387
0.0031991 -0.183337 1.13064
-0.118538 -0.183288 1.05962
0.00904639 -0.18319 1.11432
-0.0150714 -0.183091 1.09317
0.0155683 -0.182918 1.10102
-0.13534 -0.18282 1.01651
-0.107824 -0.182722 1.02121
0.0499344 -0.182624 1.09105
-0.0046671 -0.182526 1.05472
-0.330362 -0.182428 0.882851
-0.0893385 -0.182305 0.994907
-0.0403075 -0.182208 1.01042
-0.0163052 -0.18211 1.01344
-0.0726345 -0.182013 0.976294
0.0214548 -0.181915 1.01437
-0.291625 -0.181818 0.848872
-0.00680545 -0.181647 0.983956
-0.115174 -0.181599 0.919763
-0.216492 -0.181502 0.860178
-0.186838 -0.181405 0.866089
-0.206053 -0.181308 0.847575
-0.311277 -0.181211 0.786067
-0.135332 -0.181042 0.866781
0.0872707 -0.180945 0.96921
-0.222613 -0.180897 0.804317
-0.205725 -0.180801 0.803906
-0.343025 -0.180704 0.726412
-0.129514 -0.180608 0.824332
-0.0619067 -0.180512 0.849311
-0.0575324 -0.180464 0.841583
-0.0908088 -0.180296 0.817778
-0.192727 -0.1802 0.758026
-0.165522 -0.180104 0.762845
-0.0185493 -0.180008 0.827557
-0.0955196 -0.179912 0.780308
-0.0452731 -0.179865 0.795565
-0.0888963 -0.179769 0.765006
-0.0858122 -0.179673 0.757811
-0.126836 -0.179508 0.730223
-0.177169 -0.179412 0.696343
-0.178888 -0.179365 0.685658
-0.102564 -0.179269 0.715123
-0.164386 -0.179174 0.675525
-0.179972 -0.179079 0.659055
-0.171858 -0.178984 0.654444
-0.266197 -0.178937 0.597485
-0.111813 -0.178842 0.666026
-0.180325 -0.178678 0.624793
-0.445026 -0.178583 0.483815
-0.27467 -0.178488 0.560375
-0.0527931 -0.178441 0.661564
-0.23228 -0.178347 0.563219
0.0323553 -0.178252 0.686945
-0.107464 -0.178158 0.608453
-0.161977 -0.178111 0.571475
