ply
format ascii 1.0
comment Created by Open3D
element vertex 1988
property double x
property double y
property double z
end_header
1.68757 1.22234 1.41556
1.64897 1.22221 1.38352
1.65545 1.22221 1.37355
1.64082 1.22213 1.35329
1.65093 1.22215 1.34506
1.71673 1.22214 1.36479
1.68582 1.22217 1.33599
1.75623 1.22221 1.35782
1.7302 1.22227 1.33137
1.71982 1.22234 1.31269
1.71194 1.22239 1.29536
1.81931 1.22249 1.33544
1.71054 1.22256 1.26758
1.74034 1.22272 1.26868
1.72028 1.2228 1.24512
1.75607 1.22299 1.24905
1.74583 1.22309 1.23032
1.76792 1.22333 1.22723
1.66423 1.2236 1.16112
1.76084 1.22377 1.19557
1.78616 1.22408 1.19378
1.80216 1.22443 1.18722
1.85096 1.22459 1.19777
1.8178 1.22502 1.16626
1.84908 1.22543 1.16707
1.75716 1.22586 1.10617
1.86105 1.22632 1.14308
1.81038 1.22687 1.10233
1.87903 1.22737 1.12143
1.84783 1.22797 1.0902
1.87231 1.22859 1.08669
1.92366 1.22957 1.09521
2.0241 1.23059 1.12809
1.95517 1.23176 1.07567
2.00195 1.23333 1.07945
1.98404 1.23649 1.0445
1.75197 1.25876 1.682
1.64237 1.2547 1.6273
1.67441 1.25311 1.63528
1.66879 1.25103 1.62608
1.75269 1.24951 1.65979
1.64896 1.24804 1.59955
1.69428 1.24674 1.6133
1.6397 1.24583 1.57581
1.69349 1.24462 1.59352
1.72371 1.24389 1.59784
1.60822 1.24319 1.52923
1.6229 1.24262 1.52528
1.70331 1.24197 1.55444
1.69537 1.24136 1.53931
1.57191 1.24112 1.46519
1.63083 1.24034 1.48412
1.54415 1.24012 1.42829
1.74514 1.23972 1.51696
1.63478 1.23934 1.44986
1.66474 1.23917 1.45222
1.58648 1.23885 1.40099
1.70842 1.2387 1.44926
1.62947 1.23849 1.3973
1.65016 1.23826 1.39525
1.65455 1.23816 1.38459
1.67765 1.23803 1.38339
1.73472 1.23795 1.39897
1.58988 1.23787 1.31363
1.69764 1.23782 1.35445
1.65902 1.23779 1.32205
1.82188 1.23779 1.39027
1.71975 1.23779 1.32597
1.6578 1.23782 1.28168
1.70663 1.23785 1.29276
1.66912 1.23787 1.26073
1.68487 1.23792 1.25519
1.76301 1.23795 1.28092
1.72877 1.23805 1.25021
1.83773 1.2381 1.29128
1.75665 1.23824 1.23698
1.81659 1.23842 1.25307
1.74719 1.23854 1.2047
1.81747 1.23876 1.22576
1.80141 1.23886 1.20412
1.82895 1.23913 1.20364
1.79793 1.23943 1.17378
1.82312 1.23961 1.17242
1.8605 1.23995 1.17658
1.81048 1.2401 1.13777
1.76322 1.24047 1.09946
1.82443 1.24094 1.11498
1.79728 1.24136 1.08652
1.91473 1.2419 1.12992
1.84886 1.24236 1.08191
1.91373 1.24294 1.09881
1.83643 1.24386 1.0433
1.94111 1.24449 1.07985
1.88943 1.24548 1.03683
1.85944 1.24616 1.00585
1.90173 1.24818 1.00569
1.9897 1.2508 1.02593
1.82201 1.2762 1.69792
1.82743 1.27209 1.7008
1.72225 1.26926 1.64421
1.59426 1.26714 1.57388
1.81789 1.26611 1.67578
1.59028 1.26471 1.55332
1.71516 1.26324 1.60734
1.63803 1.26195 1.55983
1.6609 1.26115 1.56066
1.68636 1.26037 1.56272
1.66529 1.25963 1.54142
1.64561 1.25891 1.52074
1.61494 1.25823 1.49447
1.67683 1.25767 1.51408
1.60193 1.25705 1.46549
1.71519 1.25655 1.51061
1.74429 1.25631 1.51274
1.67027 1.25585 1.46407
1.62684 1.25543 1.43059
1.67027 1.25523 1.43976
1.62569 1.25486 1.40554
1.65774 1.25452 1.40951
1.61852 1.25422 1.37772
1.64505 1.25413 1.37808
1.60048 1.25389 1.34343
1.72396 1.25378 1.39232
1.67558 1.25363 1.35546
1.76239 1.25355 1.38592
1.68301 1.25345 1.33338
1.68565 1.25341 1.3216
1.70457 1.25335 1.31809
1.66474 1.25333 1.28502
1.68838 1.25333 1.28362
1.72255 1.25331 1.28754
1.65371 1.2533 1.23994
1.70053 1.2533 1.25015
1.71753 1.2533 1.24542
1.69262 1.25334 1.21959
1.66966 1.25339 1.19471
1.72555 1.25349 1.20908
1.75356 1.25353 1.20972
1.7446 1.25367 1.19149
1.77607 1.25373 1.19378
1.87114 1.25391 1.2274
1.81152 1.25413 1.18355
1.73956 1.25428 1.13377
1.87203 1.25454 1.18579
1.76261 1.25464 1.11745
1.75848 1.25494 1.10101
1.82754 1.25527 1.12106
1.84021 1.25571 1.11248
1.88863 1.25584 1.12292
1.86443 1.25633 1.09572
1.92251 1.25673 1.10994
1.8254 1.25727 1.04606
1.90102 1.25771 1.06888
1.97648 1.25829 1.09109
1.89291 1.2592 1.03249
1.86767 1.26029 1.00235
1.97442 1.26127 1.03854
1.9834 1.26244 1.02515
1.94871 1.26516 0.983742
1.79415 1.29487 1.66102
1.77253 1.28947 1.65443
1.66165 1.28603 1.5969
1.73266 1.28439 1.62439
1.70583 1.28228 1.60462
1.64857 1.28134 1.56572
1.5765 1.27935 1.52299
1.69827 1.27849 1.57343
1.73358 1.27765 1.58059
1.7472 1.27683 1.57683
1.69096 1.27562 1.53948
1.63657 1.27488 1.5015
1.69456 1.27457 1.51829
1.61431 1.27387 1.46724
1.65576 1.27329 1.47669
1.65198 1.27273 1.46344
1.68766 1.27215 1.47003
1.72841 1.27166 1.47884
1.6421 1.27143 1.42323
1.73514 1.27099 1.45802
1.62927 1.27059 1.39323
1.68283 1.27045 1.40729
1.72215 1.2701 1.41493
1.68873 1.26994 1.38554
1.61171 1.26968 1.33473
1.69606 1.26943 1.36456
1.64288 1.26933 1.32507
1.69029 1.26914 1.33625
1.7012 1.26907 1.32873
1.68564 1.269 1.30799
1.72371 1.26888 1.3142
1.74488 1.26883 1.31177
1.8059 1.26878 1.32925
1.68249 1.26872 1.25453
1.74962 1.26868 1.27504
1.69741 1.26864 1.23585
1.72832 1.26861 1.23819
1.74259 1.26863 1.23205
1.70163 1.26862 1.19839
1.73816 1.26866 1.20329
1.734 1.26867 1.18796
1.82231 1.26875 1.21857
1.80599 1.26884 1.19688
1.83028 1.26898 1.19529
1.84281 1.26902 1.18816
1.75114 1.2692 1.12842
1.85642 1.26927 1.1676
1.76009 1.26949 1.10539
1.84078 1.26974 1.13156
1.79522 1.26992 1.09487
1.83154 1.27021 1.0987
1.8204 1.27052 1.0787
1.79765 1.27097 1.0524
1.80965 1.27109 1.04469
1.85472 1.27157 1.05212
1.85635 1.27196 1.03819
1.89777 1.2725 1.04359
1.93199 1.27334 1.04418
1.90871 1.27393 1.01699
1.92024 1.27484 1.00593
1.93014 1.27595 0.993298
1.86253 1.27709 0.941738
2.01327 1.27928 0.995212
1.78283 1.30684 1.6408
1.77163 1.30333 1.63321
1.77946 1.3011 1.63101
1.63483 1.29893 1.55243
1.69643 1.29787 1.57335
1.7234 1.29641 1.57829
1.76695 1.295 1.59139
1.65395 1.29412 1.52449
1.6779 1.29319 1.52626
1.64731 1.292 1.50163
1.70795 1.29122 1.52127
1.55411 1.29047 1.43358
1.74794 1.28982 1.51941
1.65787 1.28914 1.46341
1.71065 1.28884 1.47753
1.82322 1.28827 1.52251
1.66709 1.28773 1.43303
1.738 1.28747 1.45611
1.71966 1.28698 1.43537
1.67661 1.28653 1.40216
1.70912 1.28611 1.4066
1.67886 1.28592 1.3789
1.72901 1.28559 1.39191
1.65093 1.28542 1.34021
1.75289 1.28513 1.37896
1.69474 1.285 1.33714
1.77747 1.28476 1.3661
1.64871 1.28466 1.28888
1.64976 1.28447 1.27683
1.62622 1.28438 1.25218
1.70089 1.28427 1.27668
1.65305 1.28418 1.23983
1.80268 1.28408 1.30179
1.67103 1.28401 1.22303
1.77822 1.28395 1.26363
1.75952 1.28389 1.24126
1.73037 1.28384 1.21365
1.70698 1.28381 1.18885
1.78004 1.28378 1.21227
1.7495 1.2838 1.18372
1.78354 1.28385 1.18733
1.71673 1.28385 1.14072
1.81243 1.28385 1.17535
1.74624 1.28395 1.12868
1.79215 1.28408 1.13795
1.77925 1.2842 1.11784
1.81572 1.28428 1.12255
1.80574 1.28442 1.1038
1.82739 1.28464 1.10061
1.74421 1.2847 1.04556
1.84429 1.28495 1.08144
1.80236 1.28534 1.04577
1.826 1.28543 1.04403
1.85058 1.28596 1.04107
1.81531 1.28619 1.00931
1.90841 1.28668 1.04076
1.89495 1.28704 1.01938
1.91681 1.28757 1.01503
1.93005 1.28841 1.00519
1.88631 1.28898 0.967836
1.99292 1.29005 1.00376
1.97461 1.29115 0.977045
1.9982 1.2933 0.967184
1.7818 1.32419 1.62166
1.77641 1.32062 1.61704
1.69017 1.31833 1.56791
1.70428 1.31609 1.56884
1.7308 1.31393 1.5758
1.69362 1.31295 1.54705
1.63264 1.31148 1.50801
1.69625 1.31049 1.52974
1.701 1.3096 1.52174
1.74127 1.30834 1.53273
1.72654 1.30752 1.51479
1.62799 1.30673 1.45486
1.73839 1.30597 1.4993
1.63735 1.3053 1.43774
1.72207 1.30498 1.46792
1.72056 1.30431 1.45614
1.68699 1.30372 1.42809
1.70603 1.30317 1.42623
1.73051 1.30265 1.42699
1.65766 1.3024 1.37815
1.72558 1.30196 1.40039
1.62179 1.30174 1.336
1.74416 1.30133 1.38535
1.68151 1.30115 1.34142
1.67453 1.3008 1.32591
1.69727 1.30064 1.32462
1.64547 1.30035 1.28652
1.73715 1.3002 1.31963
1.77554 1.29997 1.32642
1.81422 1.29985 1.33296
1.66362 1.29968 1.24504
1.62005 1.29955 1.2105
1.75757 1.29944 1.26641
1.6915 1.29932 1.2206
1.83196 1.29918 1.27811
1.83237 1.29909 1.26542
1.75197 1.29905 1.21217
1.76364 1.29892 1.20525
1.67306 1.29892 1.14674
1.7417 1.29887 1.16805
1.81146 1.29885 1.18979
1.75605 1.29881 1.14901
1.75167 1.29884 1.13351
1.72307 1.29882 1.10606
1.87312 1.2989 1.16761
1.76053 1.29899 1.09774
1.83982 1.299 1.12415
1.76014 1.29913 1.07061
1.79104 1.29916 1.07276
1.78779 1.29933 1.05729
1.77362 1.29953 1.03625
1.88942 1.2997 1.08029
1.93036 1.29993 1.08666
1.85076 1.30019 1.03267
1.89743 1.3004 1.042
1.91952 1.30068 1.03873
1.93607 1.30114 1.03204
1.96659 1.30163 1.03223
1.89436 1.30213 0.980942
1.86115 1.30293 0.948045
1.87577 1.30348 0.93999
1.99774 1.30405 0.985538
2.00788 1.30541 0.972105
1.95844 1.30702 0.927889
2.06433 1.31046 0.954201
1.77146 1.3379 1.59614
1.74829 1.33556 1.57864
1.72264 1.33326 1.55981
1.74082 1.33102 1.56275
1.76865 1.32939 1.56858
1.73068 1.32788 1.54115
1.72988 1.32642 1.53217
1.67318 1.3255 1.49351
1.66126 1.32461 1.47715
1.67549 1.32375 1.4738
1.70862 1.32296 1.47965
1.68621 1.32216 1.4578
1.71532 1.32144 1.46148
1.68138 1.32071 1.43365
1.71962 1.32038 1.44061
1.74896 1.31973 1.44417
1.74251 1.31913 1.42973
1.67184 1.31855 1.38307
1.72908 1.31828 1.39935
1.66474 1.31777 1.35569
1.74409 1.31752 1.38295
1.69753 1.31707 1.34798
1.6361 1.31665 1.30546
1.6325 1.31645 1.29112
1.66075 1.31609 1.29325
1.77277 1.31591 1.33666
1.71233 1.31571 1.2939
1.6669 1.31545 1.25885
1.79582 1.31527 1.31073
1.73291 1.31505 1.26683
1.6952 1.31492 1.23522
1.77338 1.31473 1.26174
1.72776 1.31459 1.22623
1.71743 1.31443 1.20839
1.77767 1.31431 1.22573
1.73405 1.3142 1.19112
1.78072 1.31406 1.20175
1.70216 1.31396 1.14961
1.75593 1.31387 1.16361
1.79905 1.31379 1.17224
1.7368 1.31381 1.12784
1.73759 1.3137 1.11546
1.85592 1.31374 1.16124
1.78112 1.3137 1.1108
1.8406 1.31366 1.12748
1.81349 1.31371 1.10054
1.80063 1.31369 1.08099
1.86975 1.31378 1.10201
1.78336 1.3139 1.04517
1.7844 1.31403 1.03198
1.87542 1.31404 1.06425
1.87035 1.31421 1.04788
1.84956 1.3144 1.02356
1.81652 1.31459 0.993149
1.83779 1.31481 0.989724
1.91917 1.31522 1.01567
1.88564 1.31527 0.985509
1.84723 1.31594 0.950542
1.94369 1.31641 0.98374
1.96504 1.31691 0.979301
1.96097 1.31742 0.962077
1.95673 1.31822 0.94367
1.97045 1.31925 0.933336
1.98067 1.32081 0.91918
2.0721 1.32295 0.943405
1.79716 1.35575 1.58882
1.82605 1.35212 1.6014
1.73828 1.34919 1.55343
1.77444 1.34805 1.56178
1.77661 1.34587 1.55648
1.68763 1.34431 1.50368
1.72567 1.34331 1.51258
1.79419 1.34183 1.53828
1.7272 1.3409 1.4945
1.71932 1.34 1.48019
1.76008 1.33912 1.49012
1.69231 1.33832 1.44558
1.69864 1.33751 1.43811
1.68561 1.33677 1.42077
1.71845 1.33641 1.42511
1.644 1.33536 1.37809
1.75745 1.33504 1.42263
1.70391 1.33441 1.38468
1.65744 1.33412 1.34917
1.76613 1.33355 1.39218
1.74808 1.33302 1.3717
1.70004 1.33276 1.33532
1.71902 1.33249 1.33249
1.73466 1.33205 1.32857
1.72294 1.33182 1.31028
1.75191 1.33142 1.31289
1.78804 1.33117 1.31858
1.73579 1.33088 1.28025
1.71272 1.33064 1.2563
1.72614 1.33042 1.25057
1.7331 1.3302 1.24159
1.70222 1.33003 1.21352
1.73588 1.32982 1.2179
1.73315 1.32964 1.20393
1.70012 1.32943 1.17495
1.73665 1.32928 1.18055
1.81353 1.32916 1.2062
1.72133 1.32895 1.14765
1.87237 1.32889 1.21017
1.81894 1.32878 1.17064
1.83876 1.32868 1.16772
1.79347 1.32859 1.13222
1.74546 1.32849 1.09534
1.79665 1.32844 1.10793
1.75588 1.32837 1.07461
1.73845 1.32836 1.05272
1.77667 1.32831 1.05884
1.79528 1.32834 1.05482
1.78477 1.32844 1.03601
1.86012 1.32838 1.06073
1.78535 1.3285 1.00969
1.78319 1.32848 0.995497
1.83067 1.3286 1.00557
1.89058 1.32875 1.02178
1.87243 1.32892 0.998887
1.77758 1.3291 0.937589
1.84099 1.32948 0.954678
1.94104 1.32949 0.991438
1.93482 1.3299 0.973571
1.82347 1.33034 0.903046
1.94033 1.3308 0.946544
1.9254 1.33151 0.923151
1.95273 1.33201 0.921709
1.96212 1.33299 0.909415
1.8608 1.33401 0.841625
1.97128 1.33608 0.875704
1.99147 1.33845 0.863428
1.89011 1.37671 1.60548
1.75969 1.3693 1.55016
1.82591 1.36631 1.5793
1.62004 1.36398 1.47038
1.78389 1.36288 1.54242
1.77085 1.3612 1.52788
1.77006 1.35962 1.5192
1.81719 1.35861 1.53268
1.76816 1.35712 1.49962
1.75279 1.35621 1.48157
1.67587 1.35529 1.43276
1.82321 1.35441 1.49599
1.66819 1.35359 1.40789
1.68567 1.35277 1.406
1.79317 1.35201 1.44898
1.71186 1.35164 1.39626
1.68577 1.35093 1.3723
1.72899 1.35026 1.38289
1.70553 1.34992 1.359
1.71154 1.3493 1.35084
1.74708 1.34898 1.35641
1.67843 1.34842 1.31075
1.71593 1.34792 1.31794
1.8333 1.34761 1.36441
1.74475 1.34718 1.30836
1.68638 1.34689 1.26694
1.70612 1.34664 1.26444
1.78103 1.34626 1.28998
1.72016 1.34603 1.24711
1.77601 1.34571 1.26291
1.73932 1.34551 1.23205
1.80897 1.34524 1.25458
1.7818 1.34502 1.22854
1.67145 1.34478 1.16102
1.84309 1.34459 1.2343
1.70877 1.3444 1.15458
1.74586 1.34415 1.16082
1.81654 1.34398 1.18353
1.78064 1.34382 1.15294
1.79917 1.34367 1.14955
1.7456 1.3435 1.11019
1.87706 1.34337 1.1632
1.79987 1.34336 1.11143
1.75412 1.34313 1.07619
1.77035 1.34302 1.0715
1.79003 1.34296 1.06838
1.7586 1.34287 1.03981
1.85671 1.34292 1.07546
1.81895 1.34277 1.04395
1.81471 1.34286 1.02834
1.81461 1.34279 1.01534
1.90625 1.34284 1.0478
1.87638 1.34279 1.01986
1.81465 1.34287 0.975514
1.82154 1.34301 0.965263
1.8196 1.34312 0.950676
1.86741 1.34326 0.960894
1.79083 1.34343 0.908777
1.82095 1.34359 0.910045
1.9802 1.34397 0.975054
1.89119 1.34438 0.915845
1.91574 1.3448 0.91333
1.7712 1.34524 0.826194
1.97569 1.34569 0.913516
1.9363 1.34616 0.878836
1.96076 1.34712 0.87421
1.96226 1.34861 0.856067
1.91103 1.35144 0.806418
1.77686 1.38708 1.53892
1.75358 1.38402 1.52343
1.72983 1.38102 1.50758
1.75779 1.37926 1.51371
1.70923 1.37758 1.48139
1.72642 1.37594 1.48182
1.78076 1.37436 1.50068
1.77378 1.37335 1.48709
1.79337 1.37237 1.48671
1.76522 1.37141 1.46238
1.74987 1.3705 1.44434
1.69223 1.36962 1.40509
1.68791 1.36877 1.3924
1.74646 1.36835 1.40974
1.69716 1.36717 1.37566
1.70156 1.36679 1.36586
1.73424 1.36605 1.37134
1.71355 1.36568 1.34896
1.74569 1.36503 1.35393
1.77298 1.36439 1.35643
1.65128 1.36406 1.28344
1.72454 1.36349 1.30875
1.73404 1.36317 1.30131
1.69059 1.36266 1.26809
1.71861 1.36237 1.26985
1.80914 1.36192 1.30341
1.68915 1.36165 1.23109
1.731 1.36132 1.23991
1.69762 1.36102 1.21103
1.76068 1.36071 1.23041
1.74124 1.36048 1.20829
1.6804 1.36016 1.16574
1.79766 1.35993 1.21196
1.70803 1.35961 1.15503
1.71805 1.35939 1.14761
1.74538 1.35918 1.14883
1.77002 1.35898 1.14863
1.76165 1.35868 1.13231
1.79717 1.35849 1.13755
1.80229 1.35838 1.1273
1.77336 1.35809 1.10068
1.77583 1.35804 1.08891
1.8 1.35789 1.08832
1.86752 1.35761 1.1099
1.80366 1.35762 1.06476
1.89557 1.35749 1.098
1.79936 1.35737 1.03717
1.85659 1.35729 1.05288
1.84283 1.35718 1.03322
1.84471 1.35714 1.02111
1.78768 1.35705 0.979758
1.79159 1.35705 0.968529
1.83451 1.35697 0.977114
1.86447 1.35701 0.97879
1.80733 1.35713 0.936594
1.90089 1.35706 0.970443
1.89922 1.35729 0.955607
1.88139 1.35744 0.932943
1.902 1.35756 0.92965
1.84182 1.35773 0.885742
1.83437 1.35809 0.867494
1.90845 1.35805 0.891509
1.93037 1.35843 0.887843
1.96495 1.35928 0.888761
1.9191 1.35971 0.851034
2.00398 1.36062 0.876829
1.95232 1.36153 0.834364
1.98019 1.36346 0.827773
1.97313 1.36821 0.792995
1.90932 1.40172 1.5817
1.7997 1.39864 1.52306
1.72799 1.39623 1.48134
1.73898 1.39447 1.47899
1.76548 1.39277 1.48423
1.71692 1.39112 1.45181
1.72513 1.39005 1.44594
1.77322 1.38851 1.46157
1.76771 1.38752 1.44866
1.66303 1.38655 1.3861
1.75404 1.38562 1.42128
1.75214 1.38473 1.40991
1.72465 1.38386 1.38569
1.70564 1.38342 1.36432
1.80457 1.3826 1.40319
1.6604 1.38184 1.32031
1.69918 1.38143 1.32777
1.73852 1.3807 1.33657
1.6918 1.38031 1.30124
1.6994 1.37964 1.29401
1.77927 1.37906 1.32263
1.74027 1.37866 1.29122
1.72524 1.37831 1.27163
1.7565 1.37782 1.27566
1.69644 1.37743 1.23371
1.82001 1.37702 1.28366
1.73325 1.37665 1.22832
1.7589 1.37635 1.22892
1.75839 1.37595 1.21681
1.76983 1.37568 1.21024
1.78825 1.37531 1.20752
1.76765 1.37502 1.18498
1.79558 1.3747 1.18687
1.79837 1.37442 1.17603
1.73596 1.37418 1.13244
1.71076 1.37383 1.10786
1.70082 1.37361 1.09049
1.78797 1.37338 1.12165
1.75221 1.37317 1.09134
1.81217 1.37289 1.1091
1.78695 1.3727 1.08399
1.76214 1.37251 1.05908
1.77411 1.3723 1.05262
1.84613 1.37213 1.07606
1.81256 1.37196 1.04669
1.70148 1.3718 0.978549
1.81214 1.37165 1.02127
1.84762 1.37153 1.02628
1.78976 1.37139 0.984683
1.85082 1.37131 1.00234
1.78585 1.37118 0.957141
1.85855 1.37114 0.980484
1.84056 1.37102 0.958738
1.82994 1.37112 0.939925
1.80228 1.37101 0.913321
1.96065 1.37102 0.979309
1.87119 1.37105 0.921315
1.86635 1.37118 0.905242
1.87124 1.37109 0.894854
1.86382 1.37139 0.876901
1.94408 1.37146 0.903583
1.87069 1.3718 0.852491
1.88546 1.37215 0.845406
1.88856 1.37242 0.832762
1.86956 1.37303 0.807829
1.98511 1.37383 0.849409
2.02312 1.37469 0.852007
1.99223 1.37539 0.820736
1.95124 1.37819 0.776471
1.77989 1.42004 1.49557
1.83907 1.41564 1.52534
1.79412 1.41318 1.49708
1.78054 1.41078 1.48439
1.83673 1.40903 1.50458
1.78779 1.40732 1.47208
1.76821 1.40622 1.45242
1.70388 1.40462 1.41197
1.71899 1.40408 1.4079
1.75413 1.40257 1.41695
1.7251 1.4016 1.39221
1.7251 1.40064 1.38196
1.74164 1.40015 1.37851
1.83451 1.39924 1.41459
1.70784 1.3984 1.34069
1.72297 1.39793 1.33648
1.68003 1.39711 1.30441
1.72205 1.39637 1.31456
1.72021 1.39563 1.3028
1.76327 1.39523 1.31242
1.67877 1.39482 1.25826
1.77934 1.39416 1.29749
1.81618 1.39377 1.30395
1.76241 1.39317 1.26582
1.78311 1.39281 1.26414
1.69617 1.39228 1.20924
1.68956 1.39194 1.19384
1.71868 1.39147 1.19676
1.67458 1.39116 1.16254
1.778 1.39075 1.20241
1.76881 1.39044 1.18568
1.8763 1.39004 1.22757
1.8068 1.38975 1.18063
1.75527 1.38942 1.14279
1.77689 1.38905 1.14168
1.80716 1.38876 1.14462
1.85684 1.38849 1.1572
1.85608 1.3881 1.14498
1.81279 1.38785 1.11104
1.78699 1.3876 1.08582
1.7703 1.38736 1.06514
1.79233 1.38705 1.06405
1.76861 1.38683 1.0398
1.83139 1.38662 1.05878
1.8252 1.38638 1.04337
1.82404 1.38618 1.03032
1.77065 1.38599 0.991142
1.79722 1.3858 0.991929
1.758 1.38563 0.959761
1.74267 1.38546 0.939553
1.77457 1.38529 0.942948
1.83548 1.38518 0.960666
1.76612 1.38503 0.913392
1.86319 1.38509 0.948546
1.80796 1.3848 0.908824
1.84608 1.38489 0.914435
1.98467 1.38475 0.971077
1.8768 1.38472 0.904114
1.87807 1.3847 0.891658
1.78452 1.38482 0.831294
1.92983 1.38478 0.89097
2.00751 1.38487 0.916347
1.87335 1.38506 0.835391
1.92287 1.38518 0.846591
1.93388 1.38586 0.836396
1.884 1.38616 0.797217
1.86279 1.38678 0.771124
1.91972 1.38762 0.78332
1.89896 1.3885 0.756466
1.94219 1.38973 0.760275
1.94906 1.39315 0.737687
1.87762 1.43326 1.52536
1.88352 1.43011 1.52457
1.7914 1.42764 1.47275
1.7582 1.42582 1.4484
1.779 1.42407 1.45089
1.77703 1.42289 1.4402
1.75116 1.42122 1.41917
1.78296 1.4196 1.42679
1.69168 1.41904 1.36961
1.71014 1.41752 1.37031
1.78787 1.41698 1.3976
1.74295 1.41602 1.36489
1.76308 1.41506 1.36473
1.70579 1.41417 1.32563
1.71844 1.41328 1.32153
1.72348 1.4128 1.31234
1.74041 1.41202 1.31006
1.78501 1.4115 1.3208
1.75149 1.41079 1.2931
1.80534 1.41027 1.30845
1.71511 1.40963 1.2522
1.70196 1.40913 1.23403
1.76246 1.40856 1.25293
1.71813 1.40816 1.21885
1.69547 1.40757 1.19623
1.77 1.4072 1.22152
1.76951 1.40673 1.20962
1.77126 1.40637 1.1985
1.76566 1.40589 1.18411
1.71431 1.40554 1.1464
1.72636 1.40506 1.14083
1.69071 1.40472 1.11099
1.7646 1.40431 1.13612
1.77161 1.40399 1.12754
1.7083 1.40353 1.08426
1.75539 1.40335 1.09522
1.70218 1.40291 1.05695
1.71602 1.40262 1.05168
1.79209 1.40218 1.07807
1.72873 1.40207 1.03362
1.67357 1.40171 0.99412
1.77844 1.40145 1.03428
1.73577 1.40103 1.00127
1.79508 1.40078 1.01864
1.7284 1.40068 0.972477
1.81859 1.40026 1.00589
1.7875 1.40004 0.977979
1.85526 1.39982 0.999483
1.79393 1.39961 0.956434
1.77872 1.39941 0.936405
1.80396 1.39921 0.936591
1.82104 1.39901 0.932689
1.79479 1.39886 0.906975
1.75732 1.39868 0.875763
1.74063 1.39873 0.854088
1.89062 1.39838 0.917209
1.90826 1.39846 0.91263
1.83261 1.39829 0.86228
1.82537 1.39836 0.845281
1.84859 1.39841 0.843578
1.91313 1.39816 0.86363
1.9198 1.39831 0.853303
1.85419 1.39849 0.8067
1.86053 1.39871 0.795942
1.86037 1.39883 0.782285
1.97154 1.39955 0.822084
1.88193 1.39986 0.762993
1.84403 1.4005 0.728511
1.83417 1.40136 0.707234
1.96198 1.40279 0.752668
1.95851 1.40406 0.733009
1.9039 1.45214 1.51548
1.78901 1.44765 1.45832
1.80466 1.44449 1.4624
1.78212 1.44262 1.44349
1.8291 1.44079 1.45926
1.69163 1.439 1.38268
1.80498 1.43727 1.43137
1.70215 1.43615 1.37012
1.78559 1.43501 1.40207
1.75154 1.43394 1.37507
1.81728 1.43286 1.39803
1.7037 1.43186 1.33109
1.69156 1.43085 1.31493
1.80838 1.43029 1.36181
1.78069 1.42932 1.33777
1.77542 1.42846 1.32461
1.70005 1.42757 1.27651
1.75353 1.42707 1.29161
1.73871 1.42624 1.27362
1.71307 1.42576 1.24912
1.77651 1.42507 1.26982
1.7934 1.42452 1.26681
1.79956 1.42407 1.25815
1.73194 1.42338 1.21336
1.72936 1.42295 1.20027
1.76684 1.42233 1.20784
1.82297 1.42192 1.22404
1.71063 1.42137 1.15649
1.71307 1.42099 1.14577
1.74976 1.42061 1.15219
1.78754 1.42009 1.15963
1.72662 1.4197 1.11726
1.72309 1.41924 1.10385
1.79602 1.41889 1.12833
1.76372 1.41838 1.10071
1.75571 1.41803 1.08471
1.80697 1.41769 1.09835
1.79277 1.41736 1.07921
1.7455 1.41688 1.04404
1.78501 1.41656 1.05171
1.75892 1.41626 1.02657
1.85916 1.41596 1.06457
1.76003 1.41556 1.0032
1.79567 1.41528 1.00884
1.82276 1.41481 1.0109
1.78191 1.41454 0.97828
1.76603 1.41443 0.957577
1.77565 1.41418 0.950126
1.83952 1.41371 0.970561
1.85487 1.41347 0.965969
1.8088 1.41322 0.930659
1.87342 1.41299 0.950689
1.79328 1.41276 0.898298
1.8175 1.41254 0.898082
1.85044 1.41231 0.902226
1.7761 1.41207 0.852803
1.79754 1.41206 0.850452
1.87541 1.41175 0.8774
1.80272 1.41176 0.827909
1.7979 1.41181 0.812205
1.845 1.41154 0.823633
1.85241 1.41165 0.813826
1.84611 1.41172 0.797314
1.88328 1.41188 0.80218
1.91687 1.41209 0.805124
1.91304 1.41232 0.789234
1.86846 1.41245 0.753349
1.94963 1.41274 0.779778
1.9728 1.41353 0.775322
1.85245 1.41419 0.699562
1.90846 1.41508 0.711155
1.92597 1.41707 0.699359
1.98838 1.41893 0.710499
1.8954 1.46646 1.48871
1.80528 1.46258 1.44202
1.73756 1.45941 1.40442
1.81293 1.45691 1.43637
1.7068 1.45508 1.37556
1.77787 1.45387 1.40145
1.74417 1.45264 1.37505
1.75884 1.45095 1.3743
1.77514 1.44984 1.37257
1.7684 1.44871 1.35941
1.77796 1.44761 1.35433
1.73364 1.44661 1.32203
1.8228 1.44602 1.35518
1.75814 1.445 1.31279
1.75774 1.44409 1.30217
1.66884 1.44345 1.24649
1.77659 1.44261 1.28978
1.73633 1.44173 1.25922
1.78748 1.44121 1.27322
1.84332 1.44069 1.28957
1.77489 1.43989 1.24471
1.74707 1.4394 1.21916
1.81838 1.43866 1.244
1.74266 1.43819 1.19445
1.73119 1.43752 1.17769
1.76879 1.43707 1.18474
1.82865 1.43664 1.2029
1.73498 1.43607 1.14473
1.73948 1.43564 1.1352
1.8199 1.43507 1.16411
1.80035 1.43465 1.14254
1.78021 1.43415 1.12098
1.8313 1.43367 1.13494
1.73386 1.4332 1.07461
1.74836 1.43282 1.06998
1.76048 1.43242 1.06421
1.78726 1.43189 1.06623
1.79882 1.43152 1.0601
1.77957 1.43116 1.03856
1.8038 1.4308 1.03873
1.83347 1.43031 1.0421
1.82018 1.42998 1.02345
1.79923 1.42965 1.00096
1.73929 1.42933 0.958964
1.78108 1.42892 0.968136
1.83142 1.42862 0.981216
1.75712 1.4281 0.932753
1.84872 1.4278 0.966458
1.74368 1.42751 0.901833
1.81218 1.42719 0.924102
1.8482 1.42692 0.929958
1.81589 1.42665 0.90164
1.81129 1.42638 0.887173
1.78791 1.42625 0.862821
1.87111 1.42589 0.892603
1.81527 1.42554 0.852826
1.7444 1.42552 0.804378
1.78259 1.42551 0.810421
1.82324 1.42519 0.818783
1.80643 1.42522 0.797176
1.83837 1.42493 0.80108
1.82875 1.42503 0.782849
1.84273 1.42516 0.776274
1.90368 1.42524 0.793365
1.8048 1.42543 0.730153
1.87236 1.42565 0.750031
1.91042 1.4259 0.755038
1.95087 1.42604 0.761651
1.96609 1.42634 0.755062
1.86065 1.42716 0.686219
2.01006 1.42785 0.745291
1.96163 1.42876 0.704593
1.97556 1.43112 0.689717
1.93496 1.43694 0.634651
1.87971 1.47942 1.46242
1.83713 1.47678 1.4357
1.83356 1.47419 1.42839
1.85746 1.47228 1.43278
1.73849 1.47041 1.36563
1.77885 1.4686 1.378
1.7951 1.46741 1.37645
1.78978 1.46618 1.36425
1.82339 1.46498 1.37147
1.77099 1.46388 1.33537
1.7161 1.46274 1.29818
1.77688 1.46171 1.31848
1.79332 1.46064 1.31677
1.73991 1.46003 1.27872
1.7683 1.45901 1.28286
1.79419 1.45813 1.28533
1.68485 1.45745 1.21956
1.75178 1.45663 1.24237
1.81594 1.45608 1.26298
1.73859 1.45522 1.21381
1.81359 1.45469 1.23979
1.73031 1.4539 1.18747
1.76151 1.4534 1.19149
1.80489 1.45276 1.20202
1.75911 1.45219 1.16777
1.75604 1.45172 1.15459
1.72096 1.4511 1.12586
1.79682 1.45064 1.15212
1.7169 1.45002 1.101
1.70729 1.44956 1.08452
1.78637 1.44901 1.11272
1.76436 1.4485 1.09023
1.84427 1.44806 1.11849
1.73751 1.44756 1.05359
1.79017 1.44712 1.06824
1.77407 1.44655 1.04894
1.78104 1.44615 1.04063
1.7379 1.44555 1.00792
1.72897 1.44516 0.991653
1.75301 1.44477 0.99185
1.88542 1.44439 1.04621
1.73329 1.44387 0.9588
1.73529 1.44351 0.947899
1.71042 1.44315 0.923551
1.72329 1.44281 0.918058
1.82585 1.44237 0.957735
1.80373 1.44204 0.934695
1.78561 1.44172 0.913645
1.79841 1.44115 0.908912
1.72376 1.44083 0.859593
1.81256 1.44039 0.89242
1.87677 1.44019 0.912125
1.73699 1.43979 0.830551
1.93953 1.43972 0.918978
1.89193 1.43935 0.883423
1.83775 1.43898 0.84454
1.83682 1.43892 0.831198
1.85537 1.43859 0.828576
1.85787 1.43859 0.816752
1.78208 1.4386 0.765744
1.85644 1.4383 0.79092
1.7981 1.43837 0.748419
1.79073 1.43849 0.731254
1.85488 1.43824 0.751155
1.92395 1.43841 0.771999
1.87948 1.43851 0.736332
1.82558 1.43873 0.6955
1.83482 1.43899 0.686108
1.89554 1.4396 0.701163
1.86947 1.43992 0.673881
1.8498 1.44077 0.647851
1.96771 1.44167 0.690388
1.88096 1.44294 0.629228
1.9874 1.44536 0.660404
1.85944 1.49816 1.42983
1.86889 1.49355 1.43498
1.85797 1.49089 1.42411
1.77953 1.48892 1.37746
1.87001 1.48699 1.41517
1.85588 1.48512 1.40045
1.82564 1.4838 1.37602
1.84758 1.48202 1.37908
1.83487 1.48085 1.363
1.724 1.47963 1.29802
1.86832 1.47844 1.36056
1.69278 1.47737 1.2628
1.73141 1.47625 1.27232
1.7972 1.4756 1.29397
1.76066 1.47453 1.26579
1.75034 1.47389 1.24936
1.81158 1.47299 1.26955
1.69675 1.47226 1.2012
1.76326 1.47143 1.22385
1.74739 1.47071 1.20495
1.72765 1.46995 1.18428
1.77202 1.46925 1.19548
1.79983 1.46857 1.19836
1.748 1.46803 1.16097
1.78623 1.46735 1.16908
1.78896 1.46682 1.15896
1.74489 1.4661 1.12606
1.76491 1.4656 1.12451
1.77367 1.46493 1.11788
1.83275 1.46441 1.13595
1.81508 1.46383 1.11584
1.80526 1.46329 1.09955
1.72934 1.46281 1.05001
1.8204 1.46227 1.08417
1.87218 1.46168 1.09886
1.75555 1.46118 1.02907
1.73588 1.46074 1.00756
1.8016 1.4603 1.02872
1.77087 1.45966 1.00237
1.84813 1.45924 1.02929
1.78099 1.4586 0.984763
1.79459 1.45818 0.979835
1.78533 1.45778 0.963471
1.78767 1.45738 0.95289
1.772 1.45684 0.933774
1.74359 1.45646 0.907762
1.76128 1.45609 0.904782
1.88341 1.45546 0.954899
1.81904 1.45529 0.910209
1.78898 1.45481 0.883746
1.78485 1.45434 0.870213
1.84014 1.45409 0.885644
1.78674 1.45366 0.847363
1.74197 1.45324 0.813359
1.77975 1.45316 0.819468
1.74783 1.45277 0.791815
1.77864 1.45267 0.794519
1.81188 1.45231 0.799337
1.79604 1.45196 0.77958
1.85076 1.45195 0.793928
1.83111 1.45163 0.77216
1.92061 1.45165 0.803777
1.82841 1.45169 0.744511
1.8777 1.45146 0.756922
1.88897 1.45152 0.749282
1.84041 1.45167 0.711398
1.80936 1.45176 0.682489
1.7858 1.45197 0.656901
1.88914 1.45222 0.694635
1.9544 1.45249 0.713206
1.88548 1.45312 0.663386
1.8674 1.45346 0.64006
1.88838 1.45434 0.634272
1.962 1.45559 0.653409
1.90536 1.45657 0.608425
1.96776 1.4596 0.615375
1.88745 1.51287 1.42007
1.76604 1.50823 1.35981
1.78007 1.50555 1.36146
1.74839 1.50356 1.33821
1.8746 1.50163 1.39381
1.7836 1.50024 1.33915
1.84149 1.4984 1.36036
1.80276 1.49707 1.3317
1.81095 1.49588 1.32612
1.78725 1.49462 1.30484
1.83996 1.49338 1.32169
1.78962 1.4923 1.28658
1.77962 1.49113 1.2719
1.73118 1.49045 1.23654
1.75604 1.48934 1.23917
1.65113 1.48867 1.17554
1.81843 1.48762 1.24924
1.77455 1.48697 1.2161
1.74027 1.48598 1.18885
1.66244 1.48535 1.13868
1.79725 1.48458 1.19532
1.78994 1.48383 1.18085
1.81383 1.48323 1.18148
1.77998 1.4824 1.15404
1.80874 1.48183 1.15704
1.73225 1.48106 1.10808
1.77557 1.48052 1.1183
1.72155 1.47998 1.07985
1.76364 1.47925 1.0901
1.77146 1.4787 1.08261
1.73334 1.47804 1.05256
1.72867 1.47752 1.03875
1.75428 1.47693 1.04035
1.81446 1.47631 1.05934
1.79084 1.47581 1.03603
1.76435 1.47528 1.0114
1.66427 1.47461 0.950437
1.81769 1.47413 1.01565
1.80718 1.47366 0.998815
1.7487 1.4732 0.958012
1.80686 1.47253 0.976215
1.77858 1.47209 0.950449
1.71522 1.4714 0.907982
1.73541 1.47097 0.90644
1.80995 1.47054 0.932063
1.76821 1.47006 0.899752
1.73393 1.46952 0.871359
1.72623 1.46914 0.855729
1.73616 1.46864 0.849321
1.77391 1.46816 0.856792
1.84393 1.46801 0.879234
1.82317 1.46755 0.857373
1.81631 1.4671 0.842431
1.76303 1.46667 0.804245
1.84177 1.46649 0.831171
1.88992 1.46609 0.843586
1.86738 1.46571 0.820616
1.76333 1.46566 0.755709
1.72648 1.4656 0.72444
1.81605 1.46526 0.757381
1.83528 1.46493 0.755112
1.8055 1.46494 0.727147
1.79103 1.465 0.706689
1.79971 1.46471 0.699006
1.85978 1.46476 0.715817
1.82247 1.4649 0.683644
1.87988 1.46507 0.698686
1.8682 1.46518 0.679448
1.82615 1.4654 0.644561
1.84635 1.46567 0.640672
1.85714 1.46596 0.631961
1.91725 1.46629 0.647797
1.92156 1.46697 0.634431
1.94195 1.46787 0.628274
1.972 1.46916 0.62555
1.95151 1.47072 0.596531
1.8876 1.52681 1.39863
1.83154 1.52282 1.36907
1.79867 1.52076 1.34537
1.83953 1.51864 1.35877
1.76738 1.51607 1.31709
1.75143 1.51476 1.2997
1.76542 1.51337 1.29756
1.74698 1.51201 1.27916
1.7819 1.51026 1.28864
1.81292 1.50949 1.2932
1.80277 1.50822 1.27873
1.84502 1.50711 1.28998
1.74217 1.50591 1.22897
1.64446 1.50475 1.17044
1.87597 1.50404 1.27514
1.7598 1.50334 1.206
1.73567 1.50225 1.18408
1.74307 1.50157 1.17668
1.73568 1.50054 1.16297
1.79648 1.49989 1.18222
1.67681 1.49893 1.1122
1.77842 1.49829 1.15181
1.8162 1.4974 1.16032
1.80076 1.4968 1.14134
1.79491 1.4962 1.12714
1.67812 1.49542 1.05807
1.68785 1.49483 1.05166
1.75046 1.49407 1.07223
1.77545 1.49346 1.07352
1.70123 1.49283 1.02532
1.76571 1.4922 1.04645
1.82886 1.49155 1.067
1.7596 1.49099 1.02104
1.79219 1.49036 1.02626
1.74216 1.48978 0.99001
1.77628 1.48908 0.996257
1.74131 1.48857 0.967353
1.79433 1.48805 0.982451
1.73049 1.48731 0.939891
1.71599 1.48681 0.921194
1.79367 1.48632 0.948573
1.78475 1.48557 0.933517
1.74825 1.48536 0.902898
1.70382 1.48476 0.869605
1.79868 1.48418 0.905925
1.82236 1.48361 0.906616
1.78599 1.48317 0.876843
1.81929 1.48264 0.88223
1.81253 1.48212 0.867552
1.66767 1.48162 0.783789
1.77449 1.48146 0.824693
1.7666 1.48098 0.809339
1.84483 1.48051 0.83701
1.85934 1.48029 0.832008
1.7916 1.47986 0.786579
1.75431 1.47944 0.756337
1.92983 1.47931 0.831514
1.79296 1.47898 0.751205
1.74002 1.4789 0.711991
1.73864 1.47855 0.699519
1.85046 1.47853 0.742448
1.80704 1.4782 0.708884
1.82705 1.47823 0.705755
1.77585 1.47793 0.668192
1.90435 1.47798 0.719275
1.84242 1.47809 0.674878
1.78684 1.47792 0.634695
1.83333 1.47801 0.64459
1.80624 1.47822 0.617266
1.87361 1.47834 0.637505
1.84937 1.47861 0.611409
1.8185 1.4794 0.580107
1.82569 1.47974 0.569438
1.90596 1.48044 0.593999
1.93126 1.48137 0.59023
1.89442 1.48269 0.55399
1.96232 1.48543 0.564889
1.86362 1.54131 1.3634
1.89529 1.53786 1.37609
1.79154 1.53513 1.31894
1.87038 1.53247 1.35292
1.84495 1.53112 1.3309
1.74027 1.52907 1.27136
1.77747 1.52779 1.2805
1.86301 1.52641 1.31414
1.81137 1.52505 1.27913
1.81239 1.52387 1.26994
1.775 1.52258 1.24189
1.72472 1.52133 1.2073
1.79148 1.52057 1.22976
1.76293 1.51937 1.20591
1.86222 1.51863 1.2446
1.73717 1.51789 1.17112
1.7834 1.51677 1.18448
1.81246 1.51605 1.18802
1.73114 1.515 1.13744
1.80219 1.51431 1.16192
1.78284 1.51332 1.14216
1.83296 1.51265 1.15612
1.73208 1.51173 1.0954
1.75337 1.51109 1.09488
1.7808 1.51046 1.09742
1.71254 1.50963 1.05277
1.75427 1.509 1.06249
1.74839 1.50823 1.04887
1.76728 1.50757 1.04727
1.78464 1.50697 1.04475
1.7291 1.50614 1.00651
1.74709 1.50555 1.00429
1.78223 1.50487 1.01093
1.7779 1.50414 0.998021
1.7173 1.50357 0.956477
1.7845 1.50295 0.978976
1.84016 1.50241 0.995486
1.77794 1.50187 0.953055
1.76078 1.50108 0.933985
1.83254 1.50054 0.958562
1.7984 1.49991 0.930506
1.74155 1.49928 0.891101
1.81208 1.49866 0.915357
1.75756 1.49805 0.877045
1.73843 1.49746 0.856398
1.72319 1.49689 0.837662
1.70177 1.49666 0.814669
1.7492 1.49611 0.827192
1.78713 1.49557 0.834928
1.72327 1.49521 0.791183
1.72083 1.49472 0.778613
1.74941 1.49423 0.781523
1.88862 1.49376 0.839706
1.85191 1.49364 0.808747
1.84441 1.4932 0.793502
1.7103 1.49276 0.714919
1.82581 1.49261 0.760193
1.83649 1.49221 0.753889
1.7426 1.49183 0.695263
1.8656 1.4918 0.743881
1.76353 1.49176 0.679963
1.84204 1.49143 0.70739
1.79024 1.49144 0.668448
1.83697 1.49112 0.679918
1.87573 1.4912 0.686026
1.82859 1.49125 0.649266
1.84594 1.49098 0.645903
1.88294 1.49114 0.650841
1.84676 1.49134 0.619056
1.83329 1.49145 0.598919
1.88 1.4917 0.608379
1.93083 1.49198 0.619768
1.84906 1.4923 0.564744
1.90771 1.49298 0.578607
1.85781 1.49388 0.537379
1.9439 1.49484 0.563936
1.83507 1.49618 0.491626
1.9766 1.50048 0.533711
1.87732 1.5632 1.3387
1.88754 1.55572 1.35239
1.86707 1.55224 1.33903
1.7727 1.5495 1.2866
1.84529 1.54746 1.31559
1.78802 1.54594 1.27813
1.80497 1.544 1.27908
1.7924 1.54255 1.26383
1.74103 1.54112 1.22912
1.80987 1.53988 1.25399
1.81256 1.53853 1.24616
1.78201 1.5372 1.22163
1.74783 1.53591 1.1952
1.77813 1.53512 1.19953
1.84533 1.53432 1.22232
1.82871 1.5331 1.2045
1.83627 1.53233 1.19744
1.73123 1.53118 1.13526
1.7395 1.53043 1.12851
1.81064 1.52934 1.15426
1.73024 1.52861 1.10312
1.84571 1.52759 1.15085
1.7718 1.52689 1.1029
1.87934 1.5262 1.14566
1.73137 1.52527 1.06143
1.71405 1.52461 1.0417
1.78493 1.52373 1.06676
1.74243 1.52305 1.03454
1.77892 1.52227 1.04213
1.77983 1.52156 1.03169
1.74303 1.52079 1.00263
1.86668 1.52006 1.05369
1.79133 1.51944 1.00491
1.74862 1.51873 0.972711
1.76463 1.51795 0.970123
1.8206 1.51735 0.986965
1.70688 1.51671 0.919087
1.80447 1.5159 0.95746
1.73275 1.51519 0.910835
1.7096 1.51449 0.88846
1.76326 1.51381 0.904455
1.73156 1.51349 0.876618
1.75429 1.51284 0.877076
1.8122 1.5122 0.895093
1.78387 1.51157 0.869953
1.82864 1.51096 0.881324
1.79109 1.51046 0.851183
1.65568 1.51012 0.771579
1.7194 1.50955 0.792318
1.74554 1.50914 0.79377
1.77507 1.50861 0.797294
1.79699 1.50809 0.796975
1.82191 1.50759 0.798122
1.82492 1.5071 0.788277
1.8162 1.50697 0.771375
1.85059 1.50651 0.777145
1.83712 1.5063 0.758116
1.78579 1.50587 0.720912
1.81349 1.50546 0.723185
1.79663 1.50536 0.702131
1.79388 1.50502 0.68894
1.79579 1.50496 0.677109
1.8495 1.50461 0.692203
1.84148 1.50461 0.675205
1.90074 1.50428 0.693001
1.88987 1.50433 0.674391
1.87174 1.50404 0.653384
1.86219 1.50409 0.635437
1.80357 1.50423 0.592654
1.79157 1.50441 0.573037
1.86851 1.50463 0.597757
1.85832 1.50475 0.579241
1.85208 1.50502 0.562172
1.89804 1.50532 0.571084
1.8451 1.50566 0.530425
1.9241 1.50636 0.554412
1.82256 1.50729 0.487291
1.94875 1.50884 0.531789
1.90167 1.50964 0.492329
1.96264 1.51461 0.491782
1.89157 1.57428 1.33265
1.8677 1.57003 1.31974
1.91006 1.56653 1.33783
1.85133 1.56442 1.30132
1.83853 1.5622 1.28813
1.79347 1.56064 1.25689
1.78453 1.55867 1.24496
1.80522 1.55718 1.24645
1.85208 1.55589 1.26046
1.81378 1.55446 1.23231
1.85276 1.55306 1.24274
1.83932 1.5517 1.22686
1.77982 1.55085 1.18643
1.84987 1.54954 1.21219
1.76742 1.54871 1.16026
1.88466 1.54746 1.20947
1.80768 1.54665 1.16024
1.79914 1.54547 1.14641
1.79864 1.54468 1.13537
1.82432 1.54356 1.13848
1.829 1.5428 1.12999
1.75561 1.54175 1.08339
1.78546 1.54102 1.08741
1.79154 1.5403 1.07955
1.7621 1.53935 1.05464
1.7806 1.53864 1.05298
1.83479 1.53772 1.06982
1.78945 1.53699 1.03633
1.75809 1.53623 1.00991
1.77491 1.53545 1.0077
1.72916 1.53465 0.974253
1.85476 1.53386 1.02645
1.76726 1.53306 0.972174
1.74293 1.5324 0.949035
1.76097 1.53166 0.947348
1.80001 1.53096 0.956018
1.76314 1.53022 0.926913
1.7315 1.52949 0.900383
1.75336 1.52878 0.900574
1.79611 1.52808 0.91118
1.76618 1.52773 0.88428
1.8153 1.52705 0.898044
1.7809 1.52637 0.870012
1.79608 1.52576 0.866592
1.78542 1.52513 0.850312
1.73253 1.52451 0.812885
1.80756 1.52391 0.839378
1.79681 1.52332 0.822942
1.7667 1.52274 0.796794
1.789 1.52252 0.795667
1.8042 1.52198 0.792098
1.79896 1.52144 0.778272
1.74924 1.5211 0.74156
1.75551 1.52061 0.733368
1.78872 1.52013 0.738613
1.82211 1.51966 0.743908
1.82953 1.51955 0.735015
1.81139 1.51911 0.714469
1.76404 1.51868 0.679287
1.81074 1.51855 0.690116
1.78149 1.51816 0.663862
1.82001 1.51812 0.670275
1.81003 1.51776 0.653588
1.76581 1.51774 0.618549
1.84953 1.5174 0.648636
1.77539 1.51743 0.598485
1.76362 1.51713 0.580722
1.7572 1.51722 0.564202
1.81681 1.51729 0.580812
1.75932 1.51711 0.539744
1.82191 1.5172 0.557741
1.87783 1.51742 0.571968
1.89141 1.51755 0.565355
1.82044 1.51782 0.515936
1.89415 1.51863 0.536926
1.9514 1.51898 0.551319
1.83687 1.51971 0.47849
1.87106 1.52067 0.479158
1.92398 1.52225 0.486931
1.94876 1.52366 0.481245
1.83159 1.58852 1.28015
1.8642 1.58424 1.29553
1.85483 1.58139 1.28582
1.82934 1.57908 1.26649
1.89065 1.57699 1.28996
1.85481 1.57478 1.26524
1.84524 1.57323 1.25176
1.87317 1.57188 1.25643
1.87067 1.57038 1.24636
1.88602 1.56891 1.24515
1.79564 1.56748 1.19099
1.88838 1.56658 1.22682
1.8161 1.56519 1.1816
1.83995 1.56405 1.18373
1.7168 1.56298 1.11218
1.80169 1.5617 1.14531
1.79278 1.56086 1.13022
1.72868 1.55964 1.0887
1.74205 1.55882 1.0847
1.72426 1.55767 1.06617
1.71756 1.55688 1.05209
1.71469 1.55609 1.03991
1.80936 1.55503 1.07737
1.69098 1.55428 1.00738
1.81541 1.55328 1.05956
1.79662 1.55252 1.03941
1.7601 1.55176 1.01039
1.80799 1.55081 1.0242
1.7727 1.55001 0.995983
1.78225 1.54921 0.990159
1.81747 1.54839 0.997284
1.7588 1.54754 0.957542
1.80987 1.54677 0.972454
1.72878 1.54608 0.921014
1.82982 1.5453 0.960953
1.87347 1.54454 0.972169
1.76767 1.54379 0.908623
1.79277 1.54305 0.910491
1.80332 1.54236 0.904965
1.78177 1.54163 0.883488
1.80371 1.54093 0.883725
1.74234 1.54023 0.842274
1.68778 1.53955 0.804191
1.75748 1.53889 0.8282
1.84522 1.53858 0.860055
1.75071 1.53795 0.801884
1.86234 1.53732 0.846753
1.76 1.53672 0.784594
1.69886 1.53623 0.742625
1.80211 1.53589 0.782414
1.74732 1.53532 0.743923
1.77814 1.53492 0.747679
1.72899 1.5344 0.711884
1.86625 1.53388 0.769261
1.85276 1.53339 0.751225
1.72638 1.5329 0.676703
1.89636 1.53278 0.74915
1.77684 1.53232 0.677986
1.82253 1.53213 0.688497
1.80031 1.53171 0.665864
1.79267 1.53131 0.650486
1.81574 1.53126 0.649233
1.77025 1.53087 0.614851
1.87933 1.53084 0.656565
1.76656 1.53049 0.588433
1.81352 1.5305 0.598928
1.79231 1.53018 0.576502
1.77293 1.53026 0.553595
1.84147 1.53031 0.574725
1.74054 1.53003 0.512303
1.73564 1.5302 0.496335
1.83115 1.5304 0.530438
1.80085 1.53064 0.501498
1.83112 1.53077 0.503214
1.88648 1.53106 0.51691
1.93673 1.53139 0.527928
1.92895 1.53228 0.507917
1.88974 1.53247 0.474657
1.91265 1.53401 0.467659
1.93069 1.53539 0.45875
1.98609 1.53886 0.460964
1.90829 1.60265 1.29626
1.88054 1.59903 1.27951
1.82673 1.59596 1.24818
1.83079 1.59316 1.24508
1.85847 1.5915 1.25045
1.85127 1.58944 1.23958
1.83617 1.58785 1.22342
1.75986 1.58628 1.17662
1.81501 1.58474 1.19548
1.73471 1.58324 1.14655
1.79176 1.58198 1.16557
1.81396 1.58083 1.16687
1.81069 1.57963 1.1556
1.74589 1.57826 1.11411
1.81031 1.57713 1.1365
1.75175 1.57605 1.0973
1.77732 1.57494 1.10025
1.80347 1.57407 1.10279
1.70515 1.57284 1.04421
1.78093 1.57199 1.07152
1.793 1.57083 1.06796
1.84196 1.57002 1.08179
1.69773 1.56921 0.999028
1.80148 1.56814 1.04106
1.85147 1.5671 1.05617
1.81204 1.56632 1.02574
1.83909 1.5655 1.02873
1.8036 1.56452 1.00094
1.73996 1.56366 0.958699
1.82522 1.5629 0.990641
1.79641 1.56203 0.965896
1.71041 1.56117 0.912528
1.76066 1.56033 0.927253
1.74246 1.5595 0.907725
1.7036 1.55868 0.877831
1.73028 1.55788 0.880678
1.77331 1.55738 0.89077
1.83768 1.55662 0.912347
1.74175 1.55587 0.853744
1.82034 1.55514 0.882366
1.82711 1.55443 0.875046
1.84404 1.55373 0.872773
1.70211 1.55338 0.789934
1.71917 1.55269 0.787696
1.71993 1.55202 0.777268
1.80406 1.55136 0.808497
1.75204 1.55079 0.771368
1.79238 1.55018 0.78058
1.75223 1.54958 0.749506
1.70903 1.54899 0.716876
1.70061 1.54842 0.701593
1.76333 1.54786 0.721851
1.66624 1.54766 0.660985
1.72759 1.54713 0.680478
1.82184 1.54662 0.716379
1.74042 1.54632 0.663701
1.77239 1.54585 0.66834
1.81715 1.54538 0.679342
1.76484 1.54528 0.640584
1.80124 1.54485 0.647327
1.74876 1.54442 0.609593
1.86192 1.54431 0.653612
1.77203 1.54393 0.59706
1.7538 1.5439 0.575095
1.84544 1.54354 0.60923
1.84843 1.54354 0.597797
1.74928 1.5432 0.536467
1.79149 1.54326 0.54445
1.82049 1.54295 0.547085
1.79798 1.54301 0.522712
1.7884 1.54315 0.504493
1.7562 1.54334 0.47482
1.78316 1.54321 0.475825
1.85647 1.54333 0.499112
1.80686 1.54347 0.460904
1.8987 1.54428 0.491047
1.8685 1.54462 0.461802
1.82088 1.54534 0.422486
1.83043 1.54574 0.412893
1.86876 1.54731 0.413502
1.84926 1.54872 0.385752
2.04331 1.55445 0.449257
1.90378 1.61737 1.27003
1.88182 1.61372 1.25622
1.90955 1.60995 1.2677
1.90532 1.60822 1.25728
1.88338 1.60608 1.23922
1.87155 1.6038 1.2267
1.86871 1.60216 1.21679
1.84886 1.60078 1.19767
1.88463 1.5992 1.20693
1.86022 1.59767 1.18603
1.75154 1.59616 1.12291
1.85169 1.59519 1.16264
1.73218 1.59374 1.09399
1.75936 1.59234 1.09859
1.74181 1.59141 1.07941
1.75915 1.59006 1.07895
1.77655 1.58915 1.0772
1.78858 1.588 1.07355
1.82094 1.5871 1.07929
1.70351 1.58586 1.0112
1.75953 1.58499 1.02871
1.69456 1.58382 0.986668
1.77875 1.58298 1.01821
1.8126 1.58187 1.02544
1.7897 1.58104 1.00344
1.79048 1.58017 0.993409
1.70056 1.57911 0.938627
1.72178 1.57825 0.938835
1.75977 1.57734 0.947579
1.75405 1.57645 0.934436
1.75287 1.57557 0.923537
1.76419 1.5747 0.918854
1.78959 1.57385 0.921187
1.77164 1.57301 0.901812
1.7329 1.5723 0.871649
1.73402 1.57165 0.861244
1.76989 1.57087 0.868633
1.72801 1.57011 0.837117
1.78451 1.56935 0.854751
1.71204 1.56862 0.807872
1.69696 1.5679 0.789651
1.6907 1.56719 0.775812
1.78859 1.56648 0.814053
1.81884 1.56578 0.818441
1.73103 1.56511 0.763762
1.81104 1.56444 0.792953
1.74112 1.56415 0.745983
1.74676 1.56351 0.737918
1.76425 1.56289 0.735738
1.7281 1.56228 0.706703
1.72561 1.56205 0.693286
1.79065 1.56147 0.714768
1.80258 1.5609 0.709661
1.73937 1.56053 0.666362
1.73219 1.56 0.651579
1.77897 1.5595 0.663735
1.83051 1.559 0.67823
1.78503 1.55852 0.644182
1.82762 1.55841 0.652932
1.89036 1.55795 0.672918
1.78803 1.55779 0.609377
1.80015 1.55737 0.603928
1.74728 1.55697 0.565954
1.81931 1.55693 0.589176
1.80552 1.55655 0.570666
1.75701 1.55654 0.533541
1.79977 1.55619 0.543234
1.82572 1.55622 0.543175
1.83238 1.5559 0.534706
1.74629 1.55601 0.478398
1.85174 1.55607 0.517984
1.76366 1.55589 0.461692
1.81069 1.55598 0.471963
1.80201 1.55621 0.453924
1.76043 1.55634 0.419785
1.86236 1.55662 0.456856
1.83811 1.55693 0.430712
1.74039 1.55782 0.365807
1.9305 1.55801 0.447267
1.83217 1.55898 0.381738
1.8132 1.56058 0.353596
1.91158 1.56202 0.384722
1.95122 1.63269 1.26804
1.84637 1.62877 1.21351
1.84751 1.62516 1.21118
1.8658 1.62273 1.21405
1.90141 1.62057 1.22481
1.83494 1.61825 1.18506
1.79549 1.61658 1.15693
1.78213 1.61494 1.1418
1.81009 1.61333 1.14726
1.76464 1.61176 1.11593
1.7908 1.61022 1.12033
1.7495 1.60921 1.08945
1.73503 1.60773 1.07341
1.85873 1.60675 1.125
1.78527 1.60533 1.07933
1.84237 1.60436 1.09758
1.76995 1.60301 1.05229
1.76049 1.60207 1.03721
1.80359 1.60087 1.04926
1.78548 1.5996 1.0309
1.71445 1.5987 0.984999
1.81685 1.5978 1.0258
1.77685 1.59662 0.996294
1.83776 1.59574 1.01635
1.79477 1.59461 0.985218
1.82212 1.59365 0.98875
1.71656 1.59271 0.925803
1.75457 1.59178 0.934613
1.76491 1.59086 0.929559
1.7502 1.58996 0.911956
1.80539 1.58907 0.929271
1.76182 1.5882 0.897174
1.85821 1.58748 0.934578
1.83099 1.58662 0.910638
1.81054 1.58578 0.890056
1.64581 1.58494 0.797301
1.73315 1.58413 0.830546
1.78036 1.58332 0.843694
1.79537 1.58254 0.840711
1.66525 1.58208 0.764112
1.75242 1.58134 0.797089
1.78935 1.58061 0.804912
1.6992 1.57989 0.749168
1.73456 1.57918 0.756184
1.62551 1.57884 0.689791
1.7932 1.57815 0.762898
1.80822 1.57748 0.759633
1.71643 1.57682 0.702925
1.8098 1.57627 0.738465
1.70171 1.57566 0.673484
1.84017 1.57506 0.73174
1.69563 1.57448 0.648462
1.68931 1.57391 0.634254
1.74068 1.57371 0.647664
1.75274 1.57317 0.64257
1.75992 1.57264 0.634994
1.78538 1.57213 0.636523
1.79009 1.57199 0.626439
1.81711 1.5715 0.628671
1.81013 1.57128 0.612994
1.79978 1.57084 0.596418
1.76368 1.5704 0.566931
1.75558 1.56998 0.551408
1.83797 1.56993 0.579871
1.77845 1.56954 0.538565
1.82972 1.5695 0.551427
1.78196 1.56915 0.515883
1.80343 1.56916 0.513687
1.84858 1.56882 0.524524
1.90861 1.5689 0.541369
1.81882 1.56896 0.483389
1.86578 1.56867 0.494987
1.95747 1.56884 0.527362
1.86631 1.56905 0.46817
1.86284 1.56917 0.45313
1.78786 1.56943 0.401824
1.86459 1.56973 0.426243
1.89454 1.57006 0.427151
1.86758 1.57079 0.398228
1.90867 1.57118 0.404481
1.78603 1.57218 0.326731
1.92112 1.57418 0.374244
1.9113 1.5759 0.350301
2.03974 1.6479 1.28687
1.86114 1.64256 1.19954
1.80078 1.63961 1.16453
1.89122 1.63714 1.20356
1.76811 1.63472 1.13572
1.87953 1.63297 1.18322
1.84894 1.63124 1.15967
1.86961 1.62955 1.1617
1.89277 1.62788 1.16491
1.80269 1.62625 1.11143
1.79394 1.62493 1.09774
1.80527 1.62337 1.09478
1.77303 1.62207 1.06934
1.86153 1.62057 1.10485
1.76881 1.61956 1.04833
1.83768 1.61812 1.07388
1.86222 1.61714 1.07595
1.80389 1.61616 1.03658
1.73271 1.61481 0.991892
1.76326 1.61356 0.99782
1.78217 1.61261 0.997027
1.68839 1.61136 0.940822
1.82873 1.61039 1.00084
1.7449 1.60938 0.948898
1.76075 1.60839 0.946779
1.8165 1.60741 0.964586
1.8045 1.60621 0.94919
1.82458 1.60527 0.949065
1.69893 1.60435 0.876047
1.76621 1.60362 0.898887
1.72058 1.60271 0.865867
1.75289 1.60182 0.87178
1.75566 1.60093 0.8629
1.78141 1.60006 0.865472
1.72647 1.59921 0.827674
1.76342 1.59837 0.835788
1.68711 1.59755 0.787236
1.77715 1.59703 0.820899
1.685 1.59625 0.764313
1.73078 1.59548 0.776659
1.7824 1.59473 0.79189
1.82891 1.594 0.804531
1.76667 1.59327 0.762773
1.74949 1.59255 0.74354
1.75453 1.59184 0.735386
1.80867 1.59115 0.751746
1.69049 1.59084 0.680734
1.77246 1.59017 0.710931
1.73366 1.58953 0.680703
1.81616 1.58889 0.711093
1.73819 1.58827 0.661208
1.75492 1.58767 0.658637
1.72178 1.58744 0.629901
1.80878 1.58687 0.662385
1.83749 1.58631 0.665685
1.72643 1.58576 0.599066
1.80218 1.58543 0.625123
1.74096 1.58493 0.5833
1.73807 1.58444 0.570603
1.69376 1.58432 0.535942
1.76623 1.58386 0.560847
1.80868 1.5834 0.570703
1.84438 1.58327 0.576134
1.81274 1.58286 0.548824
1.76982 1.58246 0.515841
1.69588 1.58243 0.466076
1.84316 1.58206 0.528115
1.84422 1.58206 0.515772
1.7646 1.58171 0.464289
1.7783 1.58177 0.458067
1.80383 1.58145 0.45905
1.85235 1.58151 0.470242
1.82233 1.58166 0.441851
1.78478 1.58185 0.409546
1.81432 1.5816 0.412325
1.80386 1.58172 0.393809
1.86566 1.58198 0.410909
1.89173 1.58229 0.410011
1.88766 1.58316 0.392022
1.82917 1.58335 0.349234
1.87731 1.58432 0.357018
1.83254 1.58534 0.318125
1.86463 1.58678 0.316195
1.93006 1.59165 0.318711
1.89837 1.66301 1.19104
1.91815 1.65693 1.20498
1.89058 1.65436 1.18522
1.84202 1.65183 1.1549
1.86725 1.64962 1.1606
1.81384 1.64721 1.12761
1.84818 1.64545 1.13662
1.80657 1.64372 1.1076
1.75358 1.64202 1.07281
1.80953 1.64036 1.09243
1.85414 1.63874 1.10629
1.82629 1.63765 1.08236
1.82302 1.63609 1.07216
1.8651 1.63472 1.08405
1.8071 1.63352 1.04547
1.80446 1.63218 1.03498
1.74307 1.63073 0.995444
1.81475 1.62972 1.02118
1.74567 1.62871 0.976533
1.63595 1.62735 0.91266
1.73388 1.62627 0.951779
1.77695 1.6252 0.963453
1.80127 1.62414 0.965721
1.73752 1.6231 0.923939
1.77664 1.62188 0.934143
1.77722 1.62089 0.924395
1.82598 1.61991 0.938708
1.80167 1.61895 0.916457
1.70809 1.618 0.85955
1.78025 1.61707 0.885479
1.68754 1.61615 0.828946
1.73131 1.61524 0.84062
1.72158 1.61435 0.825515
1.72781 1.61347 0.818361
1.77489 1.61274 0.831193
1.65764 1.61188 0.762283
1.6791 1.61103 0.762691
1.67471 1.6102 0.750139
1.80729 1.60938 0.806042
1.6734 1.60858 0.728674
1.79805 1.60812 0.779511
1.68939 1.60736 0.714637
1.73514 1.60661 0.726935
1.69412 1.60588 0.695827
1.71827 1.60515 0.697304
1.72048 1.60444 0.687772
1.77892 1.60411 0.705133
1.82927 1.60342 0.719597
1.76926 1.60275 0.678839
1.7173 1.6021 0.642075
1.78001 1.60146 0.662601
1.74324 1.60096 0.632954
1.71562 1.60036 0.608192
1.6736 1.6 0.575491
1.67919 1.59958 0.56676
1.74014 1.59903 0.586163
1.81364 1.59849 0.611811
1.73181 1.59797 0.559753
