ply
format ascii 1.0
comment Created by Open3D
element vertex 1665
property double x
property double y
property double z
end_header
-0.224322 -0.170934 1.11346
-0.13659 -0.170816 1.1487
-0.0824442 -0.170757 1.16586
-0.15573 -0.170648 1.12044
-0.0538689 -0.17053 1.16278
-0.0425629 -0.170423 1.15963
-0.0623789 -0.170306 1.14114
-0.0861855 -0.17019 1.12067
-0.17313 -0.170086 1.06837
-0.0625392 -0.170028 1.11381
-0.222133 -0.169912 1.02547
0.000531737 -0.16981 1.12795
-0.0830665 -0.169695 1.07762
-0.318648 -0.169581 0.951312
-0.121428 -0.169482 1.04105
-0.00548407 -0.169368 1.09052
-0.100828 -0.169311 1.03303
-0.0661848 -0.169197 1.04187
-0.0764368 -0.169101 1.02785
-0.0588156 -0.168988 1.02818
-0.179066 -0.168875 0.959592
-0.074808 -0.168839 1.00148
-0.066809 -0.168726 0.99703
-0.259391 -0.168614 0.892293
-0.157897 -0.168524 0.934093
-0.199043 -0.168413 0.905086
-0.151317 -0.168302 0.920524
-0.185148 -0.168191 0.895192
-0.159502 -0.168159 0.897721
0.0503596 -0.168049 0.994246
-0.149451 -0.167939 0.885943
-0.180008 -0.167855 0.861659
-0.0696708 -0.1678 0.90712
-0.279204 -0.167691 0.793974
-0.0593428 -0.167582 0.895533
-0.129023 -0.167501 0.851658
-0.111111 -0.167392 0.852253
0.0485231 -0.167285 0.923716
-0.091093 -0.167231 0.844239
-0.253639 -0.167153 0.753899
-0.00786044 -0.167045 0.868451
-0.0923175 -0.166939 0.817893
-0.176937 -0.166832 0.767261
-0.121597 -0.16681 0.784507
-0.114929 -0.166704 0.779528
0.00311813 -0.166598 0.830245
-0.105113 -0.166493 0.767829
-0.206009 -0.16644 0.707765
-0.124996 -0.166369 0.739137
-0.257583 -0.166264 0.664559
-0.303981 -0.16616 0.633082
-0.218415 -0.166056 0.667593
-0.116799 -0.166039 0.707906
-0.129351 -0.165936 0.693366
-0.17752 -0.165832 0.661023
-0.230131 -0.165729 0.626466
-0.109653 -0.165678 0.677138
-0.155758 -0.165613 0.644874
-0.101966 -0.165511 0.663532
-0.0389359 -0.165409 0.686814
-0.1739 -0.165358 0.609784
-0.103759 -0.165257 0.636634
-0.116084 -0.165195 0.62122
-0.174673 -0.165095 0.58371
-0.101182 -0.165044 0.610927
-0.140491 -0.164944 0.58307
-0.181943 -0.164844 0.554146
-0.169998 -0.164786 0.550822
0.000302191 -0.164736 0.626462
-0.122406 -0.164637 0.556921
-0.10371 -0.164538 0.558087
-0.144188 -0.16444 0.529671
-0.0997654 -0.164391 0.542395
-0.233205 -0.164336 0.466334
-0.176247 -0.164239 0.486645
-0.129197 -0.164141 0.502008
-0.109679 -0.164092 0.502296
-0.172581 -0.163996 0.462693
-0.0461746 -0.163899 0.517749
-0.141545 -0.163851 0.460608
-0.092111 -0.1638 0.475934
-0.066936 -0.163704 0.480382
-0.320382 -0.163609 0.345524
-0.123754 -0.163514 0.435709
-0.211609 -0.163466 0.382346
-0.167043 -0.163372 0.396509
-0.163613 -0.163277 0.390107
-0.263724 -0.163278 0.329296
-0.283627 -0.163184 0.311231
-0.160404 -0.16309 0.364732
-0.25192 -0.162997 0.310868
-0.0146479 -0.162951 0.420098
-0.279236 -0.162858 0.279706
-0.0459277 -0.162765 0.388266
-0.13065 -0.162719 0.336513
-0.175062 -0.162627 0.306221
-0.0724236 -0.162581 0.348157
-0.0910401 -0.162494 0.330635
-0.170587 -0.162449 0.281483
-0.141463 -0.162358 0.287967
-0.214168 -0.162267 0.24354
-0.000798426 -0.162222 0.340859
-0.192463 -0.162132 0.236959
-0.072828 -0.162042 0.288713
-0.000501078 -0.161953 0.316815
-0.178003 -0.161908 0.218715
-0.112211 -0.161819 0.243557
-0.169171 -0.16173 0.207026
-0.101781 -0.161686 0.231383
0.00717709 -0.161598 0.277817
-0.0613949 -0.161554 0.234202
0.0568419 -0.161519 0.283721
-0.290869 -0.161432 0.101823
-0.146357 -0.161345 0.166039
-0.0673717 -0.161258 0.197494
-0.132652 -0.161215 0.155538
-0.22288 -0.161129 0.102392
-0.170701 -0.161043 0.120451
-0.111664 -0.161 0.140665
-0.187236 -0.160914 0.0948541
-0.315947 -0.160829 0.0224758
-0.0678238 -0.160787 0.137243
-0.125412 -0.160702 0.100432
-0.306693 -0.160618 0.00177487
-0.389628 -0.160576 -0.0489764
-0.319728 -0.160492 -0.0220376
-0.312618 -0.160408 -0.0264924
-0.256713 -0.160366 -0.00781364
-0.206668 -0.160283 0.00920361
-0.193683 -0.160201 0.00769174
-0.232619 -0.160159 -0.0210407
-0.0370324 -0.160077 0.0687527
0.244732 -0.172269 2.06853
0.186575 -0.17171 2.03714
0.339085 -0.171273 2.10898
0.374727 -0.170836 2.12244
0.258934 -0.170523 2.05801
0.377101 -0.170267 2.1096
0.144794 -0.169956 1.98696
0.326086 -0.169648 2.07113
0.250143 -0.169394 2.02572
0.190242 -0.169146 1.98828
0.1312 -0.168848 1.9522
0.15213 -0.168668 1.95398
0.263028 -0.168425 2.00194
0.194636 -0.168183 1.96027
0.291945 -0.168005 2.00027
0.2224 -0.167765 1.95805
0.22709 -0.167526 1.95296
0.251518 -0.167352 1.95655
0.200567 -0.167115 1.92366
0.274019 -0.166943 1.95177
0.153688 -0.166772 1.883
0.076229 -0.166539 1.83688
0.233391 -0.166413 1.90603
0.168965 -0.166182 1.86645
-0.0201161 -0.166014 1.76333
0.141301 -0.165848 1.83546
0.111819 -0.165621 1.81336
0.238039 -0.165496 1.86712
0.142211 -0.165333 1.81065
0.0216254 -0.165109 1.74301
0.156503 -0.164985 1.80116
0.059775 -0.164825 1.74424
0.13328 -0.164666 1.77244
0.0596001 -0.164482 1.72758
0.124805 -0.164325 1.75164
0.106763 -0.164169 1.73406
-0.1169 -0.164047 1.61303
0.0784083 -0.163893 1.70213
0.0914801 -0.163742 1.70009
0.0597774 -0.163558 1.67635
-0.045278 -0.163408 1.61527
0.0654218 -0.163286 1.66149
0.11879 -0.163138 1.67963
-0.0609916 -0.163017 1.58063
0.259357 -0.16287 1.73226
0.154883 -0.16275 1.67094
0.0230843 -0.16257 1.59723
0.177983 -0.162426 1.66615
-0.00540703 -0.162283 1.56591
0.00437344 -0.162164 1.56178
-0.0407406 -0.162023 1.53067
0.0356766 -0.161884 1.56032
0.11367 -0.161766 1.59033
0.0477592 -0.161629 1.5488
-0.118079 -0.161511 1.45692
-0.0694717 -0.161376 1.47265
0.0676809 -0.161258 1.53228
0.0405884 -0.161125 1.51016
0.1953 -0.161008 1.57859
0.0475111 -0.160877 1.49611
-0.0301641 -0.160761 1.44838
0.0530177 -0.160645 1.48108
-0.0421521 -0.160516 1.42491
-0.0206601 -0.160401 1.42679
0.0427833 -0.160274 1.44992
0.0322124 -0.160159 1.43579
-0.0340107 -0.160035 1.39407
-0.219431 -0.159921 1.29254
0.111141 -0.159806 1.44902
-0.0776993 -0.159684 1.34598
-0.0311523 -0.159571 1.36047
-0.0466232 -0.159457 1.34395
-0.0687338 -0.159344 1.32414
0.0107735 -0.159231 1.35514
-0.171039 -0.159118 1.25549
-0.015875 -0.159052 1.32328
-0.116008 -0.158936 1.26455
-0.119256 -0.158824 1.25421
-0.320873 -0.158712 1.14472
-0.0328285 -0.1586 1.28005
-0.0974195 -0.158489 1.23907
-0.0156668 -0.158378 1.27126
-0.0704464 -0.158267 1.23521
-0.066309 -0.158157 1.22862
0.0205709 -0.158047 1.26341
-0.146514 -0.157992 1.16993
0.0156991 -0.157883 1.24238
-0.0193568 -0.157773 1.21623
-0.112625 -0.157667 1.16092
-0.228345 -0.157558 1.09446
-0.124601 -0.157449 1.13774
0.00786551 -0.157345 1.19528
-0.0353245 -0.157237 1.16511
-0.105979 -0.157129 1.12121
-0.126613 -0.157081 1.10087
-0.158347 -0.156974 1.07645
-0.0642719 -0.156867 1.11495
-0.191785 -0.156768 1.04246
0.113256 -0.156661 1.18645
-0.152956 -0.156555 1.04483
-0.156133 -0.156502 1.03342
-0.220474 -0.156406 0.992497
-0.16899 -0.1563 1.00974
-0.0882348 -0.156195 1.04164
-0.00058364 -0.156101 1.07669
-0.107128 -0.155997 1.01494
-0.224281 -0.155892 0.947904
-0.0656385 -0.155853 1.01711
0.0213425 -0.155749 1.05215
-0.13636 -0.155645 0.964854
-0.100844 -0.155557 0.973785
-0.0696584 -0.155454 0.98095
-0.0339878 -0.155351 0.990365
-0.209784 -0.1553 0.892732
-0.0916492 -0.155214 0.942948
-0.342244 -0.155112 0.809251
-0.125782 -0.15501 0.909089
-0.196718 -0.154959 0.863912
-0.113255 -0.154877 0.896767
-0.105341 -0.154775 0.892351
-0.192483 -0.154674 0.840414
-0.199778 -0.154594 0.827857
-0.14236 -0.154544 0.846887
-0.131246 -0.154444 0.844097
-0.139127 -0.154344 0.831816
-0.113391 -0.154267 0.835744
-0.140027 -0.154168 0.814097
-0.174616 -0.154069 0.78848
-0.0589516 -0.154019 0.836671
-0.137917 -0.15392 0.788881
-0.175604 -0.153847 0.761068
-0.251202 -0.153749 0.71497
-0.23682 -0.1537 0.712543
-0.175699 -0.153602 0.734819
-0.180561 -0.153531 0.723383
-0.108515 -0.153434 0.75113
-0.213186 -0.153337 0.690525
-0.224889 -0.153289 0.675085
-0.208584 -0.153221 0.674196
-0.251263 -0.153125 0.644602
-0.390124 -0.153029 0.566923
-0.16472 -0.152981 0.670058
-0.230816 -0.152886 0.628774
-0.126139 -0.152821 0.672034
-0.148193 -0.152726 0.652778
-0.246355 -0.152679 0.594151
-0.245315 -0.152585 0.586455
-0.220976 -0.152491 0.590414
-0.0932676 -0.152429 0.645149
-0.195302 -0.152382 0.584605
-0.169874 -0.152289 0.589121
-0.0706149 -0.152196 0.630558
-0.269898 -0.152103 0.52273
-0.126516 -0.152057 0.584917
-0.265484 -0.151999 0.506273
-0.182035 -0.151907 0.539822
-0.179021 -0.151815 0.533159
-0.15528 -0.151769 0.535544
-0.117287 -0.151678 0.546381
-0.224072 -0.151587 0.484835
-0.14843 -0.151533 0.513449
-0.206551 -0.151487 0.47492
-0.14993 -0.151397 0.495087
-0.0941449 -0.151307 0.51484
-0.0721864 -0.151217 0.517685
-0.412437 -0.151173 0.338113
-0.370573 -0.151083 0.35092
-0.0279928 -0.151033 0.512954
-0.0985064 -0.150988 0.468261
-0.128701 -0.1509 0.445048
-0.16217 -0.150812 0.420202
-0.0703241 -0.150724 0.458017
-0.0814107 -0.15068 0.443058
-0.267299 -0.150592 0.342016
0.0110426 -0.150505 0.473092
-0.0848113 -0.150462 0.415764
-0.161869 -0.150415 0.367923
-0.271118 -0.150329 0.305211
-0.0443323 -0.150243 0.410521
-0.248888 -0.1502 0.298856
-0.0910663 -0.150114 0.369692
-0.188292 -0.150029 0.313008
-0.312983 -0.149986 0.241288
-0.136197 -0.149901 0.321618
-0.106101 -0.149816 0.328607
-0.339399 -0.149774 0.202597
-0.339952 -0.149733 0.192944
-0.233093 -0.149649 0.238318
-0.159987 -0.149565 0.26682
-0.278154 -0.149523 0.198389
-0.128185 -0.14944 0.265329
-0.259115 -0.149357 0.191822
-0.0904829 -0.149316 0.266803
-0.144654 -0.149233 0.231683
-0.169254 -0.149151 0.211351
-0.136104 -0.149069 0.219897
-0.0598936 -0.149028 0.248683
-0.0726171 -0.148947 0.234299
-0.238775 -0.148866 0.1432
-0.169935 -0.148825 0.168313
-0.186513 -0.148744 0.15201
-0.176536 -0.148664 0.148986
-0.0555424 -0.148624 0.200188
-0.184908 -0.148544 0.127499
-0.282672 -0.14851 0.0691393
-0.161808 -0.14847 0.120282
-0.275545 -0.148391 0.0554085
-0.00784855 -0.148312 0.181254
-0.198495 -0.148273 0.0766517
-0.38845 -0.148194 -0.0263234
-0.127753 -0.148116 0.0960287
-0.0722675 -0.148077 0.114503
-0.205824 -0.147999 0.0397332
-0.162515 -0.147922 0.0533982
-0.133466 -0.147883 0.058664
-0.422276 -0.147806 -0.0937266
-0.235045 -0.14773 -0.00809522
-0.0257034 -0.147691 0.0873266
-0.153765 -0.147615 0.015316
0.43996 -0.157694 2.13364
0.36177 -0.157019 2.09556
0.251925 -0.156619 2.03633
0.345085 -0.15622 2.07866
0.369152 -0.155934 2.08424
0.430673 -0.1557 2.10756
0.286312 -0.155307 2.03117
0.372846 -0.155139 2.06575
0.0903445 -0.154912 1.91702
0.249099 -0.154638 1.98993
0.238077 -0.154414 1.97697
0.313304 -0.15419 2.00716
0.088913 -0.154026 1.88635
0.135868 -0.153804 1.90243
0.292491 -0.153538 1.9743
0.137901 -0.153422 1.88749
0.126437 -0.153203 1.8744
0.341344 -0.153043 1.9733
0.205452 -0.152826 1.89801
0.0830383 -0.152668 1.82826
0.1092 -0.152511 1.8328
0.214657 -0.152298 1.87821
-0.0016057 -0.152143 1.76155
0.0219969 -0.151932 1.76604
0.177244 -0.151817 1.83432
0.148741 -0.151665 1.81155
0.138751 -0.151457 1.79928
0.118218 -0.151343 1.77971
0.0602749 -0.151193 1.74224
0.112537 -0.151045 1.75988
-0.0279523 -0.150841 1.68236
0.182981 -0.150728 1.77859
0.0425778 -0.150582 1.6999
0.12374 -0.15047 1.73128
0.0158417 -0.150302 1.66937
0.0169129 -0.150126 1.66214
0.119767 -0.150015 1.7044
0.0534324 -0.149874 1.66276
-0.068711 -0.149762 1.59255
0.0128527 -0.149623 1.62486
0.0877226 -0.149484 1.65381
0.13163 -0.149319 1.66793
0.044891 -0.149182 1.61608
0.0575272 -0.149072 1.61333
-0.0229771 -0.148937 1.5646
0.0352882 -0.148828 1.58469
0.145591 -0.148694 1.63137
-0.0794812 -0.148585 1.50982
0.183744 -0.148454 1.63295
-0.0963849 -0.148345 1.4839
0.0222086 -0.148205 1.53496
-0.0681984 -0.148107 1.48054
-0.0524419 -0.147967 1.48025
0.157878 -0.147838 1.57696
0.144484 -0.147711 1.56181
0.101701 -0.147603 1.5315
0.0662099 -0.147478 1.50529
-0.0255831 -0.147371 1.4505
0.0128371 -0.147248 1.46124
-0.0423203 -0.147142 1.42479
-0.0114197 -0.147035 1.43138
-0.0823386 -0.146914 1.38745
-0.0370695 -0.146809 1.40125
-0.0872053 -0.146703 1.36736
0.0640473 -0.146584 1.43452
0.039342 -0.146479 1.41336
0.056375 -0.146403 1.41238
0.00622766 -0.146289 1.37877
0.122319 -0.146185 1.42804
0.0460053 -0.146072 1.38133
0.0230195 -0.145969 1.36109
-0.0909462 -0.145865 1.29536
-0.0392256 -0.145755 1.31266
-0.0838207 -0.145652 1.28164
-0.0192923 -0.145544 1.30533
-0.206038 -0.145442 1.20326
-0.049391 -0.145339 1.27289
-0.0523212 -0.145237 1.26274
-0.136883 -0.145183 1.21058
-0.06564 -0.145081 1.23754
0.0115843 -0.144978 1.26755
-0.10385 -0.144877 1.20119
0.0762443 -0.144775 1.28261
-0.166234 -0.144675 1.15275
-0.208589 -0.144574 1.12295
0.042377 -0.144474 1.23983
-0.148123 -0.144374 1.13598
0.109673 -0.144274 1.25629
-0.221809 -0.144225 1.08066
-0.0752967 -0.144125 1.14535
-0.229323 -0.144028 1.05974
-0.129354 -0.143929 1.10117
-0.165434 -0.14383 1.07459
0.090964 -0.143735 1.19417
-0.233308 -0.143637 1.0235
-0.0377383 -0.143539 1.11277
-0.139257 -0.143495 1.05205
-0.0557379 -0.143397 1.08531
-0.0688286 -0.1433 1.07027
-0.129359 -0.14321 1.03135
-0.196467 -0.143113 0.989313
-0.000947212 -0.143016 1.0786
-0.347267 -0.142968 0.895659
0.137679 -0.14288 1.12945
-0.155455 -0.142785 0.974439
-0.186107 -0.142689 0.950674
-0.199304 -0.142603 0.935369
-0.257214 -0.142556 0.896665
-0.084338 -0.142461 0.974685
-0.230393 -0.142366 0.893249
-0.170315 -0.142283 0.91456
-0.0105494 -0.142189 0.986046
-0.0286913 -0.142095 0.968587
-0.243639 -0.142048 0.851406
-0.139186 -0.141968 0.89488
-0.204102 -0.141875 0.854054
-0.204934 -0.141782 0.845277
-0.224168 -0.141736 0.825979
-0.24077 -0.141658 0.808899
0.0551112 -0.141566 0.948498
-0.21118 -0.141474 0.807018
-0.0920961 -0.141399 0.857748
0.0586077 -0.141353 0.923448
-0.0673352 -0.141261 0.85216
-0.0459921 -0.14117 0.854523
-0.046059 -0.141098 0.845647
-0.0896537 -0.141007 0.81555
-0.237163 -0.140962 0.732175
-0.177066 -0.140872 0.753939
-0.307379 -0.140782 0.680505
-0.0512448 -0.140712 0.799698
0.00638676 -0.140668 0.818917
-0.0595726 -0.140578 0.777675
-0.119707 -0.140489 0.739353
-0.196304 -0.140422 0.692146
-0.260553 -0.140334 0.651775
-0.0645217 -0.14029 0.740222
-0.146973 -0.140202 0.690763
-0.127413 -0.140114 0.692315
-0.0573758 -0.14005 0.718389
-0.17056 -0.140006 0.65225
-0.186497 -0.139919 0.636068
-0.0829106 -0.139832 0.679654
-0.093662 -0.139746 0.666077
-0.329308 -0.139702 0.538731
-0.0788115 -0.139642 0.654999
-0.0737192 -0.139556 0.649357
0.0469806 -0.13947 0.701524
0.00193098 -0.139427 0.669496
-0.276707 -0.139342 0.522006
-0.209538 -0.139284 0.546568
-0.181837 -0.139199 0.552253
-0.237219 -0.139157 0.515078
0.00190333 -0.139073 0.626486
-0.0547779 -0.138989 0.589997
-0.168518 -0.138905 0.524983
-0.117749 -0.138863 0.540905
-0.17705 -0.138809 0.502189
-0.100804 -0.138726 0.532179
-0.19996 -0.138684 0.473151
0.00527551 -0.138601 0.567646
-0.219125 -0.138519 0.447329
-0.351104 -0.138437 0.373226
-0.186595 -0.138396 0.446052
-0.0626674 -0.138345 0.498901
-0.159183 -0.138263 0.442539
-0.166173 -0.138182 0.430945
-0.175791 -0.138142 0.416723
-0.293588 -0.138061 0.349735
-0.206338 -0.13798 0.385274
-0.214804 -0.13794 0.371643
-0.209914 -0.13786 0.366011
-0.0941586 -0.137813 0.414721
-0.145937 -0.137773 0.379444
-0.273861 -0.137694 0.307413
-0.178126 -0.137614 0.347214
-0.032264 -0.137535 0.412083
-0.0405126 -0.137496 0.39859
-0.0100628 -0.137417 0.405762
-0.162622 -0.137339 0.321432
-0.0851931 -0.1373 0.350791
-0.23858 -0.137222 0.266056
-0.199613 -0.137144 0.277501
-0.212529 -0.137141 0.260504
-0.25869 -0.137064 0.229387
-0.0433641 -0.136987 0.329016
-0.0922851 -0.13691 0.296525
-0.228161 -0.136872 0.219258
-0.0355765 -0.136796 0.307527
-0.2534 -0.136719 0.190595
-0.0515152 -0.136682 0.28222
-0.107967 -0.136606 0.245981
-0.344554 -0.136531 0.119677
-0.450213 -0.136493 0.0575421
-0.170806 -0.136418 0.189242
-0.266649 -0.136343 0.133318
-0.192327 -0.136306 0.161186
-0.168272 -0.136232 0.165218
-0.216872 -0.136158 0.132925
-0.220209 -0.136121 0.121974
-0.261903 -0.136047 0.0931399
-0.300029 -0.135974 0.0660916
-0.134357 -0.135901 0.140944
-0.334948 -0.135864 0.031382
-0.140374 -0.135828 0.119405
-0.306056 -0.135794 0.0272273
-0.0356146 -0.135722 0.154469
-0.279406 -0.13565 0.0245966
-0.22435 -0.135614 0.0428699
0.0458021 -0.135542 0.169974
-0.0936059 -0.135471 0.0922989
-0.157747 -0.135436 0.0509839
-0.282208 -0.135365 -0.0192129
-0.217884 -0.135294 0.00498389
-0.024865 -0.135259 0.0922588
-0.152308 -0.135189 0.0205766
0.45376 -0.142915 2.11346
0.198063 -0.142301 1.98683
0.309109 -0.141938 2.03816
0.249961 -0.141678 2.00219
0.283884 -0.14142 2.01275
0.11162 -0.141213 1.91915
0.238012 -0.14086 1.97816
0.233218 -0.140707 1.96714
0.427019 -0.140403 2.05885
0.284369 -0.140252 1.97894
0.163605 -0.140048 1.91118
0.239229 -0.139845 1.94164
0.105228 -0.139696 1.8661
0.310422 -0.139495 1.96137
0.228834 -0.139252 1.91423
0.226397 -0.139147 1.90354
0.114632 -0.138908 1.84132
0.148691 -0.138803 1.84892
0.123401 -0.138658 1.82779
0.0940709 -0.138462 1.80587
0.257952 -0.138319 1.87934
0.132965 -0.138125 1.8096
0.0434284 -0.137984 1.75637
0.0795749 -0.137881 1.76511
0.130735 -0.137689 1.78348
0.243511 -0.13755 1.83142
0.0788693 -0.137412 1.74066
0.0526526 -0.137258 1.71953
-0.0385447 -0.137122 1.6655
-0.0661161 -0.136986 1.64329
0.0242479 -0.136884 1.67925
-0.0185858 -0.136699 1.65066
0.160894 -0.136566 1.73198
0.199546 -0.136465 1.74214
0.133807 -0.136333 1.70086
0.0489003 -0.136203 1.64999
0.112066 -0.136052 1.6737
-0.00988403 -0.135923 1.60431
-0.0950362 -0.135822 1.55264
-0.0643322 -0.135695 1.55958
0.238176 -0.135569 1.70242
-0.0164001 -0.135469 1.56608
0.200664 -0.135344 1.6662
0.140048 -0.135245 1.62686
0.0581012 -0.135121 1.57751
0.149351 -0.134973 1.61537
0.0804307 -0.134852 1.5725
-0.0664888 -0.134753 1.49006
0.080733 -0.134633 1.55526
-0.158285 -0.134535 1.4268
0.0168404 -0.134417 1.50595
-0.127573 -0.134319 1.42481
0.0969022 -0.134203 1.52863
0.0938681 -0.134105 1.51821
-0.194309 -0.133991 1.3657
-0.0203343 -0.133894 1.44381
0.034176 -0.13378 1.46263
-0.0151896 -0.133684 1.42909
0.00243297 -0.133572 1.42946
-0.0282881 -0.133476 1.40527
-0.0844542 -0.13338 1.36836
-0.230679 -0.133271 1.28681
-0.140787 -0.133175 1.32296
-0.0207953 -0.133068 1.37451
-0.0569329 -0.132973 1.34766
-0.152743 -0.132878 1.29099
-0.164323 -0.132783 1.27644
-0.0276632 -0.132678 1.33633
0.0733499 -0.132583 1.3781
-0.306477 -0.132489 1.17946
0.0129905 -0.132396 1.33048
-0.131414 -0.132302 1.24957
-0.131241 -0.132237 1.24016
-0.0365614 -0.132137 1.27901
-0.00950644 -0.132044 1.28386
-0.196401 -0.131946 1.18191
-0.0510114 -0.131853 1.24595
-0.19128 -0.131761 1.16716
0.0419345 -0.131669 1.27513
-0.0417964 -0.131577 1.22464
-0.200139 -0.131486 1.13685
-0.0607256 -0.131394 1.19795
-0.2137 -0.131342 1.11174
-0.227413 -0.131251 1.0963
-0.149048 -0.131159 1.12693
-0.145379 -0.131068 1.12019
-0.277856 -0.130978 1.04539
-0.0879042 -0.130888 1.13181
-0.15998 -0.130798 1.08723
0.0704077 -0.130753 1.19256
-0.0527636 -0.130663 1.12245
-0.174793 -0.130574 1.05292
-0.154658 -0.130485 1.05446
-0.19101 -0.130396 1.02778
-0.0826918 -0.130307 1.07345
-0.0921924 -0.130265 1.05883
0.057173 -0.130177 1.12503
0.0933367 -0.130088 1.13464
-0.0146775 -0.130004 1.07207
-0.134338 -0.129916 1.00378
0.0111614 -0.129829 1.06809
-0.280079 -0.129742 0.914028
-0.215357 -0.129703 0.936477
-0.143886 -0.129616 0.963789
-0.0205007 -0.12953 1.01707
-0.0984521 -0.12945 0.969479
-0.031678 -0.129364 0.994464
-0.146092 -0.129321 0.927535
-0.103172 -0.129235 0.940609
-0.3304 -0.129157 0.818362
-0.00467931 -0.129072 0.97285
-0.124737 -0.128987 0.904456
-0.114852 -0.128902 0.901041
-0.299882 -0.128869 0.798539
-0.0918358 -0.128785 0.894216
-0.283415 -0.128701 0.790089
-0.199276 -0.128616 0.823829
-0.143397 -0.128586 0.841753
-0.0393813 -0.128502 0.885442
-0.243298 -0.128419 0.775172
-0.0550598 -0.128335 0.860987
-0.0769792 -0.128265 0.841314
-0.288843 -0.128224 0.725757
-0.0998435 -0.128141 0.811971
-0.295853 -0.128059 0.705687
-0.212046 -0.127991 0.738846
-0.164927 -0.12795 0.752804
-0.0253668 -0.127869 0.814322
-0.120063 -0.127787 0.758719
-0.22386 -0.127706 0.698572
-0.124528 -0.127681 0.738131
-0.0388242 -0.1276 0.772743
-0.136111 -0.12752 0.715866
-0.270648 -0.127439 0.640372
-0.199811 -0.127359 0.66757
-0.0444113 -0.127337 0.73513
-0.0915911 -0.127257 0.703328
0.0349702 -0.127177 0.758403
0.021006 -0.127098 0.743222
-0.025329 -0.127058 0.71053
-0.168291 -0.126999 0.630204
-0.197796 -0.12692 0.607266
-0.142247 -0.126841 0.626861
-0.167683 -0.126802 0.604639
-0.0916919 -0.126724 0.634467
-0.196208 -0.126646 0.574046
-0.140273 -0.126628 0.591802
-0.177118 -0.126551 0.565224
-0.0734739 -0.126473 0.608896
-0.0994019 -0.126396 0.587788
-0.244303 -0.126358 0.505869
-0.166394 -0.126281 0.536691
-0.12567 -0.126228 0.548128
-0.233053 -0.126151 0.486309
-0.242129 -0.126113 0.472322
-0.0482467 -0.126038 0.561146
-0.323215 -0.125962 0.415549
-0.319106 -0.125887 0.409497
-0.226377 -0.125849 0.446433
-0.157353 -0.125774 0.472848
-0.269458 -0.125724 0.407826
-0.417335 -0.125687 0.324471
-0.258797 -0.125612 0.395652
-0.0940109 -0.125538 0.469962
-0.152793 -0.125464 0.432492
-0.319561 -0.125427 0.339713
-0.185126 -0.125354 0.398861
-0.28579 -0.12528 0.340463
-0.214815 -0.12527 0.365611
-0.202723 -0.125197 0.363595
-0.226769 -0.125125 0.343514
-0.202592 -0.125088 0.346232
-0.18361 -0.125016 0.347674
-0.202996 -0.124944 0.329937
-0.181533 -0.124872 0.332627
-0.147139 -0.124836 0.340472
-0.20041 -0.124765 0.305803
-0.40801 -0.124694 0.193974
-0.10006 -0.124658 0.33861
-0.135487 -0.124616 0.311816
-0.256883 -0.124545 0.243094
-0.221183 -0.12451 0.251615
-0.270691 -0.12444 0.218844
-0.0684499 -0.12437 0.311952
-0.241307 -0.124335 0.216207
-0.0563807 -0.124265 0.300664
-0.168194 -0.124196 0.236754
-0.13344 -0.124127 0.246131
-0.0565383 -0.124092 0.275282
-0.22511 -0.124024 0.183003
-0.252798 -0.123955 0.161167
-0.216779 -0.123921 0.169889
-0.263012 -0.123853 0.138788
-0.255024 -0.123785 0.1348
-0.252917 -0.123751 0.126578
-0.071624 -0.123684 0.209248
-0.256751 -0.123616 0.108711
-0.504387 -0.123583 -0.0243722
-0.158196 -0.123547 0.139553
-0.245036 -0.12348 0.0881612
-0.197613 -0.123447 0.102615
-0.212062 -0.123381 0.0874237
-0.231186 -0.123315 0.0698975
-0.335128 -0.123282 0.00867859
-0.409264 -0.123216 -0.0363485
-0.037353 -0.123151 0.141649
-0.392555 -0.123118 -0.0451897
-0.211781 -0.123053 0.0372445
-0.293455 -0.123021 -0.0128233
-0.108336 -0.122956 0.0717875
-0.266393 -0.122892 -0.0151882
-0.0851944 -0.12286 0.0661899
-0.173863 -0.122796 0.0139126
0.385933 -0.127904 2.0484
0.231491 -0.127536 1.96812
0.257323 -0.127214 1.97689
0.307261 -0.127028 1.99443
0.333083 -0.126708 2.00326
0.229307 -0.12648 1.94505
0.266062 -0.126295 1.95608
0.296401 -0.12607 1.96496
0.269992 -0.125934 1.94323
0.13018 -0.125751 1.86603
0.117284 -0.125568 1.8523
0.260369 -0.125434 1.91537
0.249657 -0.125253 1.90276
-0.0387134 -0.125034 1.75233
0.125703 -0.12494 1.82511
0.113007 -0.124724 1.81252
0.247492 -0.12463 1.87037
0.0719877 -0.1245 1.7742
0.121359 -0.124324 1.7917
0.0623078 -0.124195 1.75378
0.0431542 -0.12402 1.73703
0.0926349 -0.123893 1.75337
0.220306 -0.123801 1.80792
0.190678 -0.123628 1.78597
0.157923 -0.123503 1.76122
0.137181 -0.123379 1.74247
0.105064 -0.123287 1.71719
0.111122 -0.123118 1.7131
0.0780328 -0.122996 1.6882
0.164879 -0.122905 1.72245
0.0353859 -0.122784 1.64935
0.0969502 -0.122664 1.67178
0.00848368 -0.122527 1.61967
0.00735438 -0.122409 1.61076
0.103342 -0.122291 1.6504
-0.0380193 -0.122201 1.57063
0.0297378 -0.122085 1.59617
-0.0360529 -0.121995 1.55421
0.101511 -0.12186 1.61521
0.046203 -0.121721 1.57992
-0.162721 -0.121632 1.46644
-0.102933 -0.121519 1.48799
-0.0186789 -0.12143 1.52112
-0.0718861 -0.121319 1.48618
0.0334763 -0.121231 1.52989
-0.0546777 -0.121121 1.47747
-0.0278675 -0.121033 1.48193
-0.0432549 -0.120924 1.46589
-0.0916279 -0.120837 1.43279
0.0638211 -0.12073 1.50217
-0.109725 -0.120642 1.4065
-0.0348306 -0.120555 1.43507
0.00935652 -0.12045 1.44882
-0.00745487 -0.120363 1.43156
-0.0833374 -0.120259 1.38527
-0.0935283 -0.120172 1.37134
-0.132426 -0.12007 1.34354
-0.158151 -0.119984 1.32187
-0.219452 -0.119884 1.28285
-0.165996 -0.119798 1.30079
-0.216069 -0.119699 1.26738
0.0879925 -0.119613 1.41065
-0.234862 -0.119528 1.24046
-0.0539826 -0.119431 1.32253
-0.0600102 -0.119346 1.31078
-0.0281117 -0.11925 1.31834
0.0986007 -0.119166 1.37298
0.0176725 -0.119081 1.32382
-0.113175 -0.118988 1.25
0.0385939 -0.118904 1.3172
-0.00771678 -0.11882 1.28538
-0.146495 -0.118746 1.20703
0.083939 -0.118686 1.31284
-0.166948 -0.118596 1.17898
-0.103495 -0.118513 1.20208
0.0201649 -0.11843 1.25528
-0.000418347 -0.118342 1.23656
-0.13255 -0.118259 1.16189
-0.104841 -0.118177 1.16715
-0.178701 -0.118095 1.12163
-0.0206263 -0.118013 1.1921
-0.0500796 -0.117931 1.1688
-0.157543 -0.117883 1.10544
-0.00762496 -0.117802 1.17185
-0.170716 -0.117721 1.08176
-0.184546 -0.117638 1.06638
-0.216732 -0.117557 1.04176
-0.287361 -0.117478 0.997874
-0.107797 -0.117398 1.07915
-0.183929 -0.117356 1.03134
0.000956355 -0.117276 1.11529
-0.091319 -0.117196 1.06067
0.0235287 -0.117116 1.10962
-0.0614162 -0.117037 1.05869
-0.143654 -0.116958 1.00911
-0.274899 -0.116918 0.933717
-0.0472603 -0.11684 1.03906
-0.0387338 -0.116762 1.03489
-0.0759386 -0.116683 1.00787
-0.21971 -0.116605 0.927567
-0.102766 -0.116568 0.976219
-0.233622 -0.11649 0.902389
-0.131673 -0.116413 0.944971
-0.236425 -0.116339 0.884079
0.00436182 -0.116261 0.996093
-0.084015 -0.116184 0.943534
-0.18874 -0.116146 0.881476
-0.201924 -0.116074 0.866347
-0.336408 -0.115998 0.790754
0.0290167 -0.115921 0.965124
-0.0838311 -0.115845 0.900365
-0.230296 -0.115814 0.817238
-0.155927 -0.115738 0.846099
-0.0782778 -0.115662 0.876608
-0.0132356 -0.115587 0.900822
-0.152981 -0.115549 0.821313
-0.184338 -0.115482 0.797052
-0.198006 -0.115407 0.781929
-0.112959 -0.115333 0.81617
-0.277904 -0.115258 0.725422
-0.263544 -0.11523 0.722655
-0.227196 -0.115156 0.732564
-0.240755 -0.115082 0.717527
-0.106601 -0.115009 0.776354
-0.100276 -0.114972 0.769937
-0.140401 -0.11491 0.741234
-0.128059 -0.114836 0.739171
0.0140978 -0.114763 0.802022
-0.247067 -0.114691 0.663219
-0.22431 -0.114654 0.665047
-0.387144 -0.114594 0.574959
-0.26913 -0.114522 0.625761
-0.0435145 -0.11445 0.730369
-0.119023 -0.114414 0.683087
-0.27583 -0.114343 0.596498
-0.17115 -0.114285 0.640132
-0.0626085 -0.11425 0.68489
-0.12393 -0.114179 0.646057
-0.220851 -0.114108 0.58943
-0.124883 -0.114037 0.629253
-0.133697 -0.114002 0.615357
-0.25905 -0.113947 0.54394
-0.147736 -0.113877 0.59145
-0.112571 -0.113807 0.600891
-0.156429 -0.113772 0.569493
-0.0778925 -0.113702 0.600631
-0.0776097 -0.113633 0.592647
-0.19306 -0.113581 0.52614
-0.179382 -0.113546 0.52353
-0.161575 -0.113478 0.52432
-0.228996 -0.113409 0.482501
-0.241906 -0.113375 0.466613
-0.150134 -0.113306 0.504401
-0.218244 -0.113238 0.462253
-0.114422 -0.113189 0.50534
-0.187325 -0.113155 0.459474
-0.199155 -0.113088 0.445476
-0.236528 -0.113021 0.418711
-0.254216 -0.112987 0.400468
-0.152179 -0.11292 0.443418
-0.142243 -0.112853 0.440322
-0.0557243 -0.112787 0.475521
-0.0718328 -0.112774 0.457272
0.108808 -0.112708 0.539538
-0.211189 -0.112642 0.371488
-0.256059 -0.112609 0.339685
-0.108731 -0.112543 0.405306
-0.282144 -0.112478 0.310561
-0.294491 -0.112445 0.295033
-0.185397 -0.11238 0.341551
-0.404733 -0.112315 0.223857
-0.319629 -0.112251 0.258387
-0.29358 -0.112219 0.262075
-0.301209 -0.112176 0.249335
-0.437002 -0.112112 0.173423
-0.129009 -0.11208 0.318093
-0.182903 -0.112017 0.283139
-0.229038 -0.111953 0.252066
-0.114805 -0.111922 0.29987
-0.116783 -0.111858 0.290884
-0.347674 -0.111795 0.167444
-0.00595493 -0.111764 0.329003
-0.17928 -0.111701 0.234354
-0.259408 -0.111639 0.186306
-0.0562344 -0.111608 0.278604
-0.225166 -0.111546 0.186161
-0.232972 -0.111484 0.174283
-0.184669 -0.111453 0.189159
-0.166081 -0.111391 0.190485
-0.319586 -0.111354 0.104732
-0.249515 -0.111324 0.130499
-0.0960395 -0.111263 0.199272
-0.264411 -0.111202 0.107123
-0.309552 -0.111172 0.0752959
-0.308746 -0.111112 0.0677418
-0.0929474 -0.111051 0.167686
-0.129766 -0.111021 0.140031
-0.241219 -0.110962 0.0763549
-0.309433 -0.110902 0.0343001
-0.267994 -0.110872 0.0457839
-0.217494 -0.110813 0.0630914
-0.115014 -0.110754 0.10639
-0.199907 -0.110725 0.0547187
0.0174272 -0.110666 0.15545
-0.214505 -0.110607 0.0315485
-0.0713074 -0.110578 0.0939321
-0.328837 -0.11052 -0.0427632
-0.212355 -0.110491 0.0062688
-0.298795 -0.110433 -0.0448774
0.38396 -0.113631 2.01269
0.256842 -0.113145 1.95066
0.227285 -0.112859 1.93186
0.24065 -0.112655 1.93227
0.14093 -0.112371 1.87845
0.21658 -0.112248 1.90777
0.184979 -0.112084 1.88469
0.287129 -0.111882 1.92957
0.216157 -0.111719 1.88685
0.16172 -0.11152 1.85346
0.200104 -0.1114 1.86423
0.0354064 -0.111239 1.77469
0.113761 -0.111078 1.80669
0.280579 -0.11096 1.88171
0.202803 -0.1108 1.83567
0.0430736 -0.110683 1.74744
0.155513 -0.110525 1.79654
0.172379 -0.110409 1.79662
0.0665756 -0.110252 1.73661
0.0729354 -0.110138 1.73145
0.102535 -0.110024 1.73792
0.0247225 -0.10987 1.69192
0.119414 -0.109788 1.73002
0.157368 -0.109676 1.74069
0.109591 -0.109564 1.70849
0.152455 -0.109413 1.72286
0.113014 -0.109332 1.69396
0.120817 -0.109222 1.68957
0.025566 -0.109141 1.63279
0.0427744 -0.108992 1.63437
0.132106 -0.108884 1.67075
0.0774347 -0.108804 1.63431
-0.219539 -0.108697 1.47755
0.259683 -0.108591 1.70888
0.130648 -0.108497 1.63576
-0.0272431 -0.108367 1.54935
-0.0210404 -0.108263 1.54417
0.171644 -0.108184 1.63149
-0.185906 -0.108081 1.44445
0.085873 -0.108002 1.57134
-0.113182 -0.107901 1.46354
-0.0421144 -0.107822 1.49011
0.037716 -0.107722 1.52176
-0.136159 -0.107643 1.42588
-0.107417 -0.107544 1.43198
0.0584252 -0.107447 1.5066
-0.033822 -0.107349 1.45224
-0.190703 -0.107252 1.36555
-0.0801273 -0.107155 1.41257
-0.0257256 -0.107078 1.4309
0.115326 -0.106983 1.49316
-0.166261 -0.106906 1.34352
-0.0417014 -0.106812 1.39752
-0.0721555 -0.106735 1.37348
-0.0496028 -0.106658 1.37594
-0.0545481 -0.106566 1.3652
-0.149819 -0.10649 1.30878
-0.0916608 -0.106414 1.32908
-0.118283 -0.106338 1.30701
-0.0522309 -0.106262 1.33128
-0.0778347 -0.106171 1.31023
-0.0394235 -0.106096 1.32071
-0.105012 -0.10602 1.27919
-0.105016 -0.105957 1.27007
-0.200191 -0.10587 1.21419
-0.14111 -0.105795 1.23504
-0.213557 -0.10571 1.1905
-0.0453516 -0.105636 1.26593
-0.117123 -0.105561 1.22139
0.0160313 -0.105478 1.27964
-0.172913 -0.105404 1.17653
-0.239388 -0.10533 1.13467
-0.221004 -0.105256 1.13524
-0.20568 -0.105211 1.13327
-0.0846055 -0.105138 1.1852
-0.155641 -0.105057 1.14135
-0.0752076 -0.104984 1.17298
-0.0862741 -0.104906 1.15909
-0.262783 -0.104833 1.06227
-0.222094 -0.10476 1.07406
-0.210371 -0.104688 1.07138
-0.12941 -0.104622 1.10311
0.018832 -0.104575 1.16777
-0.00573798 -0.1045 1.1471
-0.279785 -0.104428 1.00157
-0.276388 -0.104356 0.994763
-0.162473 -0.104285 1.04323
-0.195269 -0.104214 1.01835
-0.208717 -0.104176 1.00191
-0.125393 -0.104105 1.0351
-0.216151 -0.104033 0.981311
-0.276494 -0.103963 0.942686
-0.107413 -0.103892 1.01878
-0.0615385 -0.103822 1.03328
-0.193047 -0.103753 0.959066
0.0207978 -0.103717 1.05628
-0.0473463 -0.103648 1.0138
-0.150119 -0.103578 0.954009
-0.2815 -0.103509 0.879925
-0.341195 -0.10344 0.841681
-0.0927962 -0.103405 0.956169
-0.0675677 -0.103336 0.960412
-0.14804 -0.103267 0.911813
-0.0779538 -0.1032 0.938441
-0.435661 -0.103132 0.751238
-0.0208029 -0.103098 0.948991
-0.103036 -0.10303 0.89954
-0.105557 -0.102965 0.889844
-0.140678 -0.102897 0.863962
-0.111801 -0.10283 0.870087
-0.146324 -0.102796 0.843183
-0.152633 -0.102733 0.831568
-0.150519 -0.102666 0.824331
-0.112576 -0.102599 0.835016
-0.322923 -0.102532 0.721563
-0.214867 -0.102504 0.765768
0.000121863 -0.102438 0.864994
-0.17345 -0.102372 0.769947
-0.174303 -0.102306 0.761266
-0.344217 -0.102273 0.666724
-0.0253546 -0.102214 0.817645
-0.101161 -0.102148 0.771505
-0.14977 -0.102083 0.738971
-0.176961 -0.10205 0.715814
-0.133271 -0.101985 0.729442
-0.186859 -0.101928 0.694109
-0.103513 -0.101864 0.727576
-0.222115 -0.101831 0.658736
-0.00834242 -0.101767 0.757429
-0.283398 -0.101703 0.611713
-0.242274 -0.101648 0.623705
-0.115792 -0.101616 0.67743
-0.269352 -0.101552 0.592478
-0.309457 -0.101489 0.564259
-0.104106 -0.101426 0.658773
-0.105034 -0.101405 0.648368
-0.0279567 -0.101342 0.678755
-0.172297 -0.101279 0.598438
-0.166352 -0.101216 0.59327
-0.083484 -0.101185 0.625233
-0.209491 -0.101123 0.5541
-0.173424 -0.101073 0.563493
-0.155839 -0.101042 0.562829
-0.0546462 -0.10098 0.605309
-0.184292 -0.100918 0.532375
-0.27801 -0.100857 0.477409
-0.287261 -0.100826 0.46335
-0.396531 -0.100765 0.400619
-0.034781 -0.100717 0.572816
-0.0765203 -0.100687 0.542525
-0.37254 -0.100626 0.386431
-0.174856 -0.100566 0.477194
-0.178402 -0.100505 0.467347
-0.130424 -0.100475 0.481935
-0.199987 -0.100415 0.439089
-0.224411 -0.100356 0.418817
0.0358433 -0.100326 0.539559
-0.293952 -0.100281 0.365943
-0.296645 -0.100222 0.356546
0.0177397 -0.100163 0.505692
-0.166042 -0.100133 0.404433
-0.227944 -0.100075 0.365445
-0.151322 -0.100016 0.395723
-0.0799095 -0.0999867 0.422076
-0.175562 -0.0999283 0.366226
-0.244337 -0.0998702 0.323818
-0.371476 -0.0998577 0.250157
-0.213951 -0.0997999 0.320904
-0.173891 -0.0997423 0.332921
-0.155078 -0.0997135 0.332998
-0.188461 -0.0996562 0.308302
-0.180754 -0.0995991 0.304155
-0.38305 -0.0995706 0.193692
-0.249007 -0.0995138 0.25272
-0.281658 -0.0994571 0.228405
-0.210165 -0.0994007 0.256165
-0.209868 -0.0993725 0.247015
-0.20942 -0.0993164 0.23926
-0.218794 -0.0992604 0.226596
-0.122723 -0.0992325 0.265346
-0.199554 -0.0991951 0.2181
-0.334205 -0.0991673 0.141494
-0.169129 -0.099112 0.216065
-0.291724 -0.0990569 0.146803
-0.23843 -0.0990294 0.16418
-0.204124 -0.0989746 0.173376
-0.105282 -0.0989199 0.214841
-0.282626 -0.0988927 0.116912
-0.275627 -0.0988383 0.112462
-0.153855 -0.0987842 0.1654
-0.233589 -0.0987572 0.116287
-0.177211 -0.0987034 0.136535
-0.167673 -0.0986497 0.133364
-0.115099 -0.098623 0.150417
-0.136162 -0.0985696 0.131951
-0.372999 -0.0985165 0.00560029
-0.10059 -0.0984899 0.132581
-0.20312 -0.0984371 0.0733886
-0.293275 -0.0983844 0.0203856
-0.250797 -0.0983582 0.0324104
-0.296747 -0.0983058 0.00151493
0.0711497 -0.0982537 0.177544
-0.268212 -0.0982277 -0.00134123
-0.118714 -0.0981758 0.0654929
-0.334927 -0.09815 -0.0518116
-0.321029 -0.0980984 -0.0527729
0.228537 -0.0988818 1.90416
0.201453 -0.0985977 1.8878
0.156149 -0.0983481 1.86128
0.332346 -0.0981699 1.94323
0.126405 -0.0979924 1.83412
0.257176 -0.0978489 1.8923
0.237796 -0.0976727 1.87651
0.216761 -0.0975301 1.85883
0.200935 -0.0973557 1.84484
0.12211 -0.0972508 1.79707
0.0116879 -0.0971098 1.73474
0.310591 -0.0970057 1.87586
0.200047 -0.0968658 1.81349
0.130973 -0.0967627 1.77065
0.215049 -0.0966239 1.80562
-0.0322204 -0.0965218 1.67369
0.132665 -0.0963842 1.74909
0.116135 -0.0962833 1.73255
0.158318 -0.0961471 1.74661
0.0786376 -0.0960474 1.6985
-0.246083 -0.0959758 1.52692
0.170288 -0.0958769 1.72685
-0.0153139 -0.095743 1.62706
0.0676191 -0.0956454 1.66028
-0.10792 -0.0955744 1.56335
0.0388914 -0.0954422 1.62979
0.149429 -0.0953462 1.67683
0.0425328 -0.0952757 1.61427
0.0649817 -0.0951806 1.61728
0.21159 -0.0950862 1.68236
-0.0272122 -0.095016 1.55389
0.119465 -0.0948876 1.62029
0.0211473 -0.0947949 1.56292
-0.026748 -0.0947252 1.52994
-0.0259359 -0.0946336 1.52215
0.0339891 -0.0945642 1.54311
0.161564 -0.0944734 1.5987
0.0555797 -0.0944043 1.53673
0.00998512 -0.0943146 1.50574
0.0128404 -0.0941914 1.50025
-0.0933407 -0.0941227 1.43822
-0.0132459 -0.094035 1.47007
0.0537947 -0.0939666 1.49469
-0.259324 -0.0938799 1.32993
-0.11772 -0.0938118 1.39185
0.0368452 -0.0937262 1.46093
-0.035149 -0.0936584 1.41608
-0.014988 -0.0935739 1.41795
-0.0498399 -0.0935064 1.3917
-0.0318831 -0.093439 1.39185
0.0824642 -0.0933558 1.44083
-0.155155 -0.0932887 1.31322
0.124082 -0.0932066 1.44464
0.0241233 -0.0931398 1.38589
0.00791131 -0.0930589 1.36958
0.014787 -0.0929924 1.36426
-0.109488 -0.0929126 1.29391
0.00447614 -0.0928464 1.34216
0.105551 -0.0927804 1.38398
-0.106023 -0.092702 1.26998
-0.0693215 -0.0926487 1.27913
-0.0103145 -0.0925831 1.29995
-0.0358465 -0.0925176 1.27851
-0.119422 -0.0924609 1.2277
0.0152694 -0.092385 1.28682
-0.273105 -0.09232 1.13399
-0.0397162 -0.0922551 1.24204
-0.195611 -0.0921806 1.15586
0.00076993 -0.092116 1.24544
-0.236271 -0.0920427 1.11867
-0.149639 -0.0919785 1.15339
-0.15544 -0.0919143 1.1419
-0.106612 -0.091859 1.15738
-0.120188 -0.0917952 1.14202
-0.005459 -0.0917469 1.19018
-0.128152 -0.0916765 1.12057
0.0898265 -0.0916131 1.22102
-0.179305 -0.0915498 1.07792
-0.238461 -0.0914808 1.04006
-0.164966 -0.0914237 1.06805
-0.121267 -0.0913609 1.0814
0.00210227 -0.0913189 1.13371
-0.218608 -0.0912564 1.01486
-0.100253 -0.091194 1.06556
-0.130134 -0.091128 1.04231
-0.108499 -0.0910659 1.04467
-0.138824 -0.0910077 1.02089
-0.265552 -0.0909731 0.947908
-0.155178 -0.0909087 0.994777
-0.0118137 -0.0908472 1.05803
-0.0703345 -0.0907859 1.02035
-0.101586 -0.0907247 0.996305
-0.133119 -0.0906662 0.972022
-0.142853 -0.0906315 0.957609
-0.296992 -0.0905707 0.872148
-0.191664 -0.0905095 0.916458
-0.202373 -0.090449 0.902727
-0.188175 -0.0903893 0.901434
-0.0542345 -0.0903587 0.958733
-0.117735 -0.0902986 0.91863
-0.194157 -0.0902387 0.872075
-0.14653 -0.0901789 0.887551
-0.104032 -0.0901193 0.900472
0.0114703 -0.0900896 0.948564
-0.334585 -0.0900302 0.767223
-0.133724 -0.0899717 0.859315
-0.0465043 -0.0899127 0.894624
-0.258792 -0.0898538 0.780187
-0.0269292 -0.0898244 0.886493
-0.01673 -0.0897676 0.883231
-0.0883468 -0.0897091 0.839149
-0.195753 -0.0896508 0.777179
-0.145159 -0.0895927 0.794217
-0.0323663 -0.0895637 0.841021
-0.086756 -0.0895087 0.805443
-0.270465 -0.089451 0.705348
-0.222189 -0.0893935 0.721252
-0.300865 -0.0893648 0.672346
-0.139836 -0.0893115 0.744449
-0.124231 -0.0892544 0.744035
-0.211667 -0.0891975 0.692106
-0.124036 -0.0891691 0.726378
-0.164768 -0.0891123 0.697815
-0.17034 -0.089061 0.68659
-0.243616 -0.0890047 0.641764
-0.0857208 -0.0889765 0.711191
-0.300346 -0.0889204 0.595705
-0.116167 -0.0888645 0.679626
-0.145669 -0.0888087 0.656712
-0.200122 -0.0887872 0.619679
-0.270418 -0.0887317 0.576378
-0.25741 -0.0886764 0.574735
-0.288476 -0.0886488 0.54972
-0.110156 -0.0885937 0.630745
-0.297285 -0.0885387 0.529051
-0.199414 -0.0884916 0.569488
-0.324671 -0.0884643 0.497399
-0.328074 -0.0884098 0.487582
-0.263043 -0.0883554 0.511986
-0.250555 -0.0883012 0.510125
-0.280489 -0.0882742 0.48572
-0.275434 -0.0882203 0.480153
-0.114583 -0.0881754 0.552046
-0.240938 -0.0881486 0.479445
-0.163296 -0.0880951 0.510184
-0.178634 -0.0880418 0.494438
-0.141716 -0.0879887 0.504824
-0.231443 -0.0879621 0.450559
-0.265022 -0.0879092 0.425707
-0.167893 -0.0878666 0.4657
-0.376966 -0.0878404 0.351774
-0.249453 -0.0877879 0.407479
-0.224544 -0.0877356 0.411886
-0.295171 -0.0877096 0.367198
-0.193427 -0.0876575 0.410033
-0.311601 -0.0876057 0.342913
-0.316882 -0.087554 0.332243
-0.0695058 -0.0875282 0.446577
-0.213792 -0.0874882 0.36582
-0.162151 -0.087437 0.38362
-0.195039 -0.0874114 0.357834
-0.236374 -0.0873604 0.329155
-0.351412 -0.0873096 0.263628
-0.124302 -0.0872843 0.367854
-0.176827 -0.0872337 0.333593
-0.215553 -0.0871833 0.306234
-0.289592 -0.0871582 0.2599
-0.0438325 -0.087108 0.374792
-0.198845 -0.087058 0.289302
-0.170986 -0.0870331 0.29393
-0.330623 -0.0869963 0.205446
-0.166867 -0.0869468 0.279347
-0.249561 -0.0869222 0.228708
-0.217109 -0.0868729 0.236964
-0.26955 -0.0868238 0.202776
-0.211342 -0.0867994 0.222601
-0.192561 -0.0867505 0.224032
-0.249562 -0.0867019 0.187574
-0.0153409 -0.0866776 0.295418
-0.166053 -0.0866292 0.212111
-0.24419 -0.086581 0.165094
-0.0465271 -0.086557 0.254671
-0.121993 -0.086509 0.208997
-0.294585 -0.0864612 0.114761
-0.158755 -0.0864374 0.173433
-0.259782 -0.0863899 0.114986
-0.227384 -0.0863425 0.123254
-0.227775 -0.0863189 0.113827
-0.149651 -0.0862718 0.144963
-0.233017 -0.0862483 0.0940549
-0.228973 -0.0862015 0.0881574
-0.331703 -0.0861548 0.0288745
-0.219543 -0.0861315 0.0757398
-0.142029 -0.0860852 0.106584
-0.292139 -0.0860389 0.0236176
-0.0988541 -0.0860159 0.111056
-0.264645 -0.0859699 0.0202542
-0.279681 -0.0859241 0.00483149
-0.270557 -0.0859013 0.000199139
-0.272929 -0.0858558 -0.00888747
-0.24678 -0.0858331 -0.00500067
-0.181693 -0.0857878 0.0196466
0.423935 -0.0848047 1.96378
0.218801 -0.0844113 1.86426
0.273578 -0.0841973 1.88788
0.41028 -0.0840151 1.9513
0.244871 -0.0838314 1.86378
0.313814 -0.0836797 1.89223
0.184462 -0.0835884 1.81922
0.310703 -0.0834378 1.87635
0.115003 -0.0833162 1.77142
0.0178465 -0.0831949 1.71578
0.184998 -0.083105 1.79108
0.0314815 -0.0829573 1.70838
0.225235 -0.0828375 1.79823
0.0942489 -0.0827491 1.7245
0.0825303 -0.0826303 1.71164
0.216998 -0.0825428 1.77065
0.110437 -0.0824557 1.70915
-0.0183315 -0.0823385 1.6378
0.068888 -0.0822773 1.67219
0.0825222 -0.0821913 1.67081
0.157173 -0.0820753 1.70121
0.233848 -0.0819904 1.73137
0.23375 -0.0819297 1.72216
0.0280231 -0.0818454 1.61113
-0.0138716 -0.0817315 1.58328
0.181776 -0.0816485 1.67295
-0.00308827 -0.0815882 1.57142
0.031402 -0.0815058 1.58052
0.223877 -0.0813941 1.66988
0.0691266 -0.0813343 1.58345
0.0403995 -0.0812533 1.56095
-0.0756571 -0.0811731 1.49478
0.00685018 -0.0811135 1.52703
0.109149 -0.081034 1.57005
0.0136057 -0.0809747 1.5133
-0.0189995 -0.0808665 1.49015
-0.0497721 -0.0807886 1.46663
-0.0681913 -0.0807297 1.44849
-0.0984413 -0.0806526 1.42524
-0.0274455 -0.080594 1.45182
-0.026906 -0.0805178 1.44397
-0.0192832 -0.0804594 1.43889
0.00592694 -0.080384 1.44338
-0.00222504 -0.0803259 1.43044
-0.0927312 -0.0802514 1.37707
-0.0686909 -0.0801935 1.38025
-0.0985606 -0.08012 1.35719
0.139741 -0.0800623 1.46753
-0.119421 -0.0799898 1.32983
0.0471358 -0.0799323 1.40432
-0.0518623 -0.079875 1.34604
-0.0162069 -0.0798035 1.35575
-0.0285776 -0.0797465 1.34081
-0.0716944 -0.079676 1.31113
-0.0111034 -0.0796192 1.33269
-0.0278351 -0.0795496 1.3162
-0.0943292 -0.0794931 1.27424
-0.0148601 -0.0794246 1.30584
-0.168732 -0.0793683 1.22021
0.0494059 -0.0793121 1.3206
-0.224677 -0.0792448 1.17542
-0.00756507 -0.0791889 1.27532
-0.0835443 -0.0791443 1.22816
-0.0449355 -0.0790886 1.23883
-0.13787 -0.0790391 1.18345
-0.0680414 -0.0789739 1.21021
-0.0448856 -0.0789186 1.21318
0.00142591 -0.0788634 1.22774
-0.0198626 -0.0787994 1.20893
-0.0401924 -0.0787445 1.19019
-0.0634157 -0.0786897 1.17001
-0.193496 -0.078635 1.09642
-0.0811505 -0.0785805 1.14404
-0.0263698 -0.0785452 1.16196
-0.113841 -0.0784836 1.11005
-0.0769744 -0.0784294 1.11996
-0.00301986 -0.0783754 1.14843
-0.0374275 -0.078315 1.12304
-0.26408 -0.0782612 1.00122
-0.134734 -0.0782139 1.05709
-0.025623 -0.0781604 1.10317
-0.167283 -0.0781218 1.02313
-0.109941 -0.0780685 1.04335
-0.0105287 -0.0780106 1.08484
-0.241916 -0.0779576 0.9607
-0.207393 -0.0779093 0.969294
-0.192008 -0.0778565 0.968563
-0.304363 -0.0778218 0.90306
-0.0381703 -0.0777692 1.02775
-0.175598 -0.0777168 0.950631
-0.111398 -0.0776616 0.974487
0.0143868 -0.0776124 1.02885
-0.184748 -0.0775835 0.919712
-0.124776 -0.0775316 0.941327
-0.11897 -0.0774778 0.935972
-0.233361 -0.0774261 0.870421
0.0322922 -0.0773766 0.994799
-0.108913 -0.0773489 0.914619
-0.255665 -0.0772965 0.832968
-0.167925 -0.0772454 0.868511
-0.17825 -0.0771944 0.85503
-0.268246 -0.0771445 0.80167
-0.127072 -0.077118 0.862673
-0.369729 -0.0770673 0.733047
-0.110641 -0.0770168 0.8543
-0.26389 -0.0769664 0.769392
-0.202035 -0.0769162 0.792045
-0.23808 -0.0768911 0.764414
-0.148857 -0.076841 0.800767
-0.174353 -0.0767911 0.77976
-0.0940678 -0.0767413 0.811656
-0.0644592 -0.0767165 0.816877
-0.257861 -0.0766669 0.711944
-0.221602 -0.0766185 0.721789
-0.326199 -0.0765692 0.661269
-0.22449 -0.0765446 0.702566
-0.0759287 -0.0764955 0.768638
-0.223961 -0.0764466 0.68642
-0.275257 -0.0763998 0.652465
-0.0633239 -0.0763755 0.748897
-0.0491887 -0.0763269 0.74778
-0.181609 -0.0762785 0.673392
-0.146136 -0.0762302 0.682957
-0.20106 -0.0762061 0.645986
-0.214104 -0.076161 0.631133
-0.271636 -0.0761131 0.594211
-0.216252 -0.0760653 0.613753
-0.203551 -0.0760415 0.610618
-0.0607896 -0.0759939 0.673861
-0.317601 -0.0759505 0.537093
-0.0471851 -0.0759269 0.66283
-0.0993237 -0.0758797 0.628638
-0.240257 -0.0758326 0.550054
-0.270929 -0.0757857 0.526606
-0.0425983 -0.0757623 0.631324
-0.0816227 -0.0757156 0.603711
-0.209739 -0.0756741 0.531262
-0.17647 -0.0756509 0.538464
-0.274643 -0.0756046 0.48129
-0.157148 -0.0755584 0.531955
-0.229463 -0.0755124 0.487721
-0.137683 -0.0754894 0.5242
-0.249862 -0.0754436 0.460044
-0.309641 -0.0754041 0.421729
-0.146263 -0.0753813 0.494021
-0.213047 -0.0753358 0.452574
-0.0829149 -0.0752905 0.50959
-0.155064 -0.0752454 0.46547
-0.225656 -0.0752229 0.420798
-0.212672 -0.0751779 0.419254
-0.292396 -0.0751331 0.371361
-0.100323 -0.075118 0.4576
-0.148362 -0.0750735 0.425556
-0.350289 -0.0750291 0.316571
-0.263817 -0.0750069 0.350458
-0.0827237 -0.0749627 0.432992
-0.00883881 -0.0749187 0.461927
-0.325588 -0.0748967 0.294217
-0.0734612 -0.0748529 0.412282
-0.156447 -0.0748092 0.362793
-0.319219 -0.0747874 0.272086
-0.294362 -0.0747439 0.276528
-0.22792 -0.0747091 0.301243
-0.3803 -0.0746875 0.215744
-0.265756 -0.0746445 0.265037
-0.209216 -0.0746015 0.285331
-0.157701 -0.0745801 0.301792
-0.129099 -0.0745374 0.308125
-0.153919 -0.0744949 0.287751
-0.213064 -0.0744736 0.248895
-0.151225 -0.0744313 0.271857
-0.183569 -0.0743891 0.247731
-0.259338 -0.074368 0.200575
-0.414502 -0.0743261 0.115046
-0.469481 -0.0742842 0.0796122
-0.281794 -0.0742634 0.164197
-0.181278 -0.0742218 0.206518
-0.310922 -0.0741902 0.133134
-0.373182 -0.0741695 0.0927552
-0.201609 -0.0741283 0.170609
-0.131143 -0.0740873 0.197911
-0.269028 -0.0740668 0.119731
-0.29294 -0.074026 0.0998507
-0.215662 -0.0739853 0.130567
-0.112107 -0.073965 0.173119
-0.295492 -0.0739246 0.0735097
-0.34886 -0.0738843 0.0389111
-0.265022 -0.0738642 0.0716146
-0.185175 -0.0738241 0.103629
-0.22396 -0.0738041 0.075028
-0.0727634 -0.0737642 0.142722
-0.147456 -0.0737245 0.0974731
-0.096022 -0.0737047 0.113992
-0.171513 -0.0736653 0.0683492
-0.284846 -0.0736259 0.00378615
-0.0882607 -0.0736063 0.0928908
-0.231229 -0.0735672 0.013515
-0.277037 -0.0735477 -0.018571
-0.145312 -0.0735089 0.0394043
0.467619 -0.07026 1.95647
0.161532 -0.0700573 1.80092
0.339096 -0.0698792 1.88609
0.311381 -0.0697522 1.86628
0.0688551 -0.0696255 1.7391
0.000122131 -0.0694994 1.69883
0.281162 -0.0693978 1.83232
0.159282 -0.0692727 1.7655
0.245842 -0.0691975 1.80056
0.289512 -0.0690969 1.81541
0.0538347 -0.0690224 1.68938
0.120081 -0.0689224 1.71555
0.208961 -0.0688004 1.75416
0.191178 -0.0687493 1.73601
-0.000534704 -0.068676 1.632
0.0094328 -0.0685777 1.63009
-0.0769757 -0.0685051 1.57875
0.0876179 -0.068433 1.65292
0.236388 -0.068336 1.72043
0.148165 -0.0682647 1.6682
-0.012099 -0.0682142 1.57893
0.00463101 -0.0681183 1.58046
0.12098 -0.068048 1.63054
-0.0193431 -0.0679782 1.55228
0.0551234 -0.0679282 1.58044
0.0927816 -0.067834 1.59246
-0.00189429 -0.0677653 1.53704
0.074391 -0.0677155 1.56615
0.0922714 -0.0676474 1.56703
0.0354832 -0.0675798 1.53056
0.0354687 -0.0675304 1.52157
0.108742 -0.0674634 1.55014
0.120377 -0.0673724 1.54917
-0.0314849 -0.0673233 1.4643
-0.0191357 -0.0672576 1.46242
-0.0566625 -0.0672087 1.43474
0.0634048 -0.0671437 1.48672
-0.10388 -0.067095 1.39418
0.0152761 -0.0670307 1.44571
0.0757307 -0.0669822 1.46708
0.011574 -0.0669186 1.42695
0.0657554 -0.0668703 1.4452
0.0145545 -0.0668074 1.41156
-0.104422 -0.0667593 1.34325
-0.00691902 -0.0666972 1.38396
-0.0873672 -0.0666493 1.33495
-0.0996863 -0.0665879 1.32074
-0.0924065 -0.0665402 1.31561
0.0244292 -0.0664797 1.36598
0.0834533 -0.0664322 1.38675
-0.0447932 -0.0663847 1.31389
-0.129519 -0.0663251 1.26349
0.130811 -0.0662779 1.38494
-0.0980282 -0.066219 1.26248
0.0423408 -0.0661721 1.32397
0.0122788 -0.066114 1.30089
-0.131118 -0.0660673 1.22052
0.0385852 -0.0660206 1.29671
0.0252732 -0.0659635 1.28201
-0.0966095 -0.0659171 1.21243
-0.0949386 -0.0658608 1.2052
-0.0269166 -0.0658245 1.23003
-0.0919811 -0.0657783 1.18889
0.00496893 -0.0657362 1.22855
-0.0757446 -0.0656903 1.17961
-0.0527667 -0.0656444 1.18252
-0.146048 -0.0655901 1.12781
-0.094215 -0.0655445 1.14517
-0.155504 -0.065499 1.10598
