ply
format ascii 1.0
comment Created by Open3D
element vertex 1670
property double x
property double y
property double z
end_header
-0.0597202 -0.164331 0.607223
-0.323826 -0.164249 0.466549
-0.151402 -0.164167 0.54415
-0.246254 -0.164126 0.48703
-0.113821 -0.164085 0.543557
-0.073103 -0.164011 0.555128
-0.13882 -0.163929 0.513693
-0.280584 -0.163888 0.433141
0.0620295 -0.163807 0.595889
-0.353673 -0.163725 0.379488
-0.0795398 -0.163643 0.508016
-0.204942 -0.163562 0.436786
-0.12742 -0.163521 0.465913
-0.201829 -0.16349 0.418822
-0.189408 -0.163408 0.416527
-0.0366388 -0.163327 0.484416
-0.401228 -0.163286 0.292513
-0.125412 -0.163205 0.421943
-0.0630183 -0.163123 0.444672
-0.124975 -0.163042 0.405236
-0.320171 -0.163001 0.298057
-0.233573 -0.16292 0.332916
-0.12368 -0.162838 0.379433
-0.119815 -0.162809 0.371485
-0.256907 -0.162769 0.293382
-0.229814 -0.162687 0.298521
0.0389525 -0.162606 0.424508
-0.227243 -0.162525 0.283023
-0.224488 -0.162444 0.276024
0.0574061 -0.162403 0.407449
-0.116032 -0.162322 0.312371
-0.116441 -0.162241 0.303817
-0.184869 -0.16216 0.261263
-0.215513 -0.16212 0.236448
0.0399227 -0.162039 0.355844
-0.301601 -0.161958 0.17677
-0.237399 -0.161877 0.200568
-0.193916 -0.161836 0.212845
-0.244228 -0.161755 0.179403
-0.165467 -0.161728 0.208935
-0.210883 -0.161688 0.176778
0.0312543 -0.161607 0.289585
-0.168605 -0.161526 0.181402
-0.241886 -0.161446 0.136519
-0.0211005 -0.161405 0.23749
-0.280446 -0.161325 0.0995924
-0.10827 -0.161244 0.177464
-0.0976159 -0.161163 0.174586
-0.23695 -0.161123 0.0955256
-0.149688 -0.161042 0.130968
-0.153148 -0.160962 0.121059
-0.506604 -0.160881 -0.063838
-0.341609 -0.160841 0.00929369
0.0292175 -0.16076 0.186555
-0.203167 -0.16068 0.0622208
-0.0484195 -0.16064 0.130249
-0.389967 -0.160559 -0.0486493
-0.379052 -0.160479 -0.0513073
-0.250948 -0.160398 0.00463966
-0.229236 -0.160358 0.00617739
0.162852 -0.160278 0.194133
-0.154793 -0.160197 0.0272322
-0.10858 -0.160157 0.0410406
-0.350849 -0.160077 -0.0881558
0.249174 -0.168296 2.53657
-0.0277608 -0.167837 2.39321
-0.0521981 -0.167348 2.37664
-0.0191563 -0.167126 2.3847
0.064368 -0.166907 2.418
0.0710267 -0.166689 2.41287
0.00867435 -0.166473 2.37324
0.0640575 -0.16626 2.39246
-0.319019 -0.16612 2.19132
-0.0689965 -0.165946 2.3073
-0.19993 -0.165738 2.23336
-0.0636201 -0.165534 2.29301
-0.338351 -0.165398 2.14607
-0.14959 -0.165263 2.23087
-0.213164 -0.165129 2.18952
-0.366407 -0.164996 2.10334
-0.0569762 -0.164863 2.24849
-0.273075 -0.164732 2.13089
0.261878 -0.164601 2.38881
0.0201041 -0.164471 2.25837
0.100654 -0.164398 2.28817
0.02522 -0.164269 2.24092
-0.114417 -0.164142 2.16157
-0.263971 -0.164015 2.07726
-0.134497 -0.16389 2.13246
-0.0354874 -0.163815 2.17158
-0.174762 -0.163691 2.09243
-0.125723 -0.163568 2.10742
-0.0166631 -0.163492 2.15163
0.00520803 -0.16337 2.15305
-0.0529563 -0.163249 2.11446
-0.151462 -0.163172 2.05493
-0.159171 -0.163052 2.04157
-0.218881 -0.162975 2.00149
0.0293037 -0.162856 2.11608
-0.112034 -0.162738 2.03594
-0.0556124 -0.162658 2.05399
-0.305147 -0.16254 1.91978
-0.24066 -0.162423 1.94256
-0.364117 -0.162343 1.87071
-0.225704 -0.162228 1.93046
-0.0993122 -0.162149 1.98356
-0.164214 -0.162035 1.94165
-0.244781 -0.161956 1.89129
-0.00285333 -0.161844 2.0028
-0.41061 -0.161765 1.78887
-0.283909 -0.161685 1.84218
-0.211658 -0.161575 1.86886
-0.234621 -0.161496 1.84737
0.0813812 -0.161417 1.99536
-0.036601 -0.161308 1.92693
-0.306367 -0.161229 1.78207
-0.248993 -0.161136 1.80106
-0.172581 -0.161043 1.82957
0.0229999 -0.160954 1.91762
-0.142503 -0.160875 1.82493
-0.0174742 -0.160773 1.87796
-0.113787 -0.160694 1.81989
-0.247234 -0.160594 1.74368
-0.197388 -0.160515 1.75871
-0.165872 -0.160436 1.76459
-0.312546 -0.160338 1.68177
-0.178742 -0.16026 1.73881
-0.331086 -0.160163 1.65314
-0.385928 -0.160085 1.61589
-0.318962 -0.15999 1.63987
-0.215454 -0.159911 1.68181
-0.270546 -0.159833 1.64446
-0.0214673 -0.159754 1.75922
-0.183215 -0.159675 1.66856
-0.0756333 -0.159597 1.71259
-0.448121 -0.159504 1.51687
-0.252326 -0.159426 1.60502
-0.250049 -0.159347 1.59643
-0.177251 -0.159269 1.62311
-0.382309 -0.159207 1.51051
-0.179741 -0.15912 1.60227
-0.440889 -0.159042 1.462
-0.333091 -0.158957 1.50636
-0.123556 -0.158878 1.60146
-0.0762325 -0.1588 1.61546
-0.451562 -0.158722 1.41814
-0.0769318 -0.158643 1.59582
-0.158351 -0.158565 1.54548
-0.245659 -0.158487 1.49221
-0.223292 -0.158408 1.49379
-0.183985 -0.158362 1.50317
-0.0336483 -0.158282 1.56878
-0.0440937 -0.158204 1.55398
-0.118556 -0.158126 1.50718
-0.362617 -0.158048 1.37559
-0.0183955 -0.15797 1.53816
-0.38455 -0.157892 1.34555
-0.0863122 -0.157814 1.48514
-0.113551 -0.157736 1.46201
-0.281019 -0.157697 1.36789
-0.332754 -0.157619 1.33253
-0.228424 -0.157541 1.37521
-0.269074 -0.157466 1.34536
-0.248191 -0.157388 1.34633
0.0262031 -0.15731 1.47408
0.0759904 -0.157237 1.48943
-0.268507 -0.157159 1.30775
-0.137008 -0.157081 1.36408
-0.108021 -0.157042 1.36827
-0.189534 -0.156971 1.31797
-0.0572739 -0.156893 1.37471
-0.273556 -0.156815 1.25718
0.00582827 -0.156746 1.38731
-0.181885 -0.156668 1.28409
-0.319988 -0.156591 1.20569
-0.0778025 -0.156523 1.31721
-0.23147 -0.156484 1.23014
-0.216143 -0.156407 1.22848
-0.0363477 -0.156329 1.30906
-0.286927 -0.156263 1.17419
-0.0250689 -0.156186 1.29583
-0.282386 -0.156108 1.15788
-0.184454 -0.156045 1.19725
-0.302411 -0.156006 1.12809
-0.312033 -0.155929 1.11402
0.0258809 -0.155851 1.27373
-0.371435 -0.15579 1.06547
-0.137051 -0.155712 1.17343
-0.19674 -0.155635 1.13437
-0.199522 -0.155575 1.12336
-0.0869127 -0.155536 1.16953
-0.157382 -0.155459 1.1251
0.0247889 -0.155382 1.20701
-0.360979 -0.155305 1.00496
-0.0987841 -0.155247 1.12643
-0.251899 -0.15517 1.04072
-0.237805 -0.155093 1.03863
-0.0697619 -0.155054 1.11257
-0.444852 -0.154998 0.915383
-0.0533557 -0.154921 1.10202
-0.337607 -0.154844 0.950795
-0.278493 -0.154767 0.971264
-0.183856 -0.154713 1.00893
-0.10021 -0.154675 1.04071
-0.276516 -0.154598 0.943491
-0.182704 -0.154521 0.981345
-0.261122 -0.154469 0.932465
-0.132514 -0.154392 0.987735
-0.0728408 -0.154315 1.00855
0.0323534 -0.154238 1.05213
-0.116513 -0.1542 0.967707
-0.263157 -0.15415 0.884707
0.00998503 -0.154073 1.01229
-0.102126 -0.153996 0.947258
-0.370096 -0.15392 0.804307
-0.224046 -0.15391 0.866638
-0.000439754 -0.153833 0.96949
-0.288051 -0.153756 0.816744
-0.366649 -0.15368 0.768515
-0.442934 -0.153603 0.721452
0.0244986 -0.153557 0.945465
-0.233827 -0.153519 0.806385
0.00146609 -0.153442 0.915137
-0.4106 -0.153366 0.70022
-0.0660712 -0.153289 0.863611
-0.22108 -0.153245 0.776391
-0.225251 -0.153207 0.764422
-0.0976891 -0.15313 0.819355
0.0297245 -0.153054 0.874224
-0.35388 -0.152978 0.673595
-0.23994 -0.152935 0.720837
-0.213789 -0.152897 0.724063
-0.291374 -0.152821 0.676468
-0.412986 -0.152744 0.60687
-0.368516 -0.152668 0.620323
-0.0132678 -0.152592 0.789176
-0.234835 -0.152554 0.66858
-0.192808 -0.152513 0.679863
-0.172838 -0.152437 0.681101
-0.254132 -0.152361 0.631718
-0.0609842 -0.152285 0.719566
-0.236594 -0.152209 0.623045
-0.352088 -0.152171 0.555527
-0.18412 -0.152132 0.629772
-0.408284 -0.152056 0.508998
-0.235461 -0.151981 0.586729
-0.1338 -0.151905 0.628889
-0.126416 -0.151867 0.622843
-0.227571 -0.151791 0.563613
0.00156927 -0.151753 0.668458
-0.0845586 -0.151678 0.616734
-0.0940632 -0.15164 0.602269
-0.0389468 -0.151565 0.621209
-0.0782535 -0.151489 0.592948
-0.0994346 -0.151413 0.573759
0.0865075 -0.151338 0.658142
-0.147679 -0.1513 0.531373
-0.235921 -0.151262 0.477581
-0.066254 -0.151189 0.553772
-0.166773 -0.151114 0.494959
-0.198603 -0.151076 0.469393
-0.36039 -0.151 0.379963
-0.0975639 -0.150925 0.502851
-0.00650867 -0.15085 0.539863
-0.397201 -0.150774 0.336011
-0.116305 -0.150736 0.466844
-0.190696 -0.150699 0.420039
-0.219403 -0.150628 0.397067
-0.1996 -0.150553 0.398497
-0.113589 -0.150515 0.431912
-0.202435 -0.15044 0.379035
-0.324144 -0.150364 0.309737
-0.340712 -0.150289 0.293018
-0.156697 -0.150252 0.375464
-0.0396169 -0.150176 0.425588
-0.155903 -0.150101 0.359038
-0.21159 -0.150026 0.322799
-0.208485 -0.149989 0.314817
-0.196957 -0.149951 0.311053
-0.25072 -0.149883 0.275597
-0.281536 -0.149807 0.251826
0.299288 -0.14977 0.532729
-0.260027 -0.149695 0.244726
-0.285131 -0.14962 0.223838
-0.330484 -0.149545 0.192836
-0.0980662 -0.149508 0.299564
-0.162721 -0.149433 0.258928
-0.158136 -0.149358 0.252922
-0.306375 -0.149283 0.170514
-0.217976 -0.149246 0.20526
-0.0540615 -0.149171 0.278947
-0.262895 -0.149096 0.166269
-0.203868 -0.149021 0.187531
-0.041001 -0.148984 0.259539
-0.0868945 -0.148909 0.228359
0.0526128 -0.148834 0.289888
-0.129887 -0.14876 0.190424
-0.136806 -0.148722 0.177567
-0.108625 -0.148685 0.182266
-0.183389 -0.148619 0.136408
-0.261048 -0.148582 0.0881972
-0.473017 -0.148508 -0.0259616
-0.388074 -0.148433 0.00834548
-0.064971 -0.148359 0.161742
-0.407158 -0.148321 -0.0187045
-0.208778 -0.148247 0.0723483
-0.346085 -0.148172 -0.00443323
-0.0274061 -0.148135 0.145573
0.0625486 -0.148061 0.18244
-0.236175 -0.147987 0.0249775
-0.171991 -0.147912 0.048979
-0.161371 -0.147875 0.0449829
-0.330705 -0.147801 -0.0477575
-0.35003 -0.147726 -0.0654842
-0.0823213 -0.147689 0.0590845
-0.41565 -0.147615 -0.115627
0.011759 -0.154155 2.38389
0.258191 -0.15356 2.5053
-0.24624 -0.153284 2.2459
-0.137555 -0.15301 2.29306
-0.0580093 -0.152808 2.32445
-0.236629 -0.152576 2.22732
-0.2062 -0.152377 2.23415
-0.176429 -0.152181 2.24065
-0.219709 -0.152051 2.20947
0.00621399 -0.151922 2.31291
-0.131135 -0.151731 2.23583
0.099456 -0.151604 2.34161
-0.098755 -0.151478 2.233
-0.0963583 -0.151352 2.2247
-0.198548 -0.151227 2.16412
-0.123558 -0.151103 2.19212
-0.283953 -0.150979 2.10245
0.00154826 -0.150857 2.23572
-0.14748 -0.150735 2.15173
-0.281984 -0.150614 2.075
-0.15406 -0.150545 2.12854
-0.150736 -0.150425 2.12075
-0.0423603 -0.150306 2.16548
-0.0294972 -0.150188 2.16246
0.213527 -0.150083 2.27429
-0.0898596 -0.149966 2.11316
-0.260143 -0.14985 2.01859
0.0186465 -0.149734 2.14854
-0.215131 -0.149663 2.02139
0.0685677 -0.149549 2.15382
-0.269937 -0.149477 1.97434
-0.062041 -0.149364 2.06888
-0.117738 -0.149251 2.03162
-0.033462 -0.149178 2.0636
-0.129081 -0.149067 2.00638
-0.135763 -0.148994 1.99291
-0.241395 -0.148885 1.93069
-0.153694 -0.148812 1.96443
-0.247724 -0.148703 1.90802
-0.277968 -0.14863 1.88281
-0.0375142 -0.148524 1.99364
-0.109581 -0.148451 1.94754
-0.485623 -0.148345 1.75013
-0.243432 -0.148273 1.86118
-0.309057 -0.148169 1.81897
0.00904482 -0.148096 1.96801
-0.0542368 -0.147994 1.92697
-0.0861518 -0.147921 1.90102
-0.155482 -0.14782 1.85696
-0.236536 -0.147748 1.80646
-0.177952 -0.147648 1.82635
-0.0439914 -0.147576 1.88339
-0.129088 -0.147478 1.83144
-0.328598 -0.147406 1.72176
-0.180869 -0.14731 1.78621
-0.24079 -0.147237 1.74635
-0.080716 -0.147165 1.8165
-0.400997 -0.147092 1.64648
-0.0517135 -0.14702 1.81126
-0.31845 -0.146941 1.66817
-0.162053 -0.146869 1.73652
-0.286392 -0.146781 1.66486
-0.154654 -0.146705 1.72098
-0.252024 -0.146633 1.66248
-0.378572 -0.146543 1.58979
-0.298698 -0.146471 1.61994
-0.0463174 -0.146399 1.73635
0.204229 -0.146311 1.85221
-0.0263707 -0.146239 1.72715
-0.164149 -0.146153 1.64883
-0.103216 -0.146081 1.66957
-0.272618 -0.146009 1.57514
-0.272024 -0.145937 1.56573
-0.15651 -0.145864 1.61379
-0.152972 -0.145792 1.60587
-0.282378 -0.14572 1.53149
-0.174924 -0.145661 1.57525
-0.339705 -0.14558 1.48341
-0.0726268 -0.145508 1.6073
-0.280137 -0.145436 1.49391
-0.450876 -0.145357 1.39908
-0.173453 -0.145285 1.52818
-0.229879 -0.145213 1.49036
-0.30849 -0.145136 1.4416
-0.265305 -0.145064 1.45361
-0.188543 -0.144998 1.48228
-0.150358 -0.144926 1.49181
-0.0188618 -0.144881 1.54739
-0.0773469 -0.144809 1.5086
-0.184823 -0.144735 1.44539
-0.331182 -0.144663 1.36269
-0.307256 -0.144592 1.36514
-0.201217 -0.144519 1.40868
-0.124079 -0.144448 1.43776
-0.153464 -0.144376 1.41359
-0.173991 -0.144305 1.39384
-0.251633 -0.144269 1.3447
-0.357885 -0.144197 1.28212
-0.226031 -0.144126 1.33861
-0.267513 -0.144054 1.30844
-0.0361006 -0.143984 1.4147
-0.485813 -0.143913 1.18044
-0.329353 -0.143841 1.24927
-0.158073 -0.143773 1.32546
-0.238803 -0.143701 1.27572
-0.435607 -0.143666 1.16705
0.0177866 -0.143594 1.38439
-0.224338 -0.143528 1.25387
-0.121339 -0.143456 1.29603
-0.389192 -0.143385 1.15277
-0.050305 -0.14332 1.31274
-0.374837 -0.143249 1.14117
-0.461477 -0.143178 1.08856
-0.384369 -0.143142 1.11691
-0.243542 -0.143079 1.17784
-0.489762 -0.143008 1.04546
-0.412464 -0.142937 1.07485
-0.292347 -0.142875 1.12541
-0.0243432 -0.142804 1.25018
-0.193739 -0.142733 1.15625
-0.312205 -0.142698 1.08687
-0.0888412 -0.142638 1.18904
-0.350488 -0.142567 1.04902
-0.132976 -0.142496 1.14859
-0.0907337 -0.142425 1.16053
-0.338159 -0.142367 1.0273
-0.273579 -0.142332 1.04948
-0.346931 -0.142261 1.00366
0.0939369 -0.14219 1.21495
-0.242702 -0.142134 1.0371
-0.308123 -0.142064 0.995272
-0.420916 -0.141993 0.929765
-0.356373 -0.141922 0.952936
-0.128536 -0.141887 1.0568
-0.402335 -0.141832 0.910367
-0.123831 -0.141762 1.04055
-0.19041 -0.141691 0.998194
-0.163197 -0.141621 1.00275
-0.121663 -0.141568 1.01397
-0.511328 -0.141533 0.809125
-0.0799278 -0.141462 1.0158
-0.319774 -0.141392 0.886861
-0.0305797 -0.141341 1.0219
-0.355948 -0.141271 0.850218
-0.143011 -0.1412 0.947701
-0.286059 -0.141165 0.866206
-0.138533 -0.141095 0.931001
-0.0642093 -0.141046 0.958596
-0.186843 -0.140975 0.888329
-0.190402 -0.140905 0.877611
0.0755585 -0.140835 1.00166
-0.323616 -0.1408 0.792147
-0.230083 -0.140752 0.829337
-0.0151 -0.140682 0.927925
-0.0675818 -0.140612 0.892792
-0.285792 -0.140542 0.774805
-0.132112 -0.140507 0.841752
-0.028636 -0.140461 0.883903
-0.0509261 -0.140391 0.863901
-0.17908 -0.140321 0.790979
-0.275973 -0.140251 0.733697
-0.296162 -0.140181 0.714777
-0.137683 -0.140146 0.784166
-0.136021 -0.140102 0.775405
0.131036 -0.140032 0.900133
-0.354877 -0.139962 0.648388
-0.178062 -0.139893 0.728016
-0.158716 -0.139858 0.727872
-0.0197319 -0.139788 0.788604
-0.333475 -0.139746 0.622134
0.016684 -0.139676 0.78847
-0.329776 -0.139641 0.60545
-0.261685 -0.139571 0.63077
-0.362891 -0.139502 0.571452
-0.281276 -0.139432 0.603554
0.00105775 -0.139392 0.735116
-0.337216 -0.139357 0.556222
-0.230733 -0.139287 0.600783
-0.226287 -0.139218 0.594337
-0.263264 -0.139148 0.567189
-0.1803 -0.139078 0.600022
-0.303843 -0.139043 0.52853
-0.119056 -0.139005 0.611314
-0.178905 -0.138936 0.572764
-0.0592928 -0.138866 0.623956
-0.0590495 -0.138797 0.615474
-0.485468 -0.138762 0.392577
-0.2496 -0.138692 0.501925
-0.398372 -0.138623 0.418963
-0.236682 -0.138554 0.491243
-0.0777145 -0.138552 0.560017
-0.363878 -0.138483 0.408383
-0.134542 -0.138413 0.51451
-0.109735 -0.138344 0.518382
-0.196343 -0.138309 0.465445
0.161684 -0.13824 0.635945
0.0506188 -0.138171 0.571909
-0.215059 -0.138101 0.430576
-0.32459 -0.138032 0.367327
-0.300538 -0.137998 0.369757
-0.0819731 -0.137963 0.469441
-0.127499 -0.137894 0.438219
-0.135005 -0.137825 0.426016
-0.224683 -0.13779 0.371606
0.151459 -0.137721 0.551245
-0.125006 -0.137652 0.404591
-0.0994924 -0.137583 0.408936
-0.158304 -0.137549 0.369987
-0.364781 -0.13748 0.258355
-0.273451 -0.137411 0.295637
-0.221778 -0.137342 0.313099
-0.464036 -0.137307 0.182455
-0.0897965 -0.137275 0.359994
-0.388186 -0.137206 0.202449
-0.172664 -0.137137 0.30187
-0.315775 -0.137103 0.220824
-0.117636 -0.137034 0.311571
-0.460479 -0.136965 0.131837
-0.233292 -0.136896 0.237128
-0.133955 -0.136862 0.277334
-0.170038 -0.136793 0.251007
-0.105174 -0.136724 0.275163
-0.179463 -0.136656 0.229754
-0.207531 -0.136621 0.206285
-0.230711 -0.136553 0.186448
-0.28851 -0.136484 0.14931
-0.128554 -0.13645 0.219874
-0.146801 -0.136381 0.20253
-0.22735 -0.136312 0.154045
-0.187296 -0.136244 0.165871
-0.316871 -0.136209 0.0916974
-0.126234 -0.136141 0.178833
-0.0526395 -0.136072 0.207456
-0.165536 -0.136038 0.141642
-0.00129684 -0.13597 0.215606
-0.327468 -0.13594 0.0430098
-0.259517 -0.135872 0.0688445
-0.273154 -0.135837 0.0526839
-0.171669 -0.135769 0.0953028
-0.414115 -0.135701 -0.034034
-0.147818 -0.135666 0.0897928
-0.109588 -0.135598 0.100811
-0.120823 -0.13553 0.0871069
-0.0670066 -0.135462 0.105938
-0.21606 -0.135428 0.0221173
-0.0748765 -0.135359 0.0846493
-0.0513926 -0.135291 0.088341
-0.0786932 -0.135257 0.0654168
-0.146141 -0.135189 0.0236599
-0.143739 -0.140095 2.2711
-0.19833 -0.13949 2.24337
-0.33053 -0.139238 2.17018
-0.210317 -0.138895 2.22498
-0.107677 -0.13871 2.268
-0.27089 -0.138588 2.1769
-0.104568 -0.138406 2.25177
-0.276893 -0.138226 2.15731
-0.0119005 -0.138107 2.28034
-0.0978677 -0.137988 2.22791
-0.315113 -0.137869 2.10985
-0.176797 -0.137695 2.17069
-0.0371147 -0.137578 2.2311
-0.241816 -0.137462 2.11933
-0.246288 -0.137316 2.10831
-0.227934 -0.137201 2.10808
-0.134969 -0.137086 2.14516
0.142754 -0.136973 2.27463
-0.00130916 -0.13686 2.1932
0.0046322 -0.136749 2.18678
-0.317929 -0.136685 2.01514
-0.0101179 -0.136574 2.15968
-0.133264 -0.136463 2.08874
-0.115616 -0.136354 2.08819
-0.19904 -0.136289 2.0362
0.00229393 -0.13618 2.12751
-0.06553 -0.136073 2.08424
-0.0898379 -0.136007 2.06187
-0.0774834 -0.1359 2.0587
-0.0777077 -0.135834 2.04841
-0.216501 -0.135728 1.96968
0.115437 -0.135623 2.12632
-0.0759327 -0.135557 2.02049
-0.145188 -0.135454 1.97653
-0.318368 -0.135387 1.87982
-0.350394 -0.135285 1.85448
-0.0348342 -0.135219 2.00216
-0.0660507 -0.135118 1.97724
-0.211317 -0.135052 1.89453
-0.57428 -0.134952 1.70373
-0.188925 -0.134886 1.88636
-0.356283 -0.134788 1.79337
0.143277 -0.134721 2.03313
-0.438227 -0.134624 1.73306
-0.226312 -0.134558 1.82902
-0.120314 -0.134463 1.8727
-0.369264 -0.134397 1.73825
0.00842882 -0.134302 1.91778
-0.202779 -0.134236 1.80223
-0.0346312 -0.134144 1.87698
-0.164027 -0.134078 1.80236
-0.161294 -0.133986 1.7944
-0.166842 -0.13392 1.78173
-0.199772 -0.13383 1.75594
-0.388833 -0.133764 1.65153
-0.0174377 -0.133676 1.82789
-0.20841 -0.13361 1.72255
0.0460756 -0.133544 1.83995
-0.210293 -0.133457 1.70244
0.0676683 -0.133391 1.8316
-0.391395 -0.133305 1.59273
-0.219322 -0.13324 1.66897
-0.305572 -0.133174 1.61606
-0.00126759 -0.133108 1.75843
-0.376427 -0.133042 1.56109
-0.155025 -0.132974 1.66209
-0.170888 -0.132909 1.64442
-0.173986 -0.132843 1.63314
0.0726137 -0.132762 1.7471
-0.0848723 -0.132696 1.65864
-0.360708 -0.132617 1.51137
-0.099844 -0.132551 1.63212
-0.269663 -0.132486 1.53753
-0.0201215 -0.132408 1.65295
-0.273472 -0.132342 1.51662
-0.0604422 -0.132277 1.61349
-0.144253 -0.132211 1.56195
-0.399923 -0.132146 1.42449
-0.17938 -0.13208 1.52515
-0.322737 -0.132027 1.44355
-0.365393 -0.131962 1.41263
-0.230937 -0.131888 1.47049
-0.0647413 -0.131823 1.54401
0.151574 -0.131758 1.64261
-0.16659 -0.131686 1.47415
0.0394349 -0.131621 1.56762
-0.200239 -0.131555 1.43826
-0.148397 -0.131497 1.45449
-0.095743 -0.131431 1.47131
-0.362214 -0.131387 1.32801
-0.111455 -0.131322 1.44391
-0.0742158 -0.131254 1.45314
-0.0831526 -0.131189 1.43921
-0.0388668 -0.131122 1.45194
-0.216155 -0.131057 1.35385
-0.241551 -0.130993 1.33167
-0.129353 -0.130928 1.37835
-0.239757 -0.130863 1.31373
-0.0480687 -0.130829 1.39934
-0.251424 -0.130764 1.28827
-0.0760128 -0.130699 1.36659
-0.0612701 -0.130634 1.36459
-0.340049 -0.130569 1.21584
-0.128672 -0.130504 1.31217
-0.243971 -0.130439 1.24518
0.00243343 -0.130407 1.35815
-0.220815 -0.130343 1.23716
-0.471604 -0.130278 1.10245
-0.0304798 -0.130213 1.31371
-0.349049 -0.130151 1.14506
-0.192104 -0.130087 1.21425
-0.178472 -0.130022 1.21179
-0.151122 -0.129957 1.21621
-0.34883 -0.129929 1.10705
-0.18111 -0.129865 1.18166
-0.270265 -0.1298 1.12785
-0.0437219 -0.129735 1.2319
-0.095641 -0.129677 1.19656
-0.361228 -0.129612 1.05456
-0.289524 -0.129547 1.08122
-0.109872 -0.129515 1.16093
-0.335895 -0.129458 1.03852
-0.410894 -0.129394 0.991857
-0.336468 -0.129329 1.01992
-0.310168 -0.129265 1.02393
-0.239748 -0.129209 1.04973
-0.0931236 -0.129177 1.11296
-0.131965 -0.129113 1.08443
-0.259575 -0.129048 1.01152
-0.216375 -0.128994 1.0237
-0.340893 -0.12893 0.95236
-0.0641279 -0.128866 1.08167
-0.184844 -0.128801 1.01225
-0.13915 -0.128782 1.02469
-0.242609 -0.128717 0.963917
-0.317544 -0.128653 0.917413
-0.183446 -0.128589 0.975436
-0.33838 -0.128525 0.888953
-0.136554 -0.128506 0.979448
-0.0948883 -0.128442 0.991282
0.0762003 -0.128378 1.06784
-0.173625 -0.128314 0.933947
-0.305114 -0.128265 0.858757
0.0551677 -0.128201 1.02994
-0.117123 -0.128169 0.933842
-0.359035 -0.128105 0.803944
-0.177079 -0.128041 0.885992
-0.128166 -0.127994 0.900995
-0.402467 -0.12793 0.754932
0.0217768 -0.127866 0.958152
-0.0485025 -0.127834 0.913105
-0.105447 -0.12777 0.875749
-0.611175 -0.127706 0.614012
-0.36688 -0.12766 0.726704
-0.19594 -0.127597 0.803319
-0.110538 -0.127565 0.836147
-0.108912 -0.127501 0.828124
-0.273393 -0.127437 0.737057
-0.179989 -0.127393 0.774293
-0.320537 -0.127329 0.695211
-0.286639 -0.127298 0.702322
-0.221522 -0.127234 0.726091
-0.259891 -0.12717 0.698127
-0.243227 -0.127106 0.697689
-0.502217 -0.127064 0.558724
-0.504641 -0.127033 0.547708
-0.278843 -0.126969 0.651864
-0.2533 -0.126905 0.655901
-0.128523 -0.126842 0.709567
-0.0987183 -0.126778 0.715756
-0.266915 -0.126746 0.621891
-0.0708133 -0.126706 0.710471
-0.391867 -0.126642 0.541257
0.0226335 -0.126579 0.739829
-0.411041 -0.126516 0.514325
-0.530668 -0.126484 0.444779
-0.00820739 -0.12642 0.697361
-0.1532 -0.126357 0.616225
-0.13753 -0.126318 0.614588
-0.193393 -0.126287 0.57695
-0.158384 -0.126223 0.585841
-0.155703 -0.12616 0.578578
-0.140014 -0.126097 0.577829
-0.176936 -0.126033 0.550785
-0.369426 -0.126002 0.44487
-0.168436 -0.125938 0.5368
-0.0142013 -0.125901 0.604447
-0.406181 -0.125838 0.399909
-0.289183 -0.125807 0.448764
-0.137984 -0.125744 0.515833
-0.350988 -0.12568 0.400811
-0.0428112 -0.125617 0.54639
-0.0912919 -0.125586 0.512534
-0.263745 -0.125523 0.417815
-0.28376 -0.12546 0.399325
0.118802 -0.125424 0.591143
-0.0278272 -0.125393 0.508238
-0.237151 -0.12533 0.395118
-0.242647 -0.125267 0.383923
-0.0598973 -0.125204 0.46686
-0.0514191 -0.125141 0.462672
0.0399531 -0.125109 0.498804
-0.134857 -0.125047 0.402989
-0.189477 -0.124984 0.36728
0.0244861 -0.124921 0.465871
-0.170387 -0.124889 0.358909
-0.410066 -0.124827 0.230698
-0.21955 -0.124793 0.316512
-0.433795 -0.12473 0.201034
-0.373068 -0.124699 0.221897
-0.298314 -0.124636 0.250936
0.0537884 -0.124574 0.41866
-0.216441 -0.124542 0.274065
-0.111656 -0.12448 0.318147
-0.168253 -0.124417 0.281548
-0.426796 -0.124354 0.143986
-0.242809 -0.124323 0.226528
-0.0994038 -0.12426 0.289957
-0.116948 -0.124198 0.272922
-0.240079 -0.124135 0.203104
-0.291572 -0.124104 0.167934
-0.00699765 -0.124041 0.301985
0.0111441 -0.123979 0.302831
0.0489052 -0.123916 0.313496
-0.256318 -0.123885 0.151488
-0.102948 -0.123823 0.219975
-0.358868 -0.12376 0.0838267
-0.218946 -0.123729 0.144412
-0.0755271 -0.123667 0.207951
0.0530806 -0.123636 0.262881
-0.300228 -0.123573 0.0780718
-0.0285915 -0.123542 0.204539
-0.13711 -0.12348 0.142142
-0.236965 -0.123418 0.0840862
-0.363734 -0.123386 0.0113711
-0.134693 -0.123324 0.117781
-0.292329 -0.123262 0.030862
-0.350048 -0.1232 -0.00608883
-0.195952 -0.123169 0.061656
-0.266161 -0.123106 0.0184778
-0.0970612 -0.123044 0.0949634
-0.349965 -0.123013 -0.0407717
0.00465763 -0.122951 0.128493
-0.213264 -0.122889 0.0114952
-0.212624 -0.122858 0.00255189
-0.274914 -0.122796 -0.0366131
-0.117141 -0.125495 2.2492
0.202421 -0.125209 2.40322
-0.29869 -0.124955 2.14627
-0.154734 -0.124787 2.21004
-0.207257 -0.124621 2.17558
-0.222439 -0.124455 2.15978
-0.176713 -0.124345 2.17325
-0.266931 -0.124183 2.11994
-0.0987079 -0.124046 2.1953
-0.183469 -0.123886 2.1447
-0.0940192 -0.123779 2.18007
0.0365935 -0.123672 2.23603
-0.133059 -0.123566 2.14186
0.0347279 -0.123461 2.21642
-0.162344 -0.123356 2.10855
-0.2483 -0.123251 2.05625
-0.219263 -0.123148 2.06145
0.0288517 -0.123045 2.17619
-0.113603 -0.122986 2.09465
-0.127409 -0.122884 2.07845
0.184477 -0.122782 2.2251
-0.283175 -0.122681 1.98199
-0.138358 -0.122622 2.04415
-0.0443172 -0.122522 2.0819
-0.513385 -0.122461 1.83716
-0.17285 -0.122362 1.99817
-0.252375 -0.122264 1.94914
-0.367452 -0.122204 1.88143
-0.131063 -0.122107 1.99037
-0.239943 -0.122017 1.92651
-0.217917 -0.121921 1.92827
0.0374035 -0.121826 2.04668
-0.0406394 -0.121767 1.99756
-0.263463 -0.121673 1.87689
-0.374548 -0.12158 1.81209
-0.0638216 -0.12152 1.9574
-0.0300302 -0.121428 1.96504
-0.0763173 -0.121369 1.93186
-0.408535 -0.121278 1.7565
-0.0267442 -0.121218 1.93738
-0.225218 -0.121129 1.8289
0.029675 -0.121069 1.94635
-0.15029 -0.12101 1.84639
-0.206923 -0.120922 1.80884
-0.134484 -0.120862 1.83511
-0.24796 -0.120803 1.76843
0.05673 -0.120716 1.91156
-0.655381 -0.120656 1.54558
-0.127005 -0.120597 1.79987
-0.0672629 -0.120516 1.8204
0.0422262 -0.120456 1.86527
-0.0950923 -0.120373 1.78736
-0.289525 -0.120313 1.68029
-0.309937 -0.120231 1.66083
0.0885343 -0.120172 1.85023
-0.177449 -0.120113 1.70742
-0.103952 -0.120032 1.73493
-0.155349 -0.119973 1.69943
-0.00816313 -0.119893 1.76377
-0.205902 -0.119834 1.65513
-0.244197 -0.119756 1.62672
-0.19687 -0.119697 1.64063
-0.0106595 -0.119637 1.72399
-0.177131 -0.119561 1.63151
-0.378452 -0.119502 1.52113
-0.161519 -0.119442 1.61988
-0.242518 -0.119383 1.56968
-0.18957 -0.119337 1.5861
-0.29523 -0.119263 1.52401
-0.00964622 -0.119204 1.65714
-0.20193 -0.119145 1.55134
-0.18786 -0.119073 1.54911
-0.368996 -0.119014 1.44891
-0.388975 -0.118942 1.42965
-0.353705 -0.118883 1.43767
-0.260645 -0.118824 1.4746
-0.176389 -0.118765 1.50714
-0.429627 -0.118706 1.37094
-0.0692344 -0.118647 1.54157
-0.358543 -0.118597 1.3871
-0.448181 -0.118539 1.33273
-0.0840329 -0.11848 1.50527
-0.0551339 -0.118413 1.51043
0.0345216 -0.118354 1.54575
-0.128454 -0.118295 1.45475
-0.208669 -0.118229 1.40536
-0.338332 -0.118178 1.33084
-0.168675 -0.118119 1.40619
0.0380966 -0.11806 1.50012
-0.0126835 -0.118018 1.46477
-0.0975069 -0.11796 1.41291
-0.112787 -0.117897 1.39597
-0.178012 -0.117838 1.35393
-0.222369 -0.11778 1.32234
-0.293038 -0.117721 1.27761
-0.300951 -0.117663 1.26426
-0.0237577 -0.117608 1.39335
-0.281744 -0.117572 1.2543
-0.136672 -0.117512 1.31752
-0.406728 -0.117454 1.17314
-0.247456 -0.117395 1.24344
-0.519021 -0.117337 1.09833
-0.368947 -0.117278 1.16404
-0.242392 -0.11722 1.21801
-0.132616 -0.117161 1.2636
-0.173588 -0.117132 1.23292
-0.236321 -0.117074 1.19227
-0.0653464 -0.117016 1.26849
-0.185401 -0.116957 1.1992
0.00223369 -0.116899 1.28377
-0.115399 -0.11684 1.21572
-0.285686 -0.116813 1.12037
-0.160744 -0.116755 1.17362
-0.133862 -0.116696 1.17785
-0.486788 -0.116638 0.992193
-0.288541 -0.116583 1.08203
-0.119825 -0.116525 1.15721
-0.418867 -0.116466 0.998527
-0.270135 -0.116408 1.06374
-0.0859078 -0.116384 1.14561
-0.0585957 -0.116325 1.15013
-0.31885 -0.116267 1.01087
-0.147793 -0.116209 1.08728
-0.253539 -0.116157 1.02511
-0.405166 -0.116099 0.940201
-0.41182 -0.11607 0.926821
-0.277964 -0.116012 0.984669
-0.304614 -0.115954 0.962276
-0.0747681 -0.115903 1.0679
-0.093736 -0.115845 1.04937
0.0177407 -0.115787 1.09607
-0.122624 -0.115758 1.01587
-0.0642646 -0.115709 1.03574
-0.210139 -0.115651 0.953793
-0.103202 -0.115593 0.998261
-0.426681 -0.115535 0.827532
-0.0597799 -0.115506 1.00101
-0.370891 -0.115458 0.836136
-0.519964 -0.115401 0.752637
-0.134331 -0.115343 0.9365
-0.254205 -0.115285 0.867622
-0.159811 -0.115239 0.905489
-0.0781559 -0.11521 0.936385
-0.232839 -0.115152 0.850128
0.0702088 -0.115095 0.992748
-0.436954 -0.115037 0.730272
-0.0643553 -0.114979 0.907688
-0.113611 -0.114963 0.87271
-0.470909 -0.114906 0.685194
-0.0878704 -0.114848 0.867856
-0.218202 -0.114791 0.793843
-0.293471 -0.114733 0.747372
-0.157528 -0.114704 0.805485
-0.0818082 -0.114661 0.834012
-0.228842 -0.114603 0.751686
-0.378015 -0.114546 0.668299
-0.169911 -0.114489 0.763562
-0.372975 -0.114431 0.653251
-0.363078 -0.114402 0.648384
-0.400944 -0.114361 0.620115
-0.303158 -0.114303 0.660255
0.0280204 -0.114246 0.817102
0.0103438 -0.114189 0.799531
-0.383379 -0.11416 0.592889
-0.412931 -0.114103 0.569399
-0.22956 -0.114062 0.651744
-0.281505 -0.114005 0.617075
-0.0599878 -0.113976 0.71808
-0.219915 -0.113919 0.629438
-0.374007 -0.113862 0.543725
-0.160692 -0.113805 0.641725
-0.141008 -0.113748 0.64292
-0.162597 -0.113738 0.621706
-0.375564 -0.11368 0.50659
-0.120108 -0.113623 0.625697
-0.162358 -0.113566 0.59596
-0.340868 -0.113538 0.497014
-0.201334 -0.113481 0.558188
-0.437477 -0.113423 0.431533
-0.366867 -0.113366 0.458265
-0.299281 -0.113329 0.482723
-0.121666 -0.113301 0.561874
0.0471752 -0.113244 0.637746
-0.409439 -0.113187 0.400901
-0.0937375 -0.11313 0.550224
-0.170782 -0.113102 0.502074
-0.216169 -0.113045 0.470871
-0.100254 -0.112988 0.520329
-0.144768 -0.112931 0.489583
-0.240043 -0.112924 0.431499
-0.157381 -0.112867 0.464355
0.0113401 -0.11281 0.540251
-0.21515 -0.112753 0.418551
-0.422757 -0.112725 0.305174
-0.119645 -0.112668 0.448293
-0.218354 -0.112611 0.390513
0.00843044 -0.112555 0.495488
-0.0619285 -0.112526 0.450764
-0.155102 -0.11247 0.395778
-0.191183 -0.112413 0.369349
-0.133236 -0.112379 0.389013
-0.339826 -0.112351 0.276198
-0.223257 -0.112294 0.326119
-0.196623 -0.112238 0.331081
-0.230939 -0.112181 0.305579
-0.348743 -0.112153 0.237186
-0.232698 -0.112096 0.286882
-0.308985 -0.11204 0.240421
-0.540326 -0.111983 0.116445
-0.186478 -0.111955 0.283906
-0.286977 -0.111898 0.225367
-0.136792 -0.111842 0.292181
-0.427664 -0.111785 0.138476
-0.290269 -0.111757 0.197739
-0.286477 -0.111701 0.191383
-0.0238375 -0.111644 0.314461
-0.293333 -0.111616 0.170299
-0.179129 -0.11156 0.219178
-0.183767 -0.111528 0.207603
-0.406739 -0.111472 0.0879091
-0.316131 -0.111444 0.123824
-0.33954 -0.111387 0.103929
-0.0694426 -0.111331 0.230797
-0.204579 -0.111303 0.15386
-0.239338 -0.111247 0.128318
-0.11899 -0.11119 0.180339
-0.251163 -0.111134 0.106109
-0.296645 -0.111106 0.0740266
-0.157912 -0.11105 0.135267
0.0931651 -0.110994 0.25269
0.0871211 -0.110966 0.240347
-0.268001 -0.11091 0.0546873
-0.224675 -0.110854 0.0682615
-0.327204 -0.110797 0.00891806
-0.229526 -0.110769 0.0484636
-0.149608 -0.110713 0.0803608
-0.149406 -0.110657 0.0724102
-0.0719603 -0.110629 0.10186
-0.122473 -0.110573 0.068569
-0.214062 -0.110517 0.0147495
-0.161421 -0.110489 0.0318171
-0.147513 -0.110433 0.0307636
-0.0442176 -0.111506 2.25102
-0.0611708 -0.111252 2.23689
-0.295862 -0.110973 2.11452
-0.168512 -0.110823 2.17007
0.0233029 -0.110674 2.25786
-0.0243414 -0.110574 2.22471
0.093095 -0.110353 2.27716
0.0309987 -0.110255 2.2368
0.175851 -0.110157 2.29993
-0.168509 -0.11006 2.11847
-0.21488 -0.109917 2.08716
-0.322122 -0.109821 2.02427
0.0292937 -0.109725 2.19071
-0.255253 -0.10963 2.03918
-0.0284719 -0.109578 2.14222
-0.215794 -0.109483 2.03933
-0.194945 -0.109389 2.04053
-0.0464804 -0.109295 2.10554
-0.0493165 -0.109202 2.09491
0.0516667 -0.109109 2.13619
-0.108873 -0.109056 2.04569
-0.0360431 -0.108964 2.07292
-0.19374 -0.108873 1.98486
-0.00574263 -0.108757 2.07036
-0.301131 -0.108704 1.91249
0.0134598 -0.108615 2.06059
-0.23463 -0.108562 1.92639
-0.14066 -0.108474 1.96419
-0.575077 -0.108387 1.73779
-0.0571398 -0.108333 1.98665
-0.145007 -0.108247 1.93353
-0.0208089 -0.108194 1.98555
-0.109697 -0.108109 1.93192
-0.149803 -0.108056 1.90181
-0.318202 -0.107971 1.80844
0.0338403 -0.107888 1.97528
0.0839666 -0.107835 1.99033
0.056144 -0.107753 1.96724
-0.137564 -0.107699 1.86039
-0.252048 -0.107618 1.79398
-0.262581 -0.107565 1.77874
-0.127932 -0.107485 1.83689
-0.0264211 -0.107432 1.8777
-0.119469 -0.107352 1.82201
-0.362044 -0.1073 1.6908
0.0431983 -0.107221 1.88426
-0.14621 -0.107168 1.77965
-0.130184 -0.107091 1.7785
-0.135796 -0.107038 1.76582
-0.372687 -0.106985 1.63751
-0.372102 -0.106909 1.62865
-0.218313 -0.106857 1.6957
-0.171484 -0.106804 1.70929
-0.36386 -0.106751 1.60329
-0.271217 -0.106681 1.64031
-0.0601268 -0.106629 1.73607
-0.273517 -0.106576 1.61959
-0.449027 -0.106503 1.52267
-0.0647174 -0.10645 1.70507
-0.328597 -0.106379 1.56396
-0.198558 -0.106326 1.61925
-0.287354 -0.106274 1.56513
-0.299959 -0.106203 1.54966
-0.235082 -0.106151 1.5724
-0.107385 -0.106081 1.62708
-0.214171 -0.106029 1.56401
-0.179083 -0.105976 1.57189
-0.254806 -0.105924 1.52437
-0.232171 -0.105871 1.52604
0.0414369 -0.105818 1.65321
-0.387997 -0.105763 1.42898
-0.0492877 -0.10571 1.58872
-0.190212 -0.105645 1.50908
-0.185556 -0.105592 1.50182
-0.184692 -0.10554 1.49267
-0.124156 -0.105475 1.51376
-0.112482 -0.105423 1.51004
-0.556617 -0.10537 1.27842
-0.184342 -0.105318 1.45503
-0.309922 -0.105266 1.38271
-0.298042 -0.105229 1.37863
-0.340073 -0.105167 1.34842
-0.151735 -0.105115 1.4331
-0.171174 -0.105062 1.4139
-0.212335 -0.105002 1.38412
-0.220519 -0.10495 1.37057
-0.230349 -0.104897 1.3562
-0.181723 -0.104845 1.37108
-0.294828 -0.104793 1.3051
-0.189667 -0.10476 1.34761
-0.27073 -0.104702 1.29787
-0.477517 -0.104649 1.18508
-0.0506003 -0.104597 1.38915
-0.153924 -0.104545 1.32811
-0.262511 -0.104488 1.26461
-0.180275 -0.104436 1.29637
-0.0974348 -0.104389 1.32829
-0.125584 -0.104355 1.30425
-0.345479 -0.104303 1.18498
-0.0511233 -0.104251 1.32284
0.11324 -0.104199 1.39571
-0.229773 -0.104145 1.21499
-0.380709 -0.104093 1.13024
-0.235657 -0.104043 1.19341
-0.0962233 -0.103991 1.25387
-0.159668 -0.103962 1.21207
-0.190193 -0.10391 1.18757
-0.037614 -0.103858 1.25462
-0.142785 -0.103806 1.19281
-0.236827 -0.103754 1.13658
-0.246754 -0.103702 1.12241
-0.0692637 -0.103676 1.20102
-0.319673 -0.103625 1.06663
-0.257976 -0.103573 1.08831
-0.0774386 -0.103521 1.1694
-0.182795 -0.10347 1.10757
-0.303457 -0.103418 1.0381
-0.158681 -0.103366 1.10135
-0.178147 -0.10334 1.08154
-0.173833 -0.10329 1.07452
-0.269738 -0.103238 1.01746
-0.249479 -0.103187 1.0185
-0.49273 -0.103135 0.887794
-0.175964 -0.103086 1.03699
-0.182222 -0.103061 1.02383
-0.265665 -0.103009 0.973053
-0.27902 -0.102957 0.957332
-0.226114 -0.10291 0.974591
-0.346047 -0.102858 0.9056
-0.213661 -0.102807 0.96278
-0.131929 -0.102781 0.993655
0.00338445 -0.10273 1.05232
-0.178837 -0.102684 0.95201
-0.203227 -0.102632 0.930839
-0.430378 -0.102581 0.8083
-0.296783 -0.102529 0.866143
-0.0555812 -0.102503 0.976798
-0.162499 -0.102459 0.914138
0.0204945 -0.102407 0.996707
0.00105738 -0.102356 0.978072
-0.198689 -0.102305 0.869293
-0.248891 -0.102279 0.834282
-0.176039 -0.102236 0.861501
-0.360685 -0.102184 0.760299
-0.229915 -0.102133 0.816816
-0.442396 -0.102082 0.701717
-0.346504 -0.102056 0.739789
-0.270929 -0.102014 0.768363
-0.274275 -0.101963 0.757858
-0.528567 -0.101912 0.621891
-0.162669 -0.10186 0.79603
0.092419 -0.101835 0.913735
-0.199288 -0.101784 0.759089
-0.245876 -0.101743 0.72658
-0.47096 -0.101692 0.605265
-0.0521123 -0.101641 0.805926
-0.356504 -0.101615 0.643926
0.00549482 -0.101564 0.816181
-0.406211 -0.101513 0.601593
-0.00717261 -0.101474 0.791896
-0.344892 -0.101423 0.61432
0.00121309 -0.101397 0.777604
-0.168774 -0.101346 0.683912
0.0437505 -0.101295 0.781487
0.0601352 -0.101244 0.781002
-0.142255 -0.101193 0.671139
-0.238247 -0.101168 0.613412
-0.0422001 -0.10113 0.702227
-0.427469 -0.101079 0.500952
-0.278812 -0.101028 0.566649
-0.403312 -0.101003 0.494695
-0.352681 -0.100952 0.511397
-0.267799 -0.100901 0.545236
-0.259234 -0.10085 0.540926
-0.0719421 -0.100839 0.624272
-0.353162 -0.100789 0.475085
-0.250687 -0.100738 0.517756
-0.0233074 -0.100687 0.622889
-0.352916 -0.100636 0.449538
-0.215655 -0.100611 0.508527
-0.0279235 -0.10056 0.593865
-0.214521 -0.100509 0.492048
-0.267641 -0.100459 0.45698
-0.315901 -0.100449 0.42254
-0.134926 -0.100399 0.504535
-0.186884 -0.100348 0.470073
-0.126677 -0.100297 0.491704
-0.236679 -0.100272 0.427116
-0.148946 -0.100221 0.462528
-0.0855192 -0.100171 0.485797
0.00551037 -0.10012 0.522877
-0.0220516 -0.100095 0.499538
-0.114276 -0.100044 0.44501
-0.420795 -0.0999938 0.283344
-0.078744 -0.0999605 0.445195
-0.430274 -0.0999353 0.259898
-0.175045 -0.0998848 0.37913
-0.390435 -0.0998344 0.263064
0.00343712 -0.0997839 0.451638
-0.148476 -0.0997587 0.366178
-0.164575 -0.0997083 0.349785
-0.291144 -0.0996579 0.278167
-0.0965054 -0.0996076 0.367162
-0.0366405 -0.0995824 0.38762
-0.135432 -0.099532 0.329918
-0.158483 -0.0994817 0.310096
-0.374069 -0.0994565 0.192849
-0.238655 -0.0994062 0.252277
-0.281332 -0.0993559 0.222671
-0.258418 -0.0993243 0.224995
-0.144938 -0.0992992 0.272306
-0.0963598 -0.099249 0.288351
-0.162489 -0.0991988 0.247052
-0.484295 -0.0991486 0.0779249
-0.377869 -0.0991235 0.121737
-0.168999 -0.0990733 0.217965
-0.222092 -0.0990231 0.183222
-0.263622 -0.0989981 0.153076
-0.189461 -0.0989479 0.181978
-0.232272 -0.0988978 0.152403
-0.158853 -0.0988477 0.180953
-0.153759 -0.0988227 0.174147
-0.232327 -0.0987726 0.126722
-0.176916 -0.0987226 0.146295
-0.167603 -0.0986976 0.141619
-0.135363 -0.0986475 0.149625
0.0110443 -0.0985975 0.214724
-0.31413 -0.0985725 0.0428246
-0.131617 -0.0985226 0.125994
-0.374316 -0.0984726 -0.00343309
-0.258758 -0.0984226 0.0462781
-0.283418 -0.0983977 0.024664
-0.335964 -0.0983478 -0.00965938
-0.237971 -0.0982979 0.0312964
-0.182561 -0.0982729 0.0497375
-0.398383 -0.098223 -0.0661964
-0.111006 -0.0981732 0.0694783
-0.205825 -0.0981483 0.0128252
-0.378088 -0.0980984 -0.0813026
0.141131 -0.0973464 2.30236
-0.236206 -0.0970569 2.11008
-0.113371 -0.096924 2.16346
-0.157468 -0.0967917 2.13339
-0.187514 -0.0966605 2.11036
0.124129 -0.0965076 2.25882
0.163477 -0.0964201 2.26927
-0.113789 -0.0962919 2.12262
-0.112443 -0.0962054 2.11409
-0.0281262 -0.0961193 2.14705
-0.0966813 -0.0960335 2.10359
-0.0952412 -0.095948 2.09513
-0.305476 -0.095863 1.98084
0.084437 -0.0957784 2.16664
-0.0449601 -0.0956942 2.09279
-0.289729 -0.0956106 1.96126
0.0409426 -0.0955631 2.11637
0.232667 -0.0954798 2.20311
0.00115041 -0.0953747 2.07892
-0.0927884 -0.0952936 2.0228
-0.0799608 -0.0952131 2.02007
-0.565265 -0.0951665 1.76724
-0.143142 -0.0950867 1.96917
-0.162196 -0.0950076 1.95051
-0.0190051 -0.094961 2.01198
0.00234381 -0.0948827 2.01353
-0.0503067 -0.0948361 1.97709
0.0163749 -0.0947585 2.00132
-0.164517 -0.0946816 1.90176
-0.224988 -0.094635 1.86146
-0.208423 -0.094559 1.86063
-0.0237599 -0.0945124 1.94292
0.0100666 -0.0944372 1.95074
-0.205665 -0.0943907 1.83285
-0.100385 -0.0943162 1.8764
-0.134621 -0.0942426 1.85018
-0.085113 -0.0941961 1.86496
-0.244437 -0.0941233 1.7762
-0.0546317 -0.0940769 1.86115
-0.237619 -0.094005 1.76056
-0.289177 -0.0939586 1.72485
-0.384149 -0.0938876 1.66828
-0.282779 -0.0938412 1.70906
-0.128845 -0.0937711 1.77694
-0.0703642 -0.0937247 1.7963
-0.145778 -0.0936555 1.7495
-0.0998776 -0.0936092 1.7626
-0.09924 -0.0935629 1.75307
0.13397 -0.0934946 1.8606
-0.227482 -0.0934484 1.67006
-0.172952 -0.093381 1.68824
-0.38675 -0.0933348 1.57155
-0.417551 -0.0932684 1.54707
-0.310963 -0.0932222 1.59059
-0.0321042 -0.093176 1.72026
-0.599316 -0.0931298 1.42691
-0.292883 -0.0930836 1.57039
-0.351644 -0.0930231 1.53179
-0.409889 -0.092977 1.49295
-0.315022 -0.0929136 1.5313
-0.110689 -0.0928675 1.62377
-0.0701159 -0.0928214 1.63438
-0.250672 -0.092759 1.53502
-0.233874 -0.0927129 1.53376
-0.202862 -0.0926516 1.54018
-0.115031 -0.0926055 1.57446
-0.240243 -0.0925595 1.50223
-0.0986144 -0.0925135 1.56343
-0.00901328 -0.0924675 1.59863
-0.141231 -0.0924215 1.52293
-0.295185 -0.092371 1.43654
-0.368737 -0.092325 1.3902
-0.300651 -0.0922791 1.41468
-0.293088 -0.0922209 1.40938
-0.379435 -0.092175 1.35667
-0.272605 -0.0921291 1.40056
0.084005 -0.092072 1.56977
-0.423143 -0.0920261 1.3067
-0.321422 -0.0919915 1.34764
-0.227014 -0.0919456 1.38536
-0.210197 -0.0919013 1.38424
-0.26852 -0.0918555 1.34562
-0.0798081 -0.0918006 1.43088
0.0352844 -0.0917548 1.47899
-0.438184 -0.091709 1.23282
-0.069019 -0.0916552 1.4083
-0.028987 -0.0916095 1.41891
0.0809946 -0.0915718 1.46419
-0.307442 -0.0915261 1.26059
-0.242502 -0.0914882 1.28338
-0.0805466 -0.0914425 1.35499
-0.253721 -0.0913969 1.25905
-0.374436 -0.0913452 1.18959
-0.142877 -0.0912996 1.29603
-0.446093 -0.091254 1.1351
-0.0667935 -0.0912143 1.3152
-0.271102 -0.0911687 1.20375
-0.169836 -0.0911352 1.24461
-0.251144 -0.0910896 1.19467
-0.0658322 -0.0910402 1.27821
-0.0557006 -0.0909947 1.27401
-0.361218 -0.0909492 1.112
-0.00466517 -0.0909075 1.28089
0.0616657 -0.090862 1.30482
-0.190491 -0.0908328 1.16886
-0.18766 -0.0907874 1.16106
-0.573454 -0.0907402 0.959033
-0.187512 -0.0906949 1.14281
-0.0633236 -0.0906495 1.19573
-0.246924 -0.0906057 1.09469
-0.246536 -0.0905808 1.08487
-0.226321 -0.0905355 1.08582
-0.266309 -0.0904901 1.05669
-0.128937 -0.0904448 1.11625
-0.187328 -0.0903995 1.07793
-0.262217 -0.0903542 1.03138
-0.275289 -0.0903315 1.01478
-0.212108 -0.0902863 1.03728
-0.275657 -0.090241 0.996426
-0.250445 -0.0901957 0.999964
-0.275024 -0.0901504 0.978616
-0.0791482 -0.0901059 1.06748
-0.130446 -0.0900833 1.03181
-0.026783 -0.090038 1.07461
-0.102555 -0.0899928 1.02771
-0.313449 -0.0899476 0.913251
-0.146812 -0.0899043 0.987492
-0.385435 -0.0898591 0.859192
-0.162143 -0.0898366 0.960865
-0.256892 -0.0897914 0.904521
-0.419353 -0.0897463 0.814331
-0.125884 -0.0897041 0.951986
-0.0316812 -0.089659 0.990147
-0.471154 -0.0896365 0.760475
-0.404317 -0.0895914 0.784972
-0.101222 -0.0895464 0.927609
-0.0774216 -0.0895054 0.930426
-0.240658 -0.0894604 0.839917
-0.30325 -0.0894154 0.799739
-0.222414 -0.0893929 0.830266
-0.189347 -0.0893479 0.837937
-0.0123018 -0.0893081 0.917372
-0.0277989 -0.0892632 0.90078
-0.061035 -0.0892183 0.875329
-0.10678 -0.0891958 0.842601
-0.223276 -0.0891509 0.775539
-0.293282 -0.089106 0.731732
-0.318638 -0.0890675 0.709967
-0.140077 -0.0890226 0.790463
-0.137792 -0.0890002 0.781786
-0.206587 -0.0889554 0.738621
-0.420852 -0.0889105 0.622733
-0.224319 -0.0888657 0.712254
-0.400164 -0.0888508 0.61419
-0.251558 -0.088806 0.679763
-0.207033 -0.0887613 0.693307
-0.12445 -0.0887165 0.725889
-0.130847 -0.0886718 0.713992
-0.311008 -0.0886494 0.614157
0.0584833 -0.0886047 0.790222
-0.108524 -0.0885686 0.697637
-0.340536 -0.088524 0.572969
-0.239133 -0.0884793 0.615019
-0.111253 -0.088457 0.669239
-0.384115 -0.0884124 0.524174
-0.311442 -0.0883677 0.551888
-0.138269 -0.0883231 0.629862
-0.286208 -0.0883106 0.545726
-0.202103 -0.088266 0.579182
-0.21032 -0.0882215 0.566486
-0.0186656 -0.0881769 0.653737
-0.043385 -0.0881547 0.631713
-0.222676 -0.0881101 0.53351
-0.0825103 -0.0880656 0.595044
-0.322598 -0.0880211 0.466462
-0.417814 -0.0879989 0.40922
-0.255547 -0.0879654 0.481287
-0.219293 -0.0879209 0.490902
-0.461382 -0.0878765 0.361356
-0.257361 -0.0878321 0.454875
-0.266212 -0.0878099 0.440848
-0.378047 -0.0877655 0.376457
-0.0434196 -0.0877211 0.535307
-0.283563 -0.0876767 0.406782
-0.156041 -0.0876546 0.460971
-0.172789 -0.0876102 0.444161
-0.0654341 -0.087578 0.488793
-0.259485 -0.0875337 0.383349
-0.198177 -0.0875116 0.404458
-0.379279 -0.0874673 0.305506
-0.0783162 -0.0874231 0.447598
-0.135354 -0.0873788 0.410699
-0.145861 -0.0873567 0.395928
-0.379246 -0.0873125 0.270874
-0.127979 -0.0872683 0.388155
-0.00829785 -0.0872462 0.438499
-0.244505 -0.087202 0.312062
-0.269197 -0.0871578 0.291392
-0.370562 -0.0871136 0.232395
-0.0836392 -0.087105 0.365682
-0.323687 -0.0870608 0.237358
-0.334847 -0.0870167 0.223489
-0.169961 -0.0869726 0.297653
-0.282599 -0.0869506 0.231892
-0.148324 -0.0869065 0.290767
-0.290709 -0.0868625 0.211324
-0.481591 -0.0868405 0.106461
-0.160275 -0.0867964 0.258885
-0.394119 -0.0867524 0.133739
-0.199169 -0.0867084 0.223
-0.466275 -0.0866864 0.0800536
-0.263556 -0.0866424 0.173217
-0.12305 -0.0865985 0.235283
-0.183608 -0.0865765 0.195632
-0.0315313 -0.0865326 0.263501
-0.0925822 -0.0864886 0.224816
-0.0815432 -0.0864447 0.222187
-0.132644 -0.0864228 0.187292
-0.34507 -0.0863789 0.0729468
-0.32058 -0.086335 0.0770704
-0.0103727 -0.0863131 0.22285
-0.387186 -0.0862692 0.0263388
-0.100438 -0.0862254 0.161618
-0.191128 -0.0861815 0.108189
-0.0708671 -0.0861596 0.159023
-0.341547 -0.0861158 0.015616
-0.0829372 -0.0860721 0.136863
-0.194612 -0.0860502 0.0717497
-0.307173 -0.0860064 0.00742944
-0.332154 -0.0859627 -0.0130913
-0.363631 -0.0859408 -0.0380851
-0.346678 -0.0858971 -0.0376217
-0.454638 -0.0858534 -0.0996045
-0.32986 -0.0858315 -0.0464512
-0.138257 -0.0857878 0.0413645
-0.0260624 -0.083284 2.1765
0.0757796 -0.0830355 2.22398
0.159874 -0.0829211 2.2581
-0.255561 -0.0828073 2.04246
-0.0619061 -0.0826744 2.13206
-0.0459095 -0.0825982 2.13091
0.0412926 -0.0824867 2.16661
0.037412 -0.0824113 2.15554
-0.0832314 -0.0823361 2.08611
-0.18015 -0.0822612 2.02855
-0.0850536 -0.0821865 2.06701
-0.328085 -0.0821122 1.93642
0.176119 -0.0820382 2.17945
-0.112513 -0.0819646 2.02608
0.0730409 -0.0818926 2.10976
-0.145075 -0.0818011 1.99232
0.0191804 -0.0817301 2.06536
-0.131711 -0.08169 1.97973
0.0524315 -0.0816195 2.06273
-0.228334 -0.0815495 1.91327
-0.106352 -0.0815095 1.96412
-0.23416 -0.0814401 1.89116
-0.182936 -0.0813712 1.90771
0.0635978 -0.0813312 2.02087
-0.0443586 -0.081263 1.95785
-0.26445 -0.0811953 1.83876
-0.109559 -0.0811553 1.90614
-0.0664369 -0.0810883 1.91867
0.0450874 -0.0810219 1.96539
-0.00821972 -0.080982 1.92871
0.013148 -0.0809162 1.93036
-0.116216 -0.0808763 1.85568
-0.124469 -0.0808112 1.84253
-0.0135413 -0.0807714 1.88802
-0.022655 -0.080707 1.87445
-0.187636 -0.0806671 1.78201
0.116347 -0.0806035 1.92499
-0.169232 -0.0805636 1.77228
-0.105943 -0.0805007 1.79492
-0.123441 -0.0804384 1.77715
-0.484742 -0.0803986 1.58662
-0.284664 -0.0803371 1.67764
0.0195231 -0.0802974 1.81988
-0.172629 -0.0802576 1.71395
-0.0615231 -0.0801969 1.76051
-0.268164 -0.0801572 1.64736
-0.185639 -0.0800972 1.67963
-0.193266 -0.0800575 1.66602
-0.161089 -0.0799984 1.67311
-0.376119 -0.0799587 1.55582
-0.0546451 -0.0799003 1.70755
-0.1017 -0.0798607 1.67427
-0.169181 -0.0798031 1.63153
-0.541024 -0.0797635 1.43588
-0.33315 -0.0797239 1.5301
-0.0633956 -0.0796843 1.65528
-0.119385 -0.0796447 1.61759
-0.146789 -0.0796051 1.5942
0.00100835 -0.079552 1.659
-0.0294902 -0.0795124 1.63409
-0.180078 -0.0794574 1.5498
-0.480616 -0.0794179 1.38989
-0.390185 -0.0793637 1.42611
0.0838654 -0.0793242 1.65352
-0.0765892 -0.0792848 1.56369
-0.0883531 -0.0792315 1.54881
-0.319811 -0.079192 1.4235
-0.28264 -0.0791526 1.43252
-0.230252 -0.0791131 1.44915
-0.0295792 -0.0790805 1.53965
-0.289823 -0.0790411 1.39999
-0.187462 -0.0789896 1.44217
-0.0947202 -0.0789502 1.47903
-0.2123 -0.0789108 1.41074
-0.23333 -0.0788602 1.39123
-0.0929936 -0.0788209 1.45191
-0.21017 -0.0787712 1.38432
-0.298039 -0.0787423 1.33046
-0.0769249 -0.0787029 1.43157
-0.270404 -0.078673 1.32497
-0.132106 -0.0786242 1.38512
-0.222166 -0.078585 1.33067
-0.258906 -0.0785457 1.3029
-0.174608 -0.0784979 1.33604
-0.21577 -0.0784587 1.30607
0.00332508 -0.0784195 1.40625
-0.129331 -0.0783888 1.33017
-0.185233 -0.0783495 1.29286
-0.340924 -0.0783138 1.20551
-0.335838 -0.0782747 1.19873
-0.218758 -0.0782287 1.24826
-0.309167 -0.0781896 1.19374
-0.284967 -0.0781505 1.19654
-0.353668 -0.0781114 1.1529
-0.29091 -0.0780789 1.17469
-0.314542 -0.0780469 1.15327
-0.265348 -0.0780078 1.16861
-0.113619 -0.0779638 1.23546
-0.093634 -0.0779248 1.23621
-0.120115 -0.0778857 1.21374
-0.120842 -0.0778467 1.20416
-0.117841 -0.0778125 1.19622
-0.152656 -0.0777842 1.1691
-0.100579 -0.0777452 1.18595
-0.139503 -0.0777032 1.15746
0.0921144 -0.0776642 1.2641
-0.247351 -0.0776253 1.08521
-0.187731 -0.0775894 1.10573
-0.0665658 -0.0775669 1.15637
-0.202614 -0.0775258 1.07932
-0.256182 -0.0774869 1.04342
-0.339535 -0.0774481 0.992639
-0.221691 -0.077408 1.04252
-0.284445 -0.0773703 1.002
-0.300963 -0.0773335 0.98457
0.0740416 -0.0773109 1.16219
-0.108469 -0.0772721 1.06188
-0.153294 -0.077233 1.03043
-0.494288 -0.0771942 0.850901
-0.168151 -0.0771556 1.00493
-0.454807 -0.0771361 0.851615
-0.261779 -0.0770973 0.939122
-0.216496 -0.0770585 0.952766
-0.114878 -0.0770198 0.99459
-0.124631 -0.076981 0.980738
-0.128443 -0.0769617 0.968869
-0.0848976 -0.0769229 0.981685
-0.485799 -0.0768842 0.772288
-0.193219 -0.0768455 0.909643
-0.131597 -0.0768077 0.931484
-0.102081 -0.076769 0.937327
-0.368296 -0.0767497 0.794301
-0.345403 -0.076711 0.79685
-0.305372 -0.0766724 0.807979
-0.0743711 -0.0766356 0.914507
-0.0907713 -0.076597 0.89744
-0.0952953 -0.0765777 0.885297
-0.18679 -0.0765391 0.830701
-0.340178 -0.0765005 0.745169
-0.242239 -0.0764619 0.785311
-0.0301535 -0.0764261 0.882386
-0.115262 -0.0764069 0.829987
-0.0937991 -0.0763683 0.831918
