ply
format ascii 1.0
comment Created by Open3D
element vertex 1703
property double x
property double y
property double z
end_header
-0.111247 -0.364845 1.91979
-0.194762 -0.364748 1.86729
-0.184451 -0.364574 1.86236
-0.0471558 -0.364481 1.92026
0.0414677 -0.364307 1.9545
-0.118717 -0.364217 1.86364
-0.168677 -0.36413 1.82787
-0.343403 -0.363957 1.73046
-0.0660204 -0.36387 1.85837
-0.159343 -0.363788 1.80091
-0.140822 -0.363701 1.7994
-0.129651 -0.363535 1.79491
-0.0286005 -0.363448 1.83469
-0.178255 -0.363286 1.74977
-0.0783508 -0.363214 1.78886
-0.190534 -0.36304 1.7228
-0.0511872 -0.362971 1.78159
-0.176548 -0.362885 1.70819
-0.30339 -0.362732 1.63464
-0.113523 -0.362756 1.71788
-0.212428 -0.362583 1.6585
-0.153246 -0.362523 1.67715
-0.142327 -0.362351 1.67269
-0.0355329 -0.362294 1.71513
-0.213466 -0.362208 1.61548
-0.091805 -0.362068 1.66612
-0.113464 -0.362017 1.6443
-0.0937987 -0.361931 1.64347
-0.117685 -0.361796 1.6213
-0.0229375 -0.361837 1.65685
-0.0612922 -0.361665 1.62782
-0.0862714 -0.361622 1.60428
-0.118845 -0.361582 1.57692
-0.0317729 -0.361496 1.60982
-0.191403 -0.361373 1.51973
-0.225162 -0.361338 1.49174
-0.112165 -0.361305 1.53712
-0.119869 -0.361219 1.52264
-0.10073 -0.361188 1.52107
0.000889983 -0.36116 1.56073
-0.0801489 -0.361134 1.50903
-0.126945 -0.36111 1.47444
0.0666521 -0.361024 1.56063
-0.0146626 -0.361152 1.50731
0.163985 -0.361067 1.58604
-0.153509 -0.361048 1.41605
-0.198115 -0.361031 1.38249
0.0518901 -0.361172 1.49469
0.112629 -0.36116 1.51375
0.00666198 -0.361234 1.44861
0.0747058 -0.361385 1.46971
-0.0491329 -0.361791 1.39234
-0.141454 -0.367406 2.70795
-0.033165 -0.366609 2.75487
0.0861472 -0.365994 2.80624
-0.162385 -0.365387 2.67367
-0.264438 -0.364792 2.61432
-0.254663 -0.36453 2.60885
-0.0349606 -0.36411 2.70934
-0.143828 -0.363748 2.64522
-0.13811 -0.363342 2.63868
-0.0727053 -0.362945 2.66197
-0.330632 -0.362697 2.52266
-0.0921157 -0.362313 2.63246
-0.13838 -0.362072 2.59898
-0.131497 -0.361832 2.59207
-0.28348 -0.361467 2.50657
-0.412315 -0.361234 2.43179
-0.128643 -0.361004 2.56327
-0.184468 -0.360716 2.5254
-0.154292 -0.360494 2.53011
-0.16833 -0.360274 2.51271
-0.121074 -0.360057 2.52596
-0.201357 -0.359744 2.47609
-0.0328223 -0.359536 2.54995
-0.14775 -0.359421 2.48145
-0.272782 -0.359215 2.40853
-0.148591 -0.359011 2.46022
-0.141183 -0.358811 2.45352
-0.177973 -0.358613 2.4247
-0.174409 -0.358418 2.41606
-0.229205 -0.358227 2.37822
-0.15637 -0.358038 2.4042
-0.291014 -0.357913 2.32599
-0.121162 -0.357731 2.40045
-0.206845 -0.357548 2.34716
-0.169778 -0.357368 2.35523
-0.204121 -0.357191 2.32759
-0.162557 -0.357018 2.33789
-0.130709 -0.356892 2.343
-0.254037 -0.356721 2.27085
-0.151551 -0.356554 2.3116
-0.13985 -0.35639 2.30694
-0.141827 -0.356229 2.29543
-0.0659962 -0.356072 2.32281
-0.229118 -0.355941 2.23052
-0.0208368 -0.355787 2.32412
-0.16677 -0.355636 2.2406
-0.180085 -0.355488 2.22338
-0.276644 -0.355344 2.16451
-0.0386179 -0.355204 2.27292
-0.257882 -0.355068 2.15265
-0.0869332 -0.35493 2.22752
-0.286891 -0.354793 2.11694
-0.124629 -0.354585 2.18802
-0.142531 -0.354449 2.16848
-0.263703 -0.354379 2.09679
-0.272167 -0.354176 2.08251
-0.128733 -0.354046 2.14362
-0.147482 -0.35392 2.12361
-0.156576 -0.353777 2.10857
-0.0708127 -0.353653 2.14081
0.00855275 -0.353508 2.17004
-0.257401 -0.353387 2.02642
-0.208136 -0.353241 2.04062
-0.233015 -0.353049 2.01813
-0.198101 -0.352934 2.02492
-0.102361 -0.352785 2.06241
-0.19517 -0.352673 2.00534
-0.374497 -0.352523 1.90533
-0.141268 -0.352413 2.01127
-0.302556 -0.352261 1.92031
0.0349348 -0.352155 2.07837
-0.210254 -0.352001 1.94549
0.151901 -0.351883 2.116
0.0451204 -0.351714 2.05246
-0.215326 -0.3516 1.91166
-0.162718 -0.351489 1.92735
-0.259283 -0.351321 1.86896
-0.0518583 -0.351213 1.96204
-0.193139 -0.351045 1.88131
-0.181447 -0.350942 1.87652
-0.183991 -0.350774 1.86517
-0.257048 -0.350674 1.81798
-0.156031 -0.350506 1.85844
-0.0932781 -0.35041 1.87914
-0.225988 -0.350243 1.80275
-0.416525 -0.35015 1.69679
-0.304868 -0.349982 1.7426
0.03704 -0.349977 1.9021
-0.102459 -0.349726 1.8231
-0.228348 -0.349724 1.74868
-0.00314879 -0.349557 1.85129
-0.0518257 -0.349474 1.81621
-0.289767 -0.349307 1.68727
-0.285725 -0.349228 1.67854
-0.23683 -0.349061 1.69303
-0.147412 -0.348986 1.72697
-0.190345 -0.348902 1.6948
-0.154528 -0.348746 1.70268
-0.0262111 -0.348663 1.75615
-0.300993 -0.348511 1.60872
-0.202477 -0.348528 1.64637
-0.071581 -0.348361 1.70192
-0.0849354 -0.348278 1.68458
-0.0852968 -0.348132 1.67433
-0.108334 -0.348072 1.65194
-0.0817631 -0.347989 1.65458
-0.197729 -0.347849 1.5865
-0.0535185 -0.347766 1.64797
-0.125885 -0.347629 1.60167
-0.132216 -0.347661 1.58678
-0.139425 -0.347495 1.57335
-0.0469613 -0.347447 1.60863
0.0961404 -0.347364 1.66957
0.00325522 -0.347235 1.61297
-0.00830605 -0.347192 1.5962
0.0125674 -0.347109 1.59605
-0.0636882 -0.346986 1.54773
-0.112151 -0.346948 1.51247
-0.0662868 -0.346865 1.52482
-0.196055 -0.34683 1.4489
-0.140949 -0.346747 1.46588
-0.0648131 -0.346631 1.49371
0.0504715 -0.3466 1.54028
-0.180041 -0.346572 1.41392
-0.251852 -0.346489 1.36747
-0.143727 -0.346462 1.41041
-0.122381 -0.346438 1.40995
0.0725202 -0.346415 1.49625
0.00454251 -0.346332 1.45173
-0.198299 -0.346311 1.33914
0.00792149 -0.346292 1.43107
-0.004394 -0.346424 1.41218
-0.277271 -0.346341 1.26521
-0.13508 -0.346327 1.32508
-0.051427 -0.346467 1.35406
-0.150768 -0.346456 1.29312
0.0727856 -0.346603 1.39197
-0.0458126 -0.346835 1.31882
0.170014 -0.347231 1.41116
-0.040598 -0.354705 2.73727
-0.0512062 -0.353206 2.72937
-0.13135 -0.352269 2.68322
-0.0719668 -0.351676 2.70468
-0.0749437 -0.351252 2.69391
-0.136911 -0.350724 2.65435
-0.131272 -0.350312 2.64787
-0.131815 -0.349907 2.63829
-0.0799381 -0.349508 2.6549
-0.241796 -0.349116 2.56463
-0.276188 -0.348733 2.53806
-0.118238 -0.348492 2.60673
-0.179095 -0.348121 2.56689
-0.359712 -0.347886 2.46627
-0.294091 -0.347654 2.48878
-0.330894 -0.347423 2.46007
-0.188633 -0.347129 2.52135
-0.1403 -0.346906 2.53519
-0.223372 -0.346684 2.48334
-0.279351 -0.346359 2.44577
-0.0811395 -0.346145 2.53454
-0.0765469 -0.345935 2.52649
-0.366004 -0.345726 2.37141
-0.139683 -0.34552 2.47422
-0.386277 -0.345317 2.34057
0.0108454 -0.345117 2.52877
-0.346121 -0.344919 2.33991
-0.0804845 -0.344724 2.46236
-0.15114 -0.34459 2.41622
-0.192169 -0.344402 2.38531
-0.237722 -0.344216 2.35213
-0.273018 -0.344033 2.32407
-0.133113 -0.343854 2.38359
-0.300526 -0.343673 2.28948
-0.182255 -0.343496 2.33821
-0.0654985 -0.343374 2.38576
-0.309061 -0.343198 2.25357
-0.245376 -0.343026 2.27499
-0.133243 -0.342857 2.32063
-0.358455 -0.342691 2.19757
-0.248497 -0.342528 2.24209
-0.239353 -0.342402 2.23594
-0.305619 -0.342242 2.19234
-0.193655 -0.342085 2.23785
-0.0686237 -0.341932 2.28988
-0.118302 -0.341782 2.25453
-0.129535 -0.341652 2.23826
-0.241595 -0.341504 2.17173
-0.185043 -0.34136 2.18948
-0.354 -0.341173 2.09483
-0.091005 -0.341082 2.21541
-0.139186 -0.340948 2.18074
-0.210761 -0.340749 2.13491
-0.193695 -0.34061 2.13293
-0.412927 -0.340473 2.01279
-0.14648 -0.340336 2.13551
-0.0731663 -0.340202 2.16163
-0.242021 -0.340063 2.06673
0.00739646 -0.339932 2.1809
-0.266591 -0.339805 2.03336
-0.284955 -0.339664 2.01375
-0.181928 -0.339539 2.0547
-0.206403 -0.339396 2.03206
-0.143391 -0.339202 2.05362
-0.242056 -0.339083 1.9937
-0.147055 -0.338938 2.03086
-0.219764 -0.338822 1.98392
-0.164166 -0.338675 2.0014
-0.0611543 -0.338562 2.04232
-0.0568149 -0.338414 2.0342
-0.194505 -0.338296 1.95482
-0.222732 -0.338134 1.93056
-0.185195 -0.338013 1.93883
-0.0596298 -0.337851 1.99149
-0.157604 -0.337734 1.932
-0.177834 -0.337572 1.91178
-0.140743 -0.337459 1.9198
-0.27021 -0.337297 1.84498
-0.22538 -0.337187 1.85686
-0.203525 -0.337026 1.85772
-0.159903 -0.33692 1.86897
-0.147762 -0.336758 1.865
-0.177902 -0.336656 1.83936
-0.0983798 -0.336494 1.86909
-0.0175148 -0.336395 1.89893
-0.179517 -0.336234 1.80793
-0.0615119 -0.336219 1.85558
-0.101375 -0.336058 1.82565
-0.127399 -0.335966 1.80201
-0.0494551 -0.335805 1.83101
-0.0827075 -0.335716 1.80374
-0.225586 -0.335555 1.72235
-0.0322068 -0.33547 1.80838
-0.0738735 -0.335309 1.77761
-0.303765 -0.335228 1.65199
-0.184882 -0.335067 1.70151
-0.230309 -0.334987 1.66812
-0.151632 -0.334828 1.69754
-0.163252 -0.334833 1.68024
-0.130908 -0.334592 1.6873
-0.209753 -0.3346 1.63637
0.00134748 -0.33444 1.73205
-0.10052 -0.33436 1.67048
-0.234762 -0.334211 1.5934
-0.227514 -0.334131 1.58639
-0.086459 -0.333985 1.64694
0.0527719 -0.333922 1.70577
0.0147714 -0.333762 1.67696
-0.152828 -0.333702 1.58235
-0.21731 -0.333622 1.53951
0.054687 -0.333566 1.66468
0.0289647 -0.333406 1.64204
-0.241771 -0.333352 1.49582
0.0328872 -0.333272 1.62257
-0.0636528 -0.333141 1.56425
-0.130187 -0.333061 1.52042
-0.356293 -0.332933 1.3973
-0.0767355 -0.332887 1.52618
-0.0305144 -0.332728 1.53956
-0.095829 -0.332764 1.49516
-0.180224 -0.332605 1.44325
-0.0694602 -0.332564 1.48769
-0.124801 -0.332485 1.44949
-0.222311 -0.332367 1.39061
-0.164486 -0.332331 1.40854
0.00871732 -0.332252 1.48463
-0.0975379 -0.332139 1.42135
-0.0388976 -0.332187 1.43881
-0.216309 -0.332028 1.34045
0.0779525 -0.331999 1.47654
-0.112762 -0.331919 1.3707
-0.0409093 -0.331892 1.39557
-0.198613 -0.331788 1.30651
-0.048832 -0.331765 1.37031
-0.125398 -0.331823 1.32006
0.000246518 -0.331665 1.37327
-0.139925 -0.331645 1.29207
-0.079175 -0.331627 1.31131
-0.182226 -0.331611 1.24863
-0.0336485 -0.331596 1.31175
-0.0741245 -0.331662 1.27945
-0.0208283 -0.33165 1.2949
0.0733531 -0.331718 1.32989
-0.111571 -0.331709 1.2262
0.210805 -0.331851 1.37446
-0.014651 -0.332075 1.24786
-0.0578272 -0.332765 1.20712
-0.092106 -0.339958 2.69099
0.0151621 -0.338889 2.73968
-0.111221 -0.338149 2.6694
-0.188745 -0.337575 2.62248
0.0133448 -0.33701 2.71536
-0.041794 -0.336454 2.67959
-0.245752 -0.336057 2.56836
-0.0579336 -0.335666 2.65301
0.0167454 -0.335281 2.68107
-0.046458 -0.334903 2.64017
-0.126064 -0.334667 2.5901
-0.140896 -0.3343 2.57336
-0.239703 -0.334069 2.51369
-0.0235147 -0.333839 2.61153
-0.273595 -0.333542 2.47674
0.00559838 -0.333318 2.60607
-0.118668 -0.333097 2.53367
-0.33084 -0.332767 2.41812
-0.228747 -0.332553 2.45889
-0.142666 -0.33234 2.49164
-0.191549 -0.33213 2.45692
-0.229056 -0.331923 2.42788
-0.359883 -0.331718 2.35218
-0.257787 -0.331515 2.39293
-0.16314 -0.331315 2.42996
-0.290304 -0.331117 2.35608
-0.185418 -0.330922 2.39821
-0.388519 -0.330729 2.28635
-0.0512774 -0.33054 2.44465
-0.165987 -0.330353 2.37697
-0.319339 -0.330169 2.28995
-0.216224 -0.330046 2.33071
-0.337326 -0.329868 2.2598
-0.247464 -0.329691 2.29437
-0.253351 -0.329515 2.28108
-0.143603 -0.329342 2.32559
-0.142645 -0.329172 2.3157
-0.107421 -0.32905 2.32256
-0.15903 -0.328883 2.28638
-0.246569 -0.328718 2.23223
-0.0606924 -0.328557 2.31477
-0.155313 -0.328398 2.25705
-0.0427589 -0.328273 2.30266
-0.0503072 -0.328118 2.28847
-0.249696 -0.327965 2.17835
-0.243757 -0.327815 2.17088
-0.144191 -0.327669 2.21021
0.0386538 -0.327541 2.29104
-0.169842 -0.327397 2.17633
-0.101753 -0.327216 2.20024
-0.274077 -0.327071 2.10366
-0.0373369 -0.326939 2.2115
-0.148195 -0.326796 2.14565
-0.218156 -0.326657 2.10023
-0.145507 -0.326521 2.12609
-0.177946 -0.326386 2.09941
-0.0289767 -0.326251 2.16345
-0.139758 -0.326117 2.0976
-0.236207 -0.325986 2.03891
-0.146734 -0.32578 2.07385
-0.0794852 -0.325721 2.0964
-0.15151 -0.325512 2.05063
-0.355394 -0.325386 1.93822
0.0267631 -0.325246 2.11897
-0.132543 -0.325123 2.02884
-0.266811 -0.324981 1.9514
-0.264865 -0.32486 1.94189
-0.0850775 -0.324717 2.02152
-0.170754 -0.324587 1.9683
-0.335578 -0.324431 1.87575
-0.204483 -0.324305 1.9309
-0.0819876 -0.32415 1.98204
-0.262795 -0.324027 1.88122
-0.0565048 -0.323871 1.97427
-0.179672 -0.323753 1.90227
-0.416821 -0.323597 1.77362
-0.0684053 -0.323482 1.93739
-0.14755 -0.323326 1.88776
-0.382239 -0.323215 1.75996
-0.0773311 -0.323059 1.90238
-0.290296 -0.322951 1.78542
-0.112986 -0.322796 1.86406
-0.260445 -0.322769 1.7791
-0.245858 -0.322536 1.77714
0.0427459 -0.322513 1.91019
-0.209269 -0.322358 1.77421
-0.117205 -0.32226 1.80971
-0.276313 -0.322105 1.7202
-0.18857 -0.322011 1.75353
-0.141355 -0.321856 1.76719
-0.177175 -0.321765 1.73872
0.0685947 -0.32161 1.85169
-0.08205 -0.321522 1.76579
-0.00487016 -0.321368 1.79447
-0.144438 -0.321284 1.71409
-0.20591 -0.321129 1.67347
0.00553 -0.321052 1.76854
-0.146475 -0.320971 1.68192
-0.164442 -0.320816 1.66308
-0.171007 -0.320739 1.64917
-0.274429 -0.320584 1.58762
-0.0676083 -0.32051 1.68038
-0.192742 -0.320356 1.60799
-0.0120884 -0.320284 1.68765
-0.303094 -0.32013 1.53234
-0.145845 -0.320062 1.60028
-0.185738 -0.319908 1.57055
-0.174684 -0.319842 1.56537
-0.0871529 -0.319689 1.59937
-0.000753975 -0.319703 1.63104
-0.183703 -0.319549 1.52981
-0.127492 -0.319473 1.54735
-0.21769 -0.319336 1.49233
0.0200972 -0.31926 1.60068
-0.152278 -0.319126 1.50455
0.00741955 -0.319072 1.57362
-0.209808 -0.318919 1.4553
-0.0767309 -0.318868 1.51104
-0.10802 -0.318715 1.48571
-0.0070907 -0.318743 1.52452
0.0630752 -0.31859 1.54993
-0.148182 -0.318544 1.43347
-0.0829839 -0.318391 1.45641
-0.139197 -0.318348 1.41745
0.0163942 -0.318195 1.4856
-0.202647 -0.318154 1.36521
-0.101808 -0.318078 1.40515
0.0313154 -0.318039 1.46082
-0.120195 -0.317963 1.3746
-0.0659031 -0.317851 1.39169
-0.144378 -0.317774 1.342
-0.197289 -0.317664 1.30548
-0.203349 -0.317633 1.2915
-0.121084 -0.317557 1.32219
-0.0392183 -0.317451 1.35302
-0.132503 -0.3175 1.29452
-0.161418 -0.317348 1.27051
0.0124323 -0.317323 1.34643
-0.119316 -0.317247 1.27014
-0.160117 -0.317147 1.2396
-0.00315263 -0.317126 1.30705
-0.0299565 -0.317182 1.2817
0.0131991 -0.31703 1.29377
-0.0221225 -0.317012 1.26503
0.137214 -0.316995 1.33361
-0.0401811 -0.31698 1.23381
-0.116009 -0.316967 1.18477
0.0414519 -0.31703 1.25146
-0.193388 -0.316955 1.12366
-0.0787231 -0.316944 1.16984
-0.110266 -0.317001 1.1421
-0.0721429 -0.317069 1.14906
-0.0639902 -0.317138 1.14101
-0.0466122 -0.317279 1.13671
-0.0110655 -0.317942 1.13514
-0.0449956 -0.326532 2.68516
0.115012 -0.324536 2.76712
-0.190118 -0.323825 2.60754
-0.101411 -0.323274 2.6438
-0.0396252 -0.322731 2.66658
-0.221029 -0.322197 2.56774
-0.0679985 -0.321815 2.63505
-0.180331 -0.321438 2.56967
0.0195356 -0.321068 2.66038
-0.109983 -0.320835 2.5854
-0.127409 -0.320604 2.56648
-0.166482 -0.320247 2.53768
-0.157159 -0.320021 2.53214
-0.0973655 -0.319727 2.55235
-0.173744 -0.319507 2.50395
-0.135928 -0.319288 2.51265
-0.302227 -0.318961 2.42013
-0.0665056 -0.318749 2.52777
-0.175818 -0.318538 2.46289
-0.1284 -0.31833 2.47637
-0.265319 -0.318028 2.39844
-0.128484 -0.317827 2.45661
-0.0170159 -0.317628 2.50209
-0.374316 -0.317432 2.31319
-0.151803 -0.317238 2.41419
-0.257887 -0.317128 2.35024
-0.193888 -0.316936 2.37199
-0.187958 -0.316747 2.36471
-0.347395 -0.31656 2.27473
-0.157558 -0.316376 2.35938
-0.140516 -0.316194 2.35762
-0.00561406 -0.316016 2.41479
-0.120245 -0.315897 2.34671
-0.00708726 -0.315723 2.39299
-0.259346 -0.31555 2.25657
-0.202011 -0.315379 2.27494
-0.354974 -0.315211 2.18815
-0.161644 -0.315045 2.27449
-0.184622 -0.314926 2.25231
-0.241494 -0.314763 2.21355
-0.114062 -0.314603 2.26694
-0.222561 -0.314446 2.20234
-0.127157 -0.314292 2.23969
-0.175611 -0.314141 2.20508
-0.0232794 -0.314018 2.27065
-0.20504 -0.313859 2.16949
-0.122964 -0.313724 2.20004
-0.24326 -0.313599 2.12934
-0.0224464 -0.313429 2.2296
-0.0787961 -0.313282 2.19108
-0.16657 -0.313137 2.13684
-0.198436 -0.312996 2.11053
-0.0141833 -0.312867 2.19219
-0.24498 -0.312728 2.06642
-0.246701 -0.312593 2.05516
-0.202833 -0.312461 2.06668
-0.221171 -0.312329 2.04711
-0.0701914 -0.312196 2.11221
-0.150046 -0.311995 2.06253
-0.00338512 -0.311932 2.12486
-0.157361 -0.311729 2.03816
-0.133404 -0.3116 2.03975
-0.206442 -0.311464 1.99293
-0.135551 -0.311338 2.01798
-0.0989556 -0.3112 2.02601
-0.154006 -0.311071 1.98814
0.0954329 -0.310922 2.10273
-0.169324 -0.310791 1.96004
-0.178381 -0.310641 1.9454
-0.266256 -0.310514 1.89114
-0.0727316 -0.310365 1.97781
-0.260067 -0.310241 1.8738
-0.239819 -0.310092 1.87385
-0.226859 -0.309972 1.86998
-0.245275 -0.309822 1.85072
-0.0213426 -0.309705 1.95232
-0.131795 -0.309556 1.88706
-0.172261 -0.309482 1.85607
-0.0832802 -0.309294 1.89092
-0.154633 -0.309219 1.8445
-0.196186 -0.30911 1.81334
-0.118618 -0.308961 1.84213
-0.0534741 -0.308854 1.8643
-0.141597 -0.308705 1.81027
-0.197927 -0.308602 1.77168
-0.316319 -0.308454 1.70254
-0.195627 -0.308354 1.75244
-0.144721 -0.308205 1.76797
-0.203874 -0.308109 1.72793
-0.106108 -0.307961 1.76691
-0.21115 -0.307868 1.70391
-0.220892 -0.307719 1.68915
-0.24628 -0.307645 1.6658
-0.178624 -0.307481 1.68991
-0.105429 -0.307333 1.71665
-0.331867 -0.30732 1.59215
-0.0835092 -0.307172 1.70648
-0.331119 -0.307089 1.57215
-0.1851 -0.306941 1.63533
-0.194394 -0.306861 1.62014
-0.173601 -0.306713 1.62072
-0.0896377 -0.306636 1.65214
-0.172698 -0.306488 1.60082
-0.068111 -0.306414 1.64253
-0.270886 -0.306266 1.53137
-0.27906 -0.306119 1.51752
-0.293271 -0.306122 1.49901
-0.0878867 -0.305974 1.59196
-0.144996 -0.3059 1.55285
-0.1377 -0.305759 1.5467
-0.196949 -0.305685 1.50654
-0.0982532 -0.305546 1.54608
-0.134998 -0.305473 1.51718
-0.162536 -0.305337 1.49358
-0.0281905 -0.305264 1.55024
-0.14959 -0.305131 1.4797
-0.126235 -0.305057 1.48088
-0.139721 -0.305001 1.46345
-0.0385921 -0.304854 1.50436
0.0447474 -0.3048 1.53532
-0.0915205 -0.304653 1.45755
-0.203311 -0.304603 1.39092
-0.110509 -0.304456 1.42771
-0.228502 -0.304407 1.35796
-0.254003 -0.304261 1.33561
-0.0432431 -0.304288 1.42936
-0.0528301 -0.304142 1.41498
-0.0922182 -0.304069 1.38485
-0.142659 -0.303952 1.34971
-0.0787054 -0.303879 1.37126
-0.146521 -0.303765 1.32741
-0.0651746 -0.303727 1.35726
-0.150014 -0.30358 1.3053
-0.0264479 -0.303617 1.35537
-0.118988 -0.303471 1.29957
-0.186176 -0.303398 1.25559
-0.0453542 -0.303291 1.31602
-0.0565748 -0.30326 1.29952
0.0232021 -0.303114 1.32992
0.0496771 -0.303084 1.33226
-0.24336 -0.303012 1.17537
-0.0499417 -0.302984 1.26116
-0.182917 -0.302911 1.18432
-0.0415681 -0.302813 1.24495
-0.0410917 -0.302789 1.23423
-0.0886481 -0.302717 1.20011
-0.0924355 -0.302622 1.18815
0.097388 -0.302602 1.27207
-0.231312 -0.30253 1.09739
-0.141812 -0.302511 1.13113
-0.00441255 -0.302439 1.18951
0.0732208 -0.302349 1.21822
-0.122165 -0.302334 1.10949
-0.163672 -0.302321 1.07768
-0.201713 -0.302381 1.04666
-0.160756 -0.302236 1.05776
-0.144768 -0.302225 1.05467
-0.00157246 -0.302287 1.11424
0.0134136 -0.302279 1.11061
0.117772 -0.302271 1.15166
-0.0631695 -0.302337 1.04911
-0.0720231 -0.30247 1.03172
-0.0264948 -0.302607 1.04146
-0.175779 -0.311813 2.59938
-0.131493 -0.310538 2.61892
-0.14387 -0.309515 2.60834
-0.169816 -0.308986 2.58733
-0.125392 -0.308465 2.60149
-0.029495 -0.308091 2.64031
-0.0345857 -0.307721 2.62863
-0.0966751 -0.307356 2.58844
-0.343573 -0.307127 2.45482
-0.140038 -0.306771 2.54743
-0.200796 -0.30647 2.50749
-0.14449 -0.306249 2.52548
-0.177067 -0.30591 2.49997
-0.0417906 -0.305693 2.55744
-0.0724397 -0.305366 2.53285
-0.19092 -0.305155 2.46344
-0.17489 -0.304946 2.46129
-0.142222 -0.304738 2.46746
-0.139002 -0.304433 2.45971
-0.216451 -0.304232 2.4108
-0.243865 -0.304033 2.38691
-0.116031 -0.303837 2.44064
-0.219756 -0.303642 2.37859
-0.111097 -0.30345 2.42272
-0.091716 -0.30326 2.42222
-0.325341 -0.303072 2.2952
-0.244558 -0.302963 2.32474
-0.200037 -0.302777 2.33681
-0.319045 -0.302594 2.26711
-0.0825802 -0.302413 2.37514
-0.21094 -0.302234 2.30075
-0.405124 -0.302059 2.19343
-0.115419 -0.301885 2.32805
0.059276 -0.301772 2.40467
-0.243749 -0.301601 2.24293
-0.156362 -0.301432 2.27639
-0.328004 -0.301267 2.18032
-0.141089 -0.301104 2.26352
-0.176034 -0.300987 2.2354
-0.0716806 -0.300826 2.27732
-0.155384 -0.300669 2.2252
-0.251432 -0.300514 2.1669
-0.200464 -0.300362 2.18209
-0.086887 -0.300242 2.2283
-0.154701 -0.300092 2.1841
-0.140605 -0.299945 2.18084
-0.144028 -0.299823 2.1686
-0.374951 -0.299664 2.04298
-0.0142225 -0.299515 2.21308
-0.274609 -0.299369 2.07262
-0.291997 -0.299227 2.05363
-0.105991 -0.299101 2.1362
-0.25785 -0.298961 2.04998
-0.0994083 -0.298824 2.11889
-0.160431 -0.298689 2.07805
-0.220085 -0.298558 2.03788
-0.353742 -0.29843 1.96069
-0.150112 -0.2983 2.05216
-0.0964986 -0.29817 2.06864
-0.169211 -0.297973 2.02261
-0.185184 -0.297843 2.00433
-0.207859 -0.297711 1.98272
-0.165256 -0.297583 1.99372
-0.23963 -0.297439 1.94639
-0.141112 -0.297305 1.98543
-0.204696 -0.297161 1.94352
-0.240208 -0.29703 1.91553
-0.278823 -0.296887 1.88612
-0.323991 -0.296759 1.8533
-0.180261 -0.296616 1.91508
-0.151951 -0.296491 1.91898
-0.25266 -0.296348 1.85857
-0.2331 -0.296205 1.8583
-0.0753243 -0.296156 1.9262
-0.180968 -0.295941 1.86408
-0.108803 -0.295895 1.88915
-0.399275 -0.295752 1.7339
-0.14878 -0.295638 1.84886
-0.113561 -0.295495 1.85648
-0.127733 -0.295384 1.83908
0.000762672 -0.295241 1.89336
-0.135713 -0.295099 1.81516
-0.23451 -0.294991 1.75545
-0.116991 -0.294849 1.80427
-0.144469 -0.294744 1.78019
-0.271684 -0.294602 1.70667
0.0577052 -0.294501 1.86101
-0.130138 -0.294358 1.75719
-0.403384 -0.29426 1.61019
-0.110247 -0.294118 1.74688
-0.245895 -0.294047 1.66841
-0.214708 -0.293953 1.67362
-0.289011 -0.29381 1.62662
-0.00104526 -0.293719 1.7602
-0.303185 -0.293577 1.5993
-0.262063 -0.293489 1.60944
-0.126047 -0.293347 1.66763
-0.234189 -0.293262 1.60312
-0.186383 -0.29312 1.61723
-0.26156 -0.292978 1.56985
-0.0948482 -0.292896 1.64276
-0.135206 -0.292755 1.61281
-0.147027 -0.292746 1.59562
-0.12273 -0.292534 1.59883
-0.388646 -0.292529 1.45457
-0.216904 -0.292387 1.53071
-0.175125 -0.292246 1.54187
-0.342901 -0.292173 1.44748
-0.113969 -0.292032 1.55224
-0.337772 -0.291962 1.42981
-0.0828305 -0.291821 1.5476
-0.113079 -0.291754 1.52193
-0.0130769 -0.291613 1.56226
-0.0618221 -0.291542 1.52739
-0.358261 -0.291478 1.36861
-0.129762 -0.291337 1.47322
-0.0821876 -0.291276 1.48642
-0.150609 -0.291135 1.44259
-0.225335 -0.291064 1.39476
-0.266539 -0.290935 1.36441
-0.196326 -0.290865 1.38907
-0.120353 -0.290739 1.41729
0.00490297 -0.290669 1.46948
-0.0187378 -0.290615 1.44702
-0.151668 -0.290475 1.37099
-0.0697364 -0.290424 1.40129
-0.163634 -0.290284 1.3448
0.0129294 -0.290214 1.42267
-0.00432944 -0.290096 1.40423
0.00427526 -0.290026 1.39814
-0.224375 -0.28991 1.27399
-0.184335 -0.28984 1.28363
-0.0660431 -0.289797 1.33206
0.138083 -0.289657 1.42463
-0.169679 -0.289617 1.26002
-0.21965 -0.289477 1.22556
-0.105283 -0.289438 1.27198
-0.0206809 -0.289299 1.30483
-0.220603 -0.289263 1.19409
-0.160011 -0.289123 1.21494
0.0191675 -0.289159 1.29284
-0.152473 -0.289019 1.19759
-0.151722 -0.28895 1.18765
-0.217104 -0.288848 1.14505
-0.129806 -0.288779 1.17839
-0.0234599 -0.288679 1.22164
0.072935 -0.28861 1.25954
-0.12433 -0.288582 1.15006
-0.0471851 -0.288513 1.17834
-0.155146 -0.288418 1.11441
0.0432623 -0.288348 1.20334
-0.0284435 -0.288255 1.15753
-0.214684 -0.288233 1.0535
-0.175431 -0.288094 1.06379
-0.0616348 -0.288143 1.10884
-0.112409 -0.288005 1.07413
-0.0365008 -0.287986 1.10115
-0.0812341 -0.287917 1.06854
0.005329 -0.287831 1.1018
-0.241825 -0.287815 0.967257
-0.110509 -0.287746 1.02268
-0.0176019 -0.287732 1.05815
0.0499923 -0.287663 1.08173
-0.00632169 -0.287651 1.04257
-0.0217283 -0.28757 1.0248
-0.184864 -0.287561 0.932202
-0.0418016 -0.287621 0.991728
-0.0881428 -0.287552 0.95835
-0.0790172 -0.287544 0.951853
0.0929157 -0.287538 1.02675
0.0498639 -0.287596 0.993236
0.0834776 -0.287661 0.997963
0.0761938 -0.287726 0.982227
-0.00513606 -0.288474 0.919827
-0.00644478 -0.296197 2.6591
-0.0431511 -0.295543 2.63389
-0.209566 -0.294896 2.54382
-0.187953 -0.29453 2.54556
-0.0281953 -0.294034 2.61745
-0.126972 -0.293678 2.55899
-0.118504 -0.293326 2.55414
-0.183504 -0.292979 2.51254
-0.0963604 -0.292637 2.547
-0.36701 -0.292421 2.40156
-0.106829 -0.292089 2.52251
-0.163867 -0.291877 2.48388
-0.0303198 -0.291555 2.54147
-0.0831634 -0.291348 2.50493
-0.154202 -0.291143 2.4593
-0.141335 -0.290837 2.45648
-0.221431 -0.290637 2.40631
-0.218288 -0.290439 2.39776
-0.121729 -0.290243 2.43591
-0.194415 -0.290049 2.38945
-0.266716 -0.289857 2.34317
-0.284166 -0.289667 2.32431
-0.258803 -0.289479 2.32686
-0.152143 -0.289293 2.37006
-0.250766 -0.289162 2.31014
-0.192613 -0.288981 2.32906
-0.11353 -0.288803 2.35845
-0.148537 -0.288642 2.33064
-0.321395 -0.288464 2.23407
-0.208649 -0.288289 2.2803
-0.204874 -0.288117 2.27203
0.0609015 -0.288002 2.39424
-0.0247114 -0.287835 2.34125
-0.278602 -0.287669 2.20414
-0.254827 -0.287503 2.20586
-0.237487 -0.287341 2.20435
-0.158533 -0.287181 2.23363
-0.21288 -0.287067 2.19585
-0.130267 -0.286909 2.22697
-0.050404 -0.286754 2.2567
-0.282779 -0.286601 2.13029
-0.205084 -0.286485 2.15859
-0.10971 -0.286335 2.19607
-0.037994 -0.286187 2.2217
-0.102616 -0.286069 2.17889
-0.0682543 -0.285919 2.18589
-0.11346 -0.28577 2.15311
-0.253552 -0.285624 2.07287
-0.243812 -0.285502 2.06732
-0.182266 -0.285358 2.0879
-0.145252 -0.285217 2.0962
-0.358939 -0.285079 1.97913
-0.351346 -0.284944 1.97268
-0.122113 -0.284811 2.07704
-0.056408 -0.284687 2.09956
-0.168716 -0.284556 2.03314
-0.258708 -0.284431 1.97785
-0.369497 -0.284245 1.91278
-0.151154 -0.284113 2.01174
-0.162326 -0.283981 1.99596
-0.0681378 -0.283843 2.03292
-0.146092 -0.283706 1.98382
-0.105994 -0.283637 1.99304
-0.0104232 -0.283434 2.03141
-0.157143 -0.283297 1.94796
-0.167382 -0.283235 1.93197
-0.105881 -0.283029 1.95337
-0.205281 -0.28297 1.89279
-0.245097 -0.282833 1.86283
-0.234127 -0.282708 1.85814
-0.134818 -0.282572 1.89777
-0.158728 -0.28245 1.87562
-0.274497 -0.282314 1.80773
-0.0571778 -0.282177 1.90639
-0.159804 -0.282059 1.84488
-0.27907 -0.281922 1.77527
-0.231231 -0.281807 1.78898
-0.275334 -0.281671 1.75697
-0.194638 -0.281559 1.78709
-0.0997841 -0.281423 1.82458
-0.154376 -0.281314 1.78705
-0.268199 -0.281178 1.72021
-0.0434963 -0.281073 1.82231
-0.115099 -0.280937 1.77661
-0.271357 -0.280801 1.68859
-0.334058 -0.280766 1.6462
-0.233293 -0.28063 1.68671
-0.189283 -0.280531 1.69843
-0.0830758 -0.280395 1.74168
-0.132474 -0.28026 1.70714
-0.144962 -0.280164 1.6906
-0.191389 -0.280028 1.65757
-0.360404 -0.279935 1.56275
-0.24213 -0.2798 1.61208
-0.39078 -0.27971 1.52742
-0.233249 -0.279574 1.5964
-0.109209 -0.279506 1.64785
-0.194269 -0.279352 1.59577
-0.212743 -0.279217 1.57678
-0.30735 -0.279201 1.51831
-0.204592 -0.279065 1.55995
-0.0438453 -0.278985 1.62994
-0.188843 -0.27885 1.54772
-0.284725 -0.278714 1.49007
-0.0373678 -0.278637 1.60335
-0.263888 -0.278502 1.48039
-0.251818 -0.278427 1.47601
-0.199542 -0.278292 1.49248
-0.275828 -0.278224 1.44384
-0.0178685 -0.278153 1.56239
-0.186253 -0.278018 1.46855
-0.0733057 -0.277949 1.51456
-0.0931862 -0.277814 1.49499
-0.216076 -0.277747 1.42309
-0.0480253 -0.277613 1.49749
-0.073202 -0.277479 1.4753
-0.0705404 -0.277415 1.46614
-0.26844 -0.277281 1.3576
-0.0808386 -0.277214 1.44098
-0.0467714 -0.277153 1.4475
-0.282546 -0.277019 1.32006
-0.115835 -0.276961 1.39289
-0.165209 -0.276826 1.35866
-0.115006 -0.276759 1.37336
-0.0218343 -0.276637 1.41027
-0.147276 -0.27657 1.33717
0.00326614 -0.27645 1.40275
-0.21035 -0.276316 1.28644
-0.14869 -0.276333 1.30581
-0.0564129 -0.276199 1.34246
-0.231704 -0.276065 1.24535
-0.107128 -0.276018 1.29703
-0.204509 -0.275884 1.23889
-0.275131 -0.275839 1.19295
-0.14665 -0.275705 1.24776
-0.151513 -0.275639 1.235
-0.194948 -0.275596 1.20264
-0.272286 -0.275462 1.15456
-0.175062 -0.275422 1.19251
-0.156943 -0.275289 1.19217
-0.169349 -0.275222 1.17568
-0.170485 -0.275117 1.16534
0.078914 -0.275051 1.27976
0.0305105 -0.274948 1.24577
-0.256129 -0.274882 1.09218
-0.322511 -0.274848 1.04827
-0.112088 -0.274715 1.14414
-0.031005 -0.274648 1.17443
-0.0845186 -0.27455 1.13786
-0.13978 -0.274484 1.09999
-0.0793635 -0.274388 1.12037
-0.113709 -0.274322 1.09297
-0.129855 -0.274294 1.07412
-0.121851 -0.274161 1.06884
-0.0434322 -0.274136 1.09726
-0.355144 -0.274003 0.932133
-0.216593 -0.27398 0.990597
-0.213239 -0.273847 0.983022
-0.0517357 -0.273892 1.05199
-0.18476 -0.273759 0.976243
-0.18085 -0.273693 0.968016
-0.0595746 -0.273607 1.01876
-0.229944 -0.273541 0.923407
-0.0678539 -0.273456 0.994551
-0.0241737 -0.273506 1.00455
-0.140825 -0.273373 0.937026
-0.0990476 -0.273307 0.947761
-0.0837987 -0.273226 0.94546
-0.0103122 -0.273212 0.97129
-0.0872147 -0.27308 0.923675
-0.129755 -0.273134 0.8905
-0.0829094 -0.273002 0.904771
-0.132027 -0.272991 0.86927
-0.127771 -0.272925 0.861277
-0.0911474 -0.272849 0.869619
-0.156755 -0.272841 0.825845
-0.0637015 -0.272899 0.860394
-0.105136 -0.272767 0.830562
-0.153194 -0.272761 0.795536
-0.0732561 -0.272755 0.824493
-0.0355408 -0.27275 0.832327
-0.0225028 -0.272812 0.826808
-0.121323 -0.272746 0.767305
-0.195899 -0.272872 0.716997
-0.00930061 -0.272999 0.797233
0.0674247 -0.281871 2.67379
-0.0229189 -0.281248 2.62183
-0.163582 -0.280761 2.54359
-0.164012 -0.280281 2.53547
-0.183062 -0.279934 2.51694
-0.115784 -0.279466 2.54264
-0.122024 -0.279129 2.53049
-0.0177621 -0.278916 2.57254
-0.152206 -0.278587 2.49628
-0.107242 -0.278263 2.50969
0.0125919 -0.278056 2.55954
-0.0710993 -0.277742 2.5086
-0.204565 -0.27754 2.4318
-0.247468 -0.277338 2.40029
-0.184487 -0.277038 2.42262
-0.15453 -0.276843 2.42753
-0.129998 -0.276648 2.42973
-0.185891 -0.276456 2.39172
-0.012512 -0.276265 2.46834
-0.229224 -0.276076 2.34992
-0.149105 -0.275889 2.37992
-0.160059 -0.275755 2.3639
-0.214513 -0.275572 2.3266
0.0444118 -0.275391 2.44598
-0.0517414 -0.275212 2.38782
-0.170828 -0.275036 2.31819
-0.141188 -0.274861 2.32291
-0.24188 -0.274704 2.26232
-0.0378622 -0.274531 2.35425
-0.165645 -0.274413 2.27976
-0.161798 -0.274245 2.27159
-0.1633 -0.274079 2.26073
-0.300676 -0.273916 2.18193
-0.24926 -0.273754 2.19752
-0.201096 -0.273592 2.2115
-0.196614 -0.273482 2.20314
-0.303641 -0.273322 2.13952
-0.117579 -0.273165 2.22245
-0.412967 -0.273011 2.06463
-0.139799 -0.272858 2.19108
-0.202901 -0.272709 2.14938
-0.161229 -0.272596 2.15971
-0.245504 -0.272449 2.10743
-0.271516 -0.272334 2.08395
-0.0888981 -0.272189 2.16511
-0.19326 -0.272045 2.10279
-0.219181 -0.271931 2.07939
-0.172466 -0.271781 2.09268
-0.238172 -0.271637 2.04972
-0.202199 -0.271496 2.05758
-0.198307 -0.271358 2.04938
-0.133931 -0.271238 2.07124
-0.151863 -0.271102 2.05213
-0.177078 -0.270968 2.02937
-0.159465 -0.270838 2.02799
-0.193035 -0.270716 2.00094
-0.184898 -0.270588 1.99483
-0.347339 -0.270461 1.90342
-0.306247 -0.270327 1.91386
-0.0718937 -0.270196 2.02092
-0.180973 -0.270066 1.95627
-0.205662 -0.269935 1.93382
-0.249106 -0.269804 1.90201
-0.180693 -0.269674 1.92613
-0.210926 -0.269543 1.90095
-0.152452 -0.269413 1.92013
-0.168313 -0.269285 1.90211
-0.129922 -0.269155 1.91127
-0.0729383 -0.269024 1.92974
-0.329026 -0.2689 1.79161
-0.099645 -0.26877 1.89629
-0.223609 -0.268648 1.82421
-0.0633902 -0.268518 1.89434
-0.190226 -0.2684 1.82081
-0.0377854 -0.26827 1.88707
-0.277937 -0.268155 1.75686
-0.0767345 -0.268025 1.84752
-0.0973446 -0.26796 1.82653
-0.251984 -0.267783 1.73983
-0.230352 -0.267653 1.74073
-0.170027 -0.267609 1.75998
-0.217991 -0.267479 1.72611
-0.134532 -0.267373 1.75767
-0.165959 -0.267243 1.73208
-0.170113 -0.267114 1.72014
-0.196913 -0.267011 1.69656
-0.26022 -0.266881 1.65506
-0.243142 -0.266781 1.65341
-0.250853 -0.266652 1.63973
-0.226638 -0.266555 1.64162
-0.145364 -0.266426 1.67246
-0.218415 -0.266296 1.62614
-0.188835 -0.266203 1.6307
-0.183622 -0.266073 1.62354
-0.124723 -0.266047 1.64194
-0.156127 -0.265918 1.61648
-0.235746 -0.265789 1.56693
-0.197695 -0.265701 1.5757
-0.152014 -0.265572 1.58881
-0.186739 -0.265487 1.56117
-0.127141 -0.265358 1.58126
-0.117655 -0.265229 1.57631
-0.256429 -0.265147 1.49663
-0.135868 -0.265018 1.54723
-0.0934642 -0.265004 1.5573
-0.402194 -0.264875 1.39327
-0.0980771 -0.264746 1.53568
-0.200106 -0.26467 1.47434
-0.0787848 -0.264541 1.52536
-0.202841 -0.264468 1.45299
-0.157385 -0.264339 1.4661
-0.203211 -0.264211 1.43358
-0.124914 -0.26414 1.46237
-0.194738 -0.264012 1.41787
0.0256614 -0.263948 1.51764
-0.0803497 -0.26388 1.45426
-0.104536 -0.263752 1.43261
-0.164191 -0.263687 1.39238
-0.0632932 -0.263559 1.43329
-0.199179 -0.263431 1.35581
-0.0293011 -0.263368 1.43034
-0.182597 -0.26324 1.34417
-0.0755641 -0.263181 1.38726
-0.23759 -0.263053 1.29674
-0.232705 -0.262989 1.28882
-0.169522 -0.262932 1.30996
-0.0804606 -0.262804 1.34502
-0.0520476 -0.26274 1.34888
0.117215 -0.262622 1.42393
-0.188126 -0.262494 1.26181
-0.217358 -0.262442 1.23671
-0.142696 -0.262315 1.26461
-0.0631282 -0.262251 1.29408
0.00128865 -0.262201 1.31578
-0.0540107 -0.262074 1.27873
-0.3254 -0.26201 1.13274
-0.144999 -0.2619 1.21332
-0.126325 -0.261772 1.21328
-0.0383784 -0.261728 1.2467
-0.14859 -0.261601 1.18224
0.00489473 -0.261537 1.24872
-0.241363 -0.261495 1.11503
0.0849998 -0.261368 1.26887
-0.208481 -0.261304 1.11189
-0.0579204 -0.261201 1.17751
-0.286084 -0.261074 1.05412
-0.291918 -0.261036 1.0406
-0.17554 -0.260909 1.0895
-0.0265674 -0.260937 1.15242
-0.14049 -0.260811 1.08619
-0.161278 -0.260684 1.06653
-0.140818 -0.260651 1.06611
0.0722266 -0.260524 1.16338
-0.0168756 -0.260461 1.10865
-0.212681 -0.260366 1.00103
-0.171399 -0.260303 1.0115
-0.221981 -0.26024 0.97604
-0.0833908 -0.260147 1.03561
-0.130969 -0.260021 1.00262
-0.111158 -0.259994 1.00183
-0.0816685 -0.259867 1.00739
-0.05811 -0.259905 1.00749
-0.1758 -0.259779 0.939474
-0.181609 -0.259653 0.927409
0.0255194 -0.25963 1.02024
0.0375924 -0.259503 1.01713
-0.0398625 -0.25944 0.968294
0.040053 -0.259356 0.99848
-0.0860054 -0.259293 0.925352
-0.285686 -0.259273 0.814744
-0.14461 -0.259147 0.876176
-0.067368 -0.259129 0.904011
-0.0887151 -0.259003 0.884247
-0.0269551 -0.25894 0.905054
-0.069147 -0.258861 0.874152
0.137606 -0.258798 0.967467
-0.0680858 -0.258783 0.853805
-0.0447748 -0.258657 0.856408
-0.123196 -0.258644 0.806364
-0.0116744 -0.258518 0.853088
0.0305413 -0.258569 0.862341
-0.124629 -0.258443 0.77573
-0.0117222 -0.258381 0.822157
-0.0530007 -0.258307 0.79167
-0.147152 -0.258245 0.734578
-0.0545247 -0.258172 0.771035
-0.0752886 -0.258227 0.748741
-0.136797 -0.258101 0.709004
-0.112484 -0.258039 0.711162
-0.0559345 -0.257969 0.729563
-0.152532 -0.257963 0.670348
-0.0289111 -0.2579 0.722173
0.193376 -0.257895 0.822388
0.0574848 -0.257832 0.744464
0.0616405 -0.257766 0.736642
-0.181771 -0.257762 0.603986
-0.0637281 -0.257759 0.652045
-0.00268111 -0.257819 0.67055
-0.0416543 -0.257757 0.641099
-0.0208614 -0.257879 0.638431
0.0197676 -0.258002 0.645644
-0.208992 -0.267986 2.50965
-0.00343576 -0.267264 2.60683
-0.13739 -0.26663 2.53355
-0.062225 -0.266047 2.5644
-0.0285559 -0.265716 2.57228
-0.104961 -0.265389 2.52512
-0.15408 -0.265065 2.4916
-0.193471 -0.264746 2.46293
-0.144381 -0.264542 2.47745
-0.0615776 -0.264231 2.50986
-0.240159 -0.264031 2.41056
-0.295997 -0.263832 2.37264
-0.0527186 -0.263532 2.48525
0.0869898 -0.263337 2.5451
-0.17519 -0.263144 2.40401
-0.137146 -0.262952 2.41304
-0.262863 -0.262717 2.34061
-0.107902 -0.262531 2.40808
-0.103195 -0.262346 2.40042
-0.0810384 -0.262163 2.40149
-0.196857 -0.261982 2.33357
-0.13293 -0.261803 2.35552
-0.211437 -0.261625 2.30625
-0.293129 -0.261449 2.25539
-0.271411 -0.261276 2.25623
-0.186285 -0.261104 2.28876
-0.187905 -0.260934 2.27792
-0.36328 -0.260833 2.17953
-0.201486 -0.260665 2.25041
-0.305151 -0.260499 2.18855
-0.307283 -0.260335 2.17745
-0.279075 -0.260174 2.18151
-0.204831 -0.260069 2.20801
-0.232799 -0.259909 2.18399
-0.305542 -0.25975 2.13759
-0.040525 -0.259592 2.26008
-0.0620063 -0.259437 2.2393
-0.0734325 -0.259283 2.22354
-0.381758 -0.259175 2.05887
-0.348693 -0.259024 2.06536
-0.240282 -0.258875 2.10952
-0.0906098 -0.258728 2.17429
-0.319885 -0.258618 2.0492
-0.202463 -0.258474 2.09785
-0.248317 -0.258332 2.06485
-0.35642 -0.25822 2.0004
-0.0529293 -0.25808 2.14207
-0.326168 -0.257967 1.99509
-0.0575514 -0.257823 2.1194
-0.234757 -0.257682 2.02077
-0.128625 -0.257543 2.06379
-0.210546 -0.257407 2.01278
-0.154859 -0.257274 2.03054
-0.308404 -0.257157 1.94352
-0.213732 -0.257026 1.98078
-0.194725 -0.25689 1.98027
-0.12577 -0.256766 2.00461
-0.106196 -0.256642 2.00428
-0.0679309 -0.256509 2.0134
-0.107604 -0.256385 1.98347
-0.22014 -0.256255 1.91718
-0.145587 -0.256131 1.94438
-0.341923 -0.256007 1.83614
-0.233272 -0.25588 1.88044
-0.181404 -0.255756 1.89634
-0.174171 -0.255632 1.88992
-0.32503 -0.255508 1.80447
-0.184955 -0.255384 1.8645
-0.149763 -0.25526 1.87209
-0.124507 -0.255136 1.87472
-0.224763 -0.255016 1.81458
-0.108855 -0.254892 1.86256
-0.258998 -0.25483 1.77678
-0.241618 -0.254712 1.77545
-0.165958 -0.254588 1.80334
-0.285635 -0.254474 1.73346
-0.158 -0.25435 1.78736
-0.116515 -0.254238 1.79805
-0.152233 -0.254115 1.77029
-0.241051 -0.253991 1.71599
-0.138713 -0.253882 1.7571
-0.0156756 -0.253759 1.80875
-0.320781 -0.253653 1.64612
-0.253164 -0.25353 1.67009
-0.205818 -0.253427 1.68366
-0.10421 -0.253303 1.72464
-0.196301 -0.25318 1.66878
-0.160547 -0.25308 1.67656
-0.17191 -0.252957 1.66108
-0.0842293 -0.252921 1.694
-0.117621 -0.252798 1.66753
-0.23259 -0.252675 1.60028
-0.371647 -0.252581 1.52062
-0.192267 -0.252458 1.60056
-0.137434 -0.252367 1.61782
-0.166538 -0.252244 1.59354
-0.265318 -0.252121 1.53443
-0.221682 -0.252033 1.54609
-0.0637027 -0.25191 1.61538
-0.107602 -0.251849 1.58292
-0.203552 -0.251763 1.52477
-0.204754 -0.25164 1.5145
-0.332384 -0.251558 1.44048
-0.215706 -0.251435 1.48917
-0.330012 -0.251313 1.42237
-0.322677 -0.251233 1.41583
-0.0863437 -0.25111 1.52437
-0.0970795 -0.251033 1.50877
-0.151328 -0.250911 1.47204
-0.161855 -0.250788 1.45719
-0.3464 -0.250775 1.35382
-0.251939 -0.250653 1.39147
-0.198131 -0.250531 1.40881
-0.261847 -0.250459 1.36669
-0.181297 -0.250337 1.39742
-0.153515 -0.250268 1.40102
-0.249235 -0.250146 1.34363
0.0274635 -0.250024 1.47246
-0.100576 -0.249958 1.39814
-0.0339544 -0.249836 1.42195
-0.0669995 -0.249775 1.39506
-0.216994 -0.249711 1.30975
-0.305292 -0.24959 1.25612
-0.244834 -0.249529 1.27601
-0.338597 -0.249407 1.21967
-0.162368 -0.249285 1.29834
-0.312833 -0.249225 1.21278
-0.041908 -0.249105 1.33878
-0.160535 -0.248984 1.27005
-0.0414331 -0.248989 1.31833
-0.0772326 -0.248867 1.29102
-0.136474 -0.248746 1.25201
-0.0687508 -0.248693 1.27548
-0.117886 -0.248571 1.24153
-0.0710918 -0.248511 1.25466
-0.162612 -0.248399 1.19939
-0.205349 -0.248278 1.16868
-0.0555727 -0.248217 1.23331
-0.182759 -0.248169 1.15929
0.0771556 -0.248048 1.27992
-0.222096 -0.247987 1.12006
-0.179819 -0.247881 1.13168
-0.075875 -0.24776 1.17435
-0.192616 -0.247716 1.10551
-0.14667 -0.247656 1.11827
-0.174988 -0.247535 1.09484
-0.257059 -0.247475 1.04361
-0.0434203 -0.247373 1.14088
-0.0175291 -0.247252 1.14458
-0.0555603 -0.247213 1.11506
-0.224812 -0.247092 1.02121
-0.232673 -0.246972 1.00806
-0.144724 -0.246995 1.04056
-0.271706 -0.246875 0.967864
-0.197514 -0.246754 0.995766
-0.0949122 -0.246719 1.03652
-0.168205 -0.246599 0.9907
-0.148736 -0.246539 0.990307
-0.145599 -0.246506 0.981313
-0.0796315 -0.246386 1.00514
-0.267392 -0.246266 0.902119
-0.0167346 -0.246235 1.01687
-0.118736 -0.246115 0.956741
-0.303894 -0.246055 0.85407
-0.132578 -0.245966 0.930107
-0.0638146 -0.245906 0.954408
-0.11349 -0.245786 0.920477
-0.120469 -0.24576 0.906374
-0.151617 -0.24564 0.881722
-0.0403841 -0.24558 0.927282
0.0617611 -0.245495 0.968713
-0.267362 -0.245435 0.794107
-0.226175 -0.245376 0.80466
-0.125458 -0.245293 0.845366
-0.027397 -0.245173 0.885368
-0.0312821 -0.245113 0.873405
-0.0541426 -0.245032 0.852314
-0.104112 -0.244913 0.818326
-0.221141 -0.244953 0.748119
-0.00750843 -0.244834 0.845946
-0.0351287 -0.244714 0.823156
-0.0304784 -0.244697 0.814781
-0.0953597 -0.244577 0.773376
-0.115665 -0.244458 0.754269
-0.247214 -0.244501 0.676757
-0.0876248 -0.244382 0.74761
-0.0524893 -0.244263 0.756246
-0.0622693 -0.244248 0.740627
-0.123706 -0.244129 0.700992
-0.358986 -0.24407 0.573411
-0.204274 -0.244057 0.640022
-0.115623 -0.243938 0.675454
-0.103776 -0.243878 0.671452
-0.0776716 -0.243807 0.67479
-0.0642976 -0.243688 0.672608
-0.0978995 -0.243629 0.6459
-0.109564 -0.243619 0.629298
0.0537644 -0.2435 0.702115
-0.160725 -0.243441 0.584978
0.0348271 -0.243372 0.67303
-0.0708456 -0.243313 0.610312
-0.155884 -0.243305 0.556996
-0.0289721 -0.243186 0.611642
-0.00293681 -0.243127 0.614793
0.00323154 -0.243061 0.608139
-0.179753 -0.242943 0.507862
-0.236582 -0.242996 0.467554
-0.0538549 -0.242878 0.550145
-0.151278 -0.24276 0.492671
-0.135361 -0.242755 0.489801
-0.0258816 -0.242637 0.535793
-0.156406 -0.242692 0.458606
-0.0485405 -0.242574 0.503803
-0.0898134 -0.242515 0.47335
-0.0397159 -0.242453 0.488642
-0.206556 -0.242394 0.395416
-0.0909351 -0.242392 0.442369
-0.254209 -0.242274 0.352032
-0.06156 -0.242272 0.437492
-0.144255 -0.242213 0.386354
0.0393261 -0.242154 0.468377
0.054115 -0.242212 0.463782
-0.142614 -0.242153 0.355638
0.0343664 -0.242095 0.434351
0.0741983 -0.242154 0.442257
-0.0462572 -0.253106 2.56226
0.0690441 -0.252545 2.61328
0.030085 -0.252106 2.58604
-0.0332053 -0.251788 2.54551
-0.169885 -0.251473 2.46829
-0.149897 -0.251161 2.4694
-0.205621 -0.250853 2.43264
-0.26494 -0.250549 2.39407
-0.18425 -0.25025 2.42549
-0.0558215 -0.250058 2.47974
-0.123741 -0.249867 2.43583
0.00250947 -0.249579 2.49
0.00546113 -0.249391 2.48152
-0.0623582 -0.249205 2.43767
-0.0168592 -0.24893 2.4514
-0.203737 -0.248748 2.34801
-0.0981594 -0.248568 2.39084
-0.110656 -0.24839 2.37464
-0.210692 -0.248213 2.31468
-0.166378 -0.248037 2.32688
-0.197554 -0.247864 2.30134
-0.221105 -0.247692 2.27961
-0.130772 -0.247522 2.31482
-0.109859 -0.247354 2.31532
-0.183756 -0.247187 2.26841
-0.164736 -0.247023 2.26795
0.0627554 -0.246924 2.37103
-0.223486 -0.246762 2.21796
-0.206137 -0.246601 2.21667
-0.212074 -0.246442 2.20373
-0.239732 -0.246285 2.17992
-0.117967 -0.246184 2.23023
-0.150553 -0.246029 2.20396
-0.0186793 -0.245876 2.25992
-0.0524772 -0.245772 2.23251
-0.127215 -0.245618 2.1852
-0.0479434 -0.245466 2.21489
-0.134471 -0.245317 2.16166
0.0576689 -0.245212 2.24728
-0.160158 -0.245064 2.12841
-0.239593 -0.244919 2.07873
-0.223456 -0.244776 2.07681
-0.174541 -0.244635 2.09127
-0.0688906 -0.244528 2.13373
-0.158787 -0.244389 2.07879
-0.192524 -0.244281 2.05159
-0.162919 -0.244144 2.0564
-0.131361 -0.244035 2.06188
-0.199766 -0.243895 2.01774
-0.149444 -0.243758 2.03296
-0.202088 -0.243622 1.99668
-0.418696 -0.243507 1.87819
-0.168837 -0.243368 1.99323
-0.123256 -0.24325 2.00589
-0.152101 -0.243114 1.98157
-0.0988412 -0.242996 1.9981
-0.223531 -0.242878 1.92566
-0.181491 -0.242745 1.93678
-0.350512 -0.242627 1.8422
-0.0933178 -0.242545 1.96029
-0.0812357 -0.242378 1.95689
-0.177934 -0.242261 1.8985
-0.26278 -0.242185 1.84553
-0.195909 -0.242015 1.86959
-0.150694 -0.241944 1.8816
-0.209145 -0.241825 1.8424
-0.218578 -0.241707 1.8277
-0.0353173 -0.24159 1.90935
-0.188584 -0.241472 1.82275
-0.182987 -0.241355 1.81559
-0.071689 -0.241237 1.8613
-0.164103 -0.241121 1.80515
-0.000665445 -0.241003 1.87694
-0.0859337 -0.24089 1.82435
-0.270422 -0.240772 1.7222
-0.182204 -0.240655 1.75642
-0.259757 -0.240544 1.70768
-0.168899 -0.240427 1.74324
-0.124033 -0.240319 1.75569
-0.141086 -0.240202 1.73732
-0.190824 -0.240143 1.70183
-0.272291 -0.240038 1.65111
-0.268411 -0.239921 1.64322
-0.151218 -0.239818 1.69182
-0.146955 -0.239701 1.68415
-0.0961262 -0.239584 1.69977
-0.198475 -0.239485 1.63858
-0.24423 -0.239368 1.60594
-0.283417 -0.239271 1.57631
-0.100726 -0.239154 1.65791
-0.0994708 -0.23906 1.64848
-0.25351 -0.238944 1.56174
-0.284185 -0.238827 1.53668
-0.115448 -0.238794 1.61017
-0.220892 -0.238677 1.54775
-0.191713 -0.238561 1.55265
-0.167976 -0.238472 1.55444
-0.0391636 -0.238356 1.60918
-0.125646 -0.23827 1.55584
-0.232731 -0.238153 1.49265
-0.246698 -0.238037 1.47602
-0.240086 -0.237954 1.46922
-0.244062 -0.237838 1.45761
-0.0859439 -0.237722 1.52706
-0.264882 -0.237699 1.42663
-0.0592513 -0.237583 1.51985
-0.101312 -0.237467 1.48924
-0.226679 -0.237389 1.41642
-0.189814 -0.237273 1.42528
-0.170898 -0.237198 1.42459
-0.364582 -0.237082 1.3182
-0.281558 -0.236966 1.35017
-0.154851 -0.236894 1.40335
-0.188462 -0.236778 1.37703
-0.111643 -0.236663 1.40593
-0.313923 -0.236651 1.29374
-0.242247 -0.236535 1.32009
-0.0737044 -0.236419 1.39488
-0.213058 -0.236352 1.31499
-0.191708 -0.236237 1.31621
-0.154767 -0.236121 1.32523
-0.298117 -0.236056 1.24333
-0.192645 -0.235941 1.28663
-0.136932 -0.235883 1.30418
-0.132069 -0.235821 1.29637
-0.120845 -0.235706 1.29257
-0.205257 -0.235591 1.24097
-0.273786 -0.235531 1.19645
-0.219717 -0.235416 1.21411
-0.134991 -0.235358 1.2462
-0.12637 -0.235244 1.24114
-0.0153007 -0.235129 1.28732
-0.159735 -0.235071 1.20485
-0.184517 -0.235017 1.18217
-0.245278 -0.234902 1.14246
-0.266832 -0.234844 1.12145
-0.128706 -0.234735 1.18112
-0.2329 -0.23462 1.11973
-0.190514 -0.234562 1.13071
-0.0589417 -0.234513 1.18616
-0.271651 -0.234398 1.07054
-0.262684 -0.234283 1.06576
-0.132418 -0.234236 1.12054
-0.234699 -0.234121 1.06016
-0.0628203 -0.234007 1.13686
-0.273388 -0.233961 1.02121
-0.103298 -0.233904 1.09609
-0.345445 -0.23379 0.965808
-0.159746 -0.233732 1.04851
-0.24285 -0.233633 0.997525
-0.132032 -0.233518 1.04375
-0.156806 -0.233478 1.02096
-0.179816 -0.233363 1.00029
-0.0888322 -0.233306 1.03566
-0.106186 -0.233249 1.01687
-0.0567771 -0.233154 1.03212
-0.148792 -0.23304 0.97698
-0.0684617 -0.232982 1.00705
-0.234089 -0.232889 0.914771
-0.247163 -0.232775 0.899128
-0.256004 -0.232718 0.884636
-0.275849 -0.232661 0.864647
-0.20858 -0.23257 0.888807
-0.18811 -0.232456 0.889971
-0.0479725 -0.2324 0.949993
-0.0726352 -0.232311 0.928175
-0.06573 -0.232254 0.921593
-0.107672 -0.23214 0.891584
-0.180109 -0.23211 0.844873
-0.105235 -0.231996 0.873289
-0.117728 -0.231883 0.858032
-0.121715 -0.231855 0.845528
-0.171382 -0.231798 0.810695
-0.0271561 -0.231685 0.87382
-0.242997 -0.231628 0.755913
-0.136083 -0.231545 0.799854
-0.169828 -0.231432 0.77402
-0.285359 -0.231318 0.707304
-0.161821 -0.231351 0.757511
-0.148962 -0.231238 0.755003
-0.0374932 -0.231124 0.801809
-0.0657313 -0.231068 0.777746
-0.0425501 -0.230989 0.779806
-0.428264 -0.230876 0.578046
-0.167523 -0.230763 0.699524
-0.117726 -0.230798 0.712814
-0.104756 -0.230685 0.71042
-0.0492105 -0.230573 0.729323
-0.253027 -0.230516 0.617514
-0.176885 -0.230441 0.646039
-0.0405265 -0.230384 0.704328
-0.212654 -0.230272 0.609428
0.0148503 -0.230215 0.713302
-0.0611226 -0.230142 0.665766
-0.215665 -0.230029 0.579684
-0.0393297 -0.229916 0.659051
-0.259162 -0.229957 0.537457
-0.120183 -0.229844 0.598158
-0.118566 -0.229732 0.590188
-0.0666857 -0.229619 0.60736
-0.117193 -0.229605 0.571477
-0.110037 -0.229549 0.56523
-0.231452 -0.229437 0.495776
-0.107604 -0.229324 0.548964
0.12937 -0.229312 0.65681
-0.0664853 -0.2292 0.550161
-0.186086 -0.229143 0.480566
-0.072944 -0.229031 0.528434
-0.0817674 -0.228975 0.514241
-0.135597 -0.228908 0.477766
-0.0068413 -0.228796 0.533465
-0.1763 -0.22874 0.438971
-0.0917138 -0.228684 0.471506
-0.0624233 -0.228618 0.476589
-0.198856 -0.228506 0.399726
-0.10908 -0.228394 0.435977
-0.178633 -0.228338 0.391467
-0.0715032 -0.22833 0.434362
-0.0215211 -0.228218 0.450738
-0.202356 -0.228107 0.351716
-0.292388 -0.227995 0.298105
-0.162755 -0.227939 0.353219
-0.110386 -0.227932 0.368727
-0.0282939 -0.22782 0.4012
-0.0714494 -0.227709 0.37106
0.0327975 -0.227597 0.41463
-0.0775414 -0.227542 0.349788
-0.18187 -0.227536 0.286943
-0.16208 -0.227424 0.288306
0.0534123 -0.227313 0.387531
-0.155369 -0.227202 0.274628
-0.121641 -0.227146 0.28185
-0.01897 -0.227035 0.324691
-0.0822374 -0.22703 0.282376
-0.103627 -0.226919 0.263201
-0.174887 -0.226864 0.217951
0.0385983 -0.226752 0.316231
-0.0395566 -0.226641 0.2687
-0.0734526 -0.22653 0.243309
-0.187316 -0.226475 0.176784
-0.212156 -0.226471 0.153686
-0.149073 -0.226361 0.176806
-0.0187224 -0.22625 0.233569
-0.0954683 -0.226139 0.186793
-0.0862552 -0.226083 0.181837
-0.0539599 -0.225973 0.189599
-0.294883 -0.225862 0.0607619
-0.178242 -0.225751 0.110717
0.00454536 -0.22564 0.193754
-0.0396018 -0.225585 0.162153
-0.0082773 -0.225475 0.169476
-0.0759644 -0.225364 0.127303
-0.0252642 -0.225309 0.143145
-0.0621466 -0.225307 0.114051
-0.01123 -0.225196 0.131201
-0.176344 -0.225086 0.0403454
-0.170441 -0.224976 0.0350077
0.0878822 -0.22492 0.154691
-0.166492 -0.22481 0.019232
-0.149509 -0.2247 0.0194613
-0.179338 -0.22459 -0.00370605
-0.0200162 -0.224426 0.0688905
