ply
format ascii 1.0
comment Created by Open3D
element vertex 1925
property double x
property double y
property double z
end_header
0.225684 0.891805 1.97006
0.214215 0.891026 1.95518
0.177153 0.89036 1.92712
0.219309 0.889611 1.93898
0.117791 0.888996 1.87854
0.186213 0.888415 1.90297
0.13197 0.887718 1.86651
0.203324 0.887192 1.89224
0.182005 0.886527 1.87215
0.10101 0.886058 1.82153
0.148459 0.885625 1.83501
0.135139 0.885016 1.81876
0.148042 0.884641 1.81478
0.153635 0.884335 1.8069
0.115792 0.884017 1.77735
0.130568 0.883738 1.77398
0.0955803 0.88322 1.74662
0.0738606 0.882976 1.72489
0.193511 0.882776 1.77368
0.162481 0.882563 1.74719
0.115143 0.882421 1.71227
0.126892 0.882238 1.70707
0.200529 0.882153 1.73243
0.184368 0.882105 1.71276
0.157185 0.882094 1.68744
0.165895 0.88198 1.68046
0.198937 0.882182 1.68442
0.222656 0.882277 1.68413
0.175953 0.882598 1.64776
0.191817 0.882798 1.64312
0.262706 0.883207 1.66518
0.265899 0.883671 1.65316
0.141633 0.884414 1.57629
0.230789 0.885491 1.6048
0.247458 0.886357 1.59787
0.345327 0.889006 1.62439
0.319471 0.93141 2.13599
0.262155 0.927634 2.1074
0.337766 0.925228 2.14089
0.23344 0.922847 2.08439
0.320097 0.921164 2.12114
0.293352 0.91954 2.10104
0.28634 0.91791 2.09087
0.256163 0.916318 2.06903
0.231231 0.915077 2.04868
0.199401 0.913854 2.02485
0.193388 0.912651 2.0139
0.234235 0.911474 2.02632
0.136616 0.910625 1.96842
0.172731 0.909503 1.97834
0.164694 0.908709 1.96509
0.215769 0.907648 1.98234
0.189822 0.906835 1.96025
0.177036 0.906119 1.94442
0.218047 0.905435 1.9554
0.118294 0.90467 1.8963
0.194503 0.90375 1.92574
0.114892 0.903304 1.87563
0.133292 0.902726 1.875
0.175075 0.901901 1.88695
0.137718 0.901503 1.85783
0.0672189 0.901018 1.81247
0.151995 0.900569 1.84463
0.144541 0.899945 1.83131
0.153852 0.899556 1.82554
0.188133 0.899205 1.83213
0.109725 0.898639 1.78317
0.0773863 0.898616 1.75528
0.171193 0.898084 1.79232
0.167597 0.897831 1.77965
0.139438 0.897619 1.75455
0.202827 0.897397 1.77527
0.189745 0.897243 1.75751
0.175781 0.897128 1.73916
0.153544 0.896957 1.71689
0.108457 0.896899 1.68278
0.123507 0.896879 1.67859
0.219332 0.896895 1.71466
0.249779 0.897109 1.71728
0.201339 0.897213 1.68087
0.209344 0.897399 1.67237
0.23798 0.897761 1.6735
0.252963 0.898199 1.66751
0.315015 0.898908 1.68399
0.249363 0.899444 1.63727
0.257537 0.900784 1.62432
0.222758 0.901981 1.59042
0.332475 0.905262 1.62057
0.390855 0.949127 2.17314
0.366329 0.943871 2.1654
0.297723 0.941105 2.12775
0.278157 0.939043 2.11243
0.347029 0.936957 2.14147
0.249747 0.934948 2.08723
0.2994 0.933287 2.10537
0.243304 0.931992 2.06948
0.271445 0.930406 2.0767
0.215313 0.929154 2.04072
0.294352 0.927927 2.07228
0.210388 0.926726 2.02228
0.217276 0.925858 2.01663
0.173951 0.924712 1.98682
0.196026 0.923847 1.9888
0.184011 0.922815 1.97432
0.189656 0.921985 1.96802
0.176528 0.921251 1.95202
0.170517 0.92045 1.93982
0.245563 0.919767 1.96777
0.174718 0.918824 1.92369
0.173504 0.918211 1.91331
0.114478 0.917483 1.87444
0.168059 0.916926 1.89129
0.153476 0.916405 1.87395
0.134623 0.915732 1.85503
0.156604 0.915552 1.8548
0.163165 0.914913 1.84849
0.122647 0.914509 1.81782
0.133475 0.914143 1.81269
0.177177 0.913562 1.82479
0.176242 0.913258 1.81359
0.0991503 0.912984 1.7642
0.206707 0.91274 1.80705
0.165518 0.912498 1.77551
0.178544 0.912313 1.77089
0.167235 0.912102 1.75419
0.170808 0.911976 1.74464
0.222049 0.911888 1.75877
0.0891353 0.911838 1.6807
0.13214 0.911826 1.69044
0.0811626 0.91185 1.65306
0.219201 0.912079 1.70942
0.172551 0.912255 1.67363
0.228223 0.912384 1.68918
0.147114 0.912791 1.63528
0.265644 0.913214 1.68113
0.201077 0.913944 1.63426
0.306183 0.914732 1.67198
0.263973 0.915575 1.63582
0.315282 0.917869 1.64083
0.40017 0.960927 2.18589
0.405425 0.957357 2.18751
0.351182 0.954935 2.15584
0.315457 0.952805 2.13256
0.318174 0.950752 2.12832
0.308594 0.94905 2.11685
0.171069 0.947385 2.04134
0.200815 0.946086 2.04832
0.256648 0.94481 2.06831
0.260323 0.94355 2.06219
0.259075 0.942313 2.05358
0.159153 0.941103 1.99557
0.234193 0.939961 2.02484
0.210629 0.939079 2.00399
0.211366 0.937957 1.9961
0.128992 0.937174 1.94556
0.208974 0.936422 1.97611
0.0561507 0.935604 1.8905
0.171505 0.934603 1.93962
0.232616 0.933938 1.96051
0.21473 0.933308 1.94179
0.131779 0.932563 1.89095
0.200273 0.931989 1.91527
0.236037 0.931452 1.92311
0.156593 0.930763 1.87388
0.0873017 0.930285 1.82902
0.147855 0.929918 1.84871
0.176814 0.929215 1.85378
0.143366 0.929119 1.82554
0.196572 0.928523 1.84239
0.167072 0.928205 1.81692
0.204036 0.927922 1.82456
0.163612 0.927664 1.79343
0.197977 0.927414 1.79968
0.202456 0.927216 1.7908
0.244647 0.926998 1.80085
0.270644 0.92686 1.80252
0.17226 0.926762 1.74187
0.199129 0.926701 1.7437
0.238805 0.926679 1.75181
0.181679 0.926845 1.71082
0.180264 0.927003 1.69772
0.273826 0.927089 1.73236
0.243556 0.927462 1.70403
0.150508 0.92783 1.64432
0.206486 0.92828 1.65881
0.252026 0.929263 1.66609
0.359034 0.930069 1.70473
0.421308 0.93093 1.72078
0.284506 0.933268 1.63171
0.394432 0.978387 2.18568
0.4201 0.974442 2.19841
0.358587 0.971207 2.16545
0.34918 0.968707 2.15634
0.332872 0.966611 2.14257
0.315025 0.96487 2.12697
0.294632 0.963162 2.11004
0.293942 0.961831 2.10181
0.292709 0.960194 2.09431
0.228778 0.958912 2.05437
0.191003 0.957651 2.02748
0.173348 0.956417 2.01059
0.202525 0.955211 2.01705
0.215494 0.954349 2.01433
0.262549 0.953204 2.02959
0.193356 0.952403 1.98564
0.193144 0.951549 1.97637
0.177119 0.950798 1.95887
0.180749 0.949773 1.95213
0.174443 0.94909 1.93931
0.173417 0.948308 1.92947
0.152086 0.947681 1.90899
0.154964 0.947091 1.9005
0.188854 0.946364 1.908
0.158271 0.945832 1.88261
0.187758 0.945339 1.88715
0.17369 0.944961 1.86952
0.248413 0.944238 1.89748
0.21929 0.944132 1.87142
0.160356 0.943521 1.8322
0.144371 0.943189 1.8135
0.167343 0.942897 1.81415
0.0755444 0.942626 1.75734
0.22316 0.942366 1.82021
0.222104 0.942156 1.80858
0.222838 0.941986 1.79771
0.187252 0.94178 1.76881
0.225815 0.941671 1.77665
0.183844 0.941713 1.74368
0.200424 0.941699 1.74019
0.223148 0.941837 1.73923
0.171051 0.941879 1.7012
0.288661 0.942139 1.74723
0.317953 0.942525 1.74864
0.219104 0.942942 1.68586
0.267459 0.943373 1.69662
0.260403 0.94412 1.67851
0.259171 0.945453 1.66114
0.273972 0.946333 1.65343
0.370922 0.948715 1.68121
0.335521 0.991219 2.16094
0.331226 0.987932 2.15653
0.367079 0.985049 2.17105
0.31046 0.982858 2.13727
0.312419 0.980746 2.13259
0.218738 0.978997 2.07902
0.241503 0.977304 2.08354
0.259268 0.975951 2.08455
0.285131 0.974639 2.0895
0.275339 0.973028 2.0776
0.277495 0.972073 2.06965
0.201619 0.97083 2.02362
0.186906 0.96966 2.00797
0.20589 0.968753 2.00835
0.177018 0.967602 1.98561
0.197647 0.9668 1.98652
0.144512 0.965717 1.95149
0.144496 0.964982 1.9419
0.18281 0.964282 1.9514
0.283389 0.963483 1.99236
0.178994 0.962838 1.93034
0.158499 0.962231 1.91018
0.156152 0.961488 1.89955
0.187628 0.96094 1.9052
0.136033 0.96043 1.8692
0.136814 0.960042 1.859
0.190094 0.959298 1.87625
0.218757 0.958943 1.8799
0.131463 0.958556 1.82568
0.239039 0.95821 1.86878
0.131996 0.957904 1.80443
0.213151 0.957624 1.83411
0.150532 0.957355 1.79186
0.22225 0.957133 1.81663
0.159475 0.956951 1.77402
0.198981 0.956809 1.78242
0.211226 0.956707 1.77705
0.139068 0.956644 1.72935
0.213196 0.956762 1.75415
0.134324 0.956757 1.70289
0.19908 0.956953 1.72273
0.207784 0.957302 1.71399
0.191912 0.957424 1.69377
0.284538 0.957839 1.72675
0.242098 0.958518 1.69124
0.259613 0.959263 1.68546
0.216674 0.960069 1.64921
0.285882 0.961784 1.66572
0.378537 0.964211 1.69134
0.457864 1.00991 2.22149
0.391252 1.00473 2.19136
0.333881 1.0018 2.15922
0.33653 0.999219 2.15609
0.355677 0.997013 2.16015
0.270864 0.994887 2.11203
0.237358 0.993133 2.08849
0.292509 0.991449 2.1091
0.162656 0.990088 2.03626
0.276568 0.988767 2.08521
0.277633 0.987472 2.07769
0.307177 0.986205 2.08436
0.260764 0.984968 2.05298
0.229441 0.984085 2.02807
0.283407 0.98291 2.04674
0.217002 0.982089 2.00413
0.131758 0.981301 1.95203
0.163188 0.980444 1.9585
0.22773 0.979394 1.98216
0.2174 0.978696 1.96728
0.254012 0.978034 1.97578
0.194154 0.977252 1.93644
0.190797 0.976649 1.92479
0.124801 0.976085 1.88171
0.169392 0.975559 1.89381
0.264618 0.974858 1.93182
0.173238 0.974395 1.87576
0.120678 0.97403 1.8388
0.246928 0.973628 1.89137
0.191807 0.973268 1.85312
0.189335 0.972948 1.84108
0.144115 0.972657 1.80757
0.300113 0.972381 1.87463
0.221742 0.972145 1.82437
0.201233 0.971951 1.80291
0.179385 0.971797 1.78065
0.230477 0.971684 1.79472
0.239564 0.971781 1.78707
0.213667 0.971727 1.76245
0.205806 0.971712 1.74672
0.208541 0.972065 1.735
0.236713 0.972243 1.7366
0.171046 0.972622 1.69058
0.280114 0.972988 1.73196
0.205269 0.973447 1.68105
0.236305 0.974191 1.68206
0.33822 0.975533 1.71638
0.285569 0.976972 1.67304
0.370096 0.979413 1.69468
0.368907 1.02235 2.18287
0.503429 1.01822 2.24999
0.288223 1.0156 2.1379
0.29849 1.013 2.13852
0.24249 1.01121 2.10368
0.312844 1.00907 2.13312
0.31921 1.00764 2.12846
0.276557 1.00591 2.10023
0.225099 1.00456 2.06648
0.231558 1.00323 2.06167
0.355507 1.00193 2.11556
0.224839 1.00069 2.04198
0.21389 0.999456 2.02826
0.191456 0.998525 2.00789
0.180919 0.99767 1.99326
0.144283 0.996524 1.96651
0.209878 0.995736 1.98978
0.211855 0.994663 1.98216
0.194645 0.993947 1.96384
0.0632333 0.993444 1.88777
0.165492 0.99247 1.93004
0.181125 0.991849 1.92789
0.189251 0.991268 1.92188
0.0868381 0.990528 1.86113
0.194969 0.990009 1.90495
0.303577 0.989612 1.94862
0.244008 0.989154 1.90842
0.128002 0.988738 1.83987
0.232388 0.988362 1.8814
0.182478 0.988028 1.84565
0.22331 0.98773 1.85516
0.212944 0.987443 1.83904
0.177988 0.987194 1.8105
0.230065 0.986987 1.82535
0.191384 0.986821 1.79469
0.267104 0.986697 1.8211
0.164951 0.986791 1.75783
0.210733 0.986726 1.76907
0.208023 0.986841 1.75545
0.161612 0.986991 1.71986
0.221692 0.987217 1.73725
0.194374 0.987593 1.71042
0.188348 0.988218 1.69337
0.301349 0.988913 1.73558
0.286127 0.989675 1.71344
0.34739 0.990499 1.72929
0.381519 0.991945 1.72939
0.374005 0.994655 1.70421
0.417049 1.04119 2.20642
0.395093 1.03587 2.1985
0.342773 1.03244 2.17001
0.293126 1.02945 2.14168
0.369402 1.02723 2.17412
0.327167 1.02538 2.14625
0.259462 1.02357 2.10559
0.268286 1.02179 2.10311
0.289694 1.02041 2.1058
0.260723 1.01872 2.08428
0.235178 1.01739 2.0634
0.288158 1.01609 2.08174
0.27627 1.01516 2.06656
0.285972 1.01392 2.06313
0.260534 1.01304 2.04104
0.162896 1.01187 1.98379
0.223457 1.01107 2.00454
0.198368 1.01019 1.98271
0.234569 1.00944 1.99115
0.15746 1.0084 1.94384
0.234209 1.00772 1.97236
0.208489 1.00724 1.94905
0.17919 1.00662 1.92439
0.196323 1.00573 1.92383
0.271529 1.00551 1.95021
0.154015 1.00479 1.88181
0.238996 1.00432 1.91389
0.221967 1.00388 1.89484
0.240911 1.00349 1.89366
0.118436 1.00316 1.82158
0.290465 1.00284 1.89675
0.157713 1.00254 1.81944
0.226792 1.00228 1.84293
0.235314 1.00206 1.83602
0.176449 1.00188 1.79528
0.176816 1.00195 1.78334
0.159325 1.00184 1.7631
0.206907 1.00176 1.77525
0.217852 1.00201 1.76801
0.167156 1.00201 1.73077
0.30043 1.0025 1.78386
0.287852 1.0026 1.76535
0.187943 1.00322 1.7014
0.290716 1.00367 1.73934
0.323504 1.00441 1.74131
0.332239 1.00576 1.72916
0.327346 1.00721 1.7098
0.305571 1.00968 1.67846
0.445137 1.05402 2.22511
0.375643 1.04937 2.19132
0.36448 1.04632 2.18221
0.328991 1.04364 2.15991
0.332471 1.04145 2.15578
0.252938 1.03955 2.10933
0.283445 1.03776 2.11765
0.307533 1.03632 2.12176
0.255018 1.03458 2.08847
0.332503 1.03322 2.11913
0.281067 1.03188 2.08528
0.202933 1.03091 2.03701
0.239072 1.02964 2.04682
0.258482 1.02873 2.0472
0.191538 1.02752 2.00533
0.254065 1.02635 2.02811
0.258502 1.02554 2.02076
0.257178 1.02477 2.01043
0.220356 1.02404 1.98227
0.342571 1.0232 2.03397
0.296233 1.02252 2.0009
0.214622 1.02157 1.95108
0.228859 1.02129 1.9471
0.223542 1.02053 1.93485
0.245831 1.02 1.93571
0.254734 1.01951 1.92976
0.164468 1.01907 1.8741
0.20735 1.0187 1.88476
0.111459 1.01832 1.82611
0.246949 1.01798 1.88302
0.247733 1.01767 1.87248
0.20879 1.0174 1.84198
0.299178 1.01717 1.87601
0.213131 1.01698 1.8217
0.264264 1.01704 1.83515
0.246855 1.01692 1.81496
0.180922 1.01694 1.76999
0.232961 1.01707 1.7837
0.242904 1.01722 1.77629
0.25974 1.01755 1.7717
0.268777 1.01792 1.7631
0.279852 1.01853 1.75468
0.294633 1.01922 1.74786
0.279522 1.01971 1.72672
0.373664 1.0208 1.75822
0.347717 1.02252 1.7275
0.420294 1.025 1.74343
0.453453 1.06756 2.23179
0.352914 1.06326 2.18131
0.390842 1.06053 2.19571
0.309025 1.05789 2.15007
0.328471 1.05594 2.15312
0.320465 1.05411 2.14218
0.269778 1.05228 2.10993
0.299444 1.05051 2.11774
0.239476 1.0491 2.07969
0.291707 1.04775 2.09764
0.210226 1.04641 2.0487
0.256217 1.04511 2.06342
0.260543 1.04419 2.05625
0.206306 1.04295 2.02072
0.255309 1.04209 2.03574
0.185052 1.04117 1.99132
0.266988 1.04036 2.02268
0.286724 1.03926 2.02384
0.215975 1.03853 1.97867
0.223073 1.03784 1.97232
0.251294 1.03719 1.97643
0.226903 1.03639 1.95469
0.293842 1.0358 1.978
0.230834 1.03526 1.93622
0.252022 1.03484 1.93615
0.189172 1.03435 1.89427
0.223466 1.03391 1.90085
0.324064 1.03351 1.94045
0.237946 1.03316 1.88657
0.174725 1.03284 1.84402
0.238618 1.03256 1.86496
0.242413 1.03231 1.85571
0.21245 1.03211 1.82946
0.227638 1.03217 1.82493
0.219218 1.03203 1.80925
0.151591 1.03205 1.76348
0.246187 1.03217 1.79846
0.26918 1.03244 1.79716
0.21372 1.03246 1.75745
0.314661 1.03299 1.79426
0.252861 1.03339 1.75014
0.332757 1.03405 1.776
0.224423 1.03478 1.70749
0.321987 1.03613 1.73986
0.364831 1.03759 1.74448
0.343071 1.03975 1.71445
0.459724 1.04494 1.74346
0.459547 1.08662 2.23438
0.311943 1.08107 2.16357
0.33261 1.07751 2.1715
0.435347 1.07475 2.21827
0.373787 1.07245 2.18171
0.381576 1.07018 2.17978
0.357617 1.06833 2.16083
0.282813 1.06684 2.11548
0.212299 1.06505 2.07317
0.271606 1.06365 2.0947
0.273868 1.06228 2.08765
0.305139 1.06094 2.09505
0.186203 1.05963 2.02728
0.263604 1.0587 2.0566
0.228354 1.05746 2.03053
0.289523 1.0566 2.05158
0.273319 1.05578 2.03387
0.200162 1.05487 1.98794
0.205906 1.05411 1.98106
0.320909 1.05338 2.02872
0.229949 1.05236 1.97429
0.292475 1.05171 1.9955
0.182678 1.05124 1.93004
0.191439 1.05066 1.92421
0.313604 1.05011 1.97497
0.237483 1.04962 1.92647
0.267506 1.04916 1.93091
0.2341 1.04879 1.9034
0.260709 1.0484 1.90596
0.219237 1.04805 1.87435
0.218112 1.04774 1.86282
0.243822 1.04749 1.86452
0.244664 1.04753 1.85288
0.250231 1.04727 1.84453
0.204027 1.04718 1.80979
0.254439 1.04737 1.82247
0.284828 1.0473 1.82595
0.344711 1.04757 1.84312
0.309428 1.04787 1.81258
0.265096 1.04792 1.77831
0.335842 1.0485 1.79989
0.261799 1.04915 1.74882
0.297099 1.05016 1.75125
0.304315 1.05096 1.74032
0.360077 1.05239 1.75154
0.344547 1.05453 1.7248
0.373194 1.05807 1.71551
0.481215 1.0994 2.24987
0.407784 1.09499 2.21285
0.351741 1.09175 2.1814
0.43563 1.08898 2.2187
0.34804 1.0867 2.16896
0.296713 1.08474 2.13653
0.297472 1.08288 2.12989
0.366744 1.08105 2.15748
0.306261 1.07961 2.11915
0.25483 1.0782 2.08528
0.310503 1.07682 2.1049
0.257549 1.07547 2.07014
0.23065 1.07451 2.04735
0.269004 1.07323 2.05812
0.184292 1.07234 2.00627
0.251992 1.07113 2.03155
0.210666 1.07031 2.00123
0.205631 1.06953 1.98896
0.246202 1.06878 1.99941
0.183288 1.06807 1.95801
0.253381 1.06723 1.98353
0.296383 1.06659 1.99493
0.238321 1.06599 1.9557
0.182523 1.06543 1.91748
0.270698 1.065 1.95087
0.321592 1.06451 1.96582
0.223991 1.06406 1.90641
0.23775 1.06365 1.90256
0.203957 1.06329 1.8748
0.273392 1.06297 1.89855
0.301228 1.06297 1.9005
0.227768 1.0627 1.85266
0.214893 1.06247 1.83499
0.198018 1.06236 1.81494
0.254801 1.06245 1.83112
0.256956 1.06247 1.82021
0.257542 1.06259 1.80816
0.262284 1.06302 1.79723
0.277504 1.06336 1.79184
0.254614 1.06393 1.76664
0.309524 1.06458 1.78008
0.344162 1.06505 1.78393
0.296099 1.06582 1.74547
0.321725 1.06723 1.74177
0.377209 1.06935 1.7507
0.40463 1.07288 1.74101
0.517337 1.11337 2.26928
0.425269 1.10926 2.22195
0.421913 1.106 2.2168
0.401065 1.10362 2.20056
0.350811 1.10128 2.16958
0.367281 1.09935 2.1709
0.323308 1.09748 2.14187
0.349906 1.09599 2.14711
0.254943 1.09418 2.09248
0.209691 1.09276 2.06166
0.261769 1.09173 2.07844
0.305118 1.09038 2.09181
0.34367 1.08912 2.10253
0.281936 1.08813 2.06238
0.213353 1.08723 2.01856
0.195977 1.08603 2.00126
0.313912 1.0852 2.05053
0.303869 1.08442 2.03572
0.231113 1.08333 1.99044
0.171971 1.08263 1.95088
0.229702 1.08213 1.96921
0.300566 1.08149 1.99449
0.235398 1.08089 1.95166
0.243285 1.08034 1.94524
0.246441 1.07983 1.93633
0.25214 1.07936 1.92858
0.228751 1.07899 1.90604
0.207364 1.07859 1.88456
0.290202 1.07824 1.91507
0.234921 1.07793 1.87639
0.296607 1.07795 1.89521
0.26357 1.07771 1.86747
0.268225 1.07758 1.85822
0.263557 1.07766 1.84367
0.375133 1.07786 1.88691
0.321277 1.07779 1.84824
0.399948 1.07806 1.87477
0.291713 1.07854 1.80721
0.27583 1.07891 1.78616
0.335952 1.07952 1.80233
0.323175 1.08022 1.78179
0.301985 1.08127 1.7559
0.366142 1.08268 1.77153
0.46556 1.08421 1.80442
0.444958 1.08736 1.77209
0.502645 1.13258 2.26173
0.364205 1.12724 2.19425
0.393548 1.12354 2.20644
0.371228 1.12068 2.19062
0.392137 1.11791 2.19623
0.292925 1.11588 2.13984
0.3126 1.11397 2.14263
0.35043 1.11206 2.15451
0.379796 1.11058 2.16106
0.261838 1.10876 2.0949
0.275475 1.1077 2.09249
0.275758 1.10631 2.08435
0.274788 1.105 2.07537
0.184169 1.10398 2.02079
0.276401 1.10278 2.05818
0.249382 1.1019 2.03506
0.213821 1.10094 2.0079
0.180545 1.10012 1.98152
0.357792 1.09899 2.0613
0.251253 1.09825 1.9981
0.322355 1.09755 2.02361
0.26993 1.0969 1.98726
0.280242 1.09628 1.98217
0.219456 1.09583 1.9411
0.287955 1.09528 1.96494
0.262898 1.09478 1.94187
0.218067 1.09432 1.90881
0.261883 1.0939 1.91994
0.260794 1.09386 1.90754
0.243813 1.09353 1.88805
0.329733 1.09321 1.91997
0.202238 1.09297 1.84497
0.218634 1.09302 1.84105
0.234086 1.09291 1.83714
0.271078 1.093 1.8434
0.273653 1.09302 1.83266
0.305669 1.09328 1.83589
0.373899 1.09359 1.8571
0.217331 1.09412 1.76522
0.280271 1.09452 1.78348
0.26466 1.09518 1.76165
0.325769 1.09621 1.77702
0.336374 1.0976 1.76602
0.423533 1.0991 1.79292
0.465107 1.1016 1.79384
0.471921 1.10661 1.76951
0.467866 1.14614 2.24685
0.463682 1.14155 2.24436
0.464795 1.13781 2.24241
0.374082 1.13499 2.1922
0.391088 1.13257 2.19484
0.262671 1.13053 2.12381
0.35734 1.1286 2.16407
0.446606 1.12705 2.20064
0.297061 1.12519 2.1187
0.280419 1.12373 2.10216
0.287747 1.12232 2.09749
0.392387 1.12094 2.14144
0.23836 1.11995 2.05501
0.241272 1.11864 2.04796
0.262966 1.11772 2.04924
0.275043 1.11648 2.04661
0.255276 1.11564 2.02699
0.157207 1.11484 1.96812
0.258427 1.11393 2.00923
0.186111 1.1132 1.9631
0.281209 1.1125 2.00057
0.279969 1.11185 1.98976
0.245429 1.11124 1.9622
0.236671 1.11068 1.94741
0.263682 1.11024 1.95015
0.28504 1.10975 1.95025
0.287914 1.1093 1.94099
0.329953 1.10889 1.95118
0.175737 1.10886 1.86217
0.308691 1.10854 1.91761
0.312796 1.10828 1.90843
0.266612 1.10832 1.87323
0.322237 1.10819 1.88943
0.282798 1.10828 1.85748
0.282589 1.10848 1.8448
0.302708 1.10841 1.84308
0.25455 1.10869 1.80618
0.318275 1.10918 1.82457
0.355291 1.10955 1.82995
0.374521 1.11071 1.82406
0.367075 1.11119 1.80686
0.445412 1.11255 1.82988
0.288548 1.11372 1.73585
0.341159 1.11589 1.74343
0.422655 1.12018 1.75889
0.46839 1.16012 2.24846
0.429162 1.15586 2.22747
0.349131 1.15253 2.18375
0.436657 1.14962 2.22279
0.46112 1.14719 2.2291
0.323995 1.14518 2.15357
0.259752 1.14324 2.11435
0.286651 1.14169 2.11969
0.289989 1.13981 2.11416
0.255637 1.13871 2.08774
0.300931 1.13727 2.10209
0.339536 1.13591 2.11291
0.325905 1.13456 2.09762
0.28121 1.13324 2.06673
0.229034 1.13232 2.03103
0.286611 1.13145 2.05013
0.304535 1.13061 2.04931
0.236077 1.12981 2.0052
0.263054 1.1289 2.00916
0.278228 1.12816 2.00672
0.254104 1.12747 1.98454
0.264183 1.12683 1.97934
0.201444 1.12622 1.93763
0.315708 1.12567 1.98431
0.247039 1.12516 1.9394
0.276805 1.12503 1.94264
0.250049 1.1246 1.91845
0.202019 1.12424 1.88346
0.305853 1.12389 1.92438
0.253096 1.1239 1.88598
0.229413 1.12361 1.86296
0.311516 1.12344 1.89252
0.252902 1.12351 1.85101
0.38366 1.12368 1.90389
0.299156 1.12383 1.8492
0.29583 1.12397 1.83512
0.323633 1.12429 1.83609
0.377783 1.12483 1.84955
0.35761 1.12576 1.82468
0.410339 1.12622 1.83765
0.327192 1.12754 1.78008
0.353158 1.12869 1.77757
0.38675 1.13084 1.77581
0.438919 1.13343 1.78195
0.549104 1.18503 2.27486
0.502038 1.17447 2.26566
0.438644 1.17024 2.23239
0.379487 1.16687 2.1991
0.420003 1.16432 2.21361
0.377083 1.16187 2.18621
0.376329 1.15985 2.17883
0.325374 1.15825 2.14527
0.289954 1.15633 2.12037
0.350815 1.15482 2.14257
0.224987 1.15334 2.07138
0.275849 1.15193 2.08837
0.388518 1.15054 2.13627
0.307479 1.14955 2.08625
0.309044 1.14822 2.07845
0.267588 1.14731 2.04807
0.275224 1.14643 2.04216
0.271593 1.14524 2.03149
0.284896 1.1448 2.02725
0.196039 1.14388 1.97326
0.305689 1.14316 2.01801
0.344004 1.14247 2.027
0.296586 1.14183 1.99301
0.296348 1.14123 1.9825
0.328199 1.14068 1.98793
0.237111 1.14018 1.93176
0.254316 1.14006 1.92867
0.226038 1.13965 1.90367
0.244619 1.13929 1.90195
0.34697 1.13928 1.94113
0.216063 1.13896 1.86457
0.271377 1.13906 1.87993
0.309702 1.13879 1.88786
0.310753 1.13902 1.87571
0.330927 1.13922 1.87319
0.311797 1.13947 1.8509
0.373588 1.13944 1.86987
0.301964 1.14026 1.81965
0.391688 1.14084 1.85076
0.344794 1.14128 1.81399
0.293887 1.14257 1.7727
0.374627 1.1437 1.79768
0.414994 1.1455 1.80045
0.366474 1.14775 1.75738
0.518813 1.15246 1.80733
0.500773 1.19535 2.26148
0.460712 1.18882 2.24539
0.439122 1.18461 2.23282
0.382906 1.1816 2.19998
0.403706 1.17903 2.20461
0.310591 1.17695 2.15109
0.385 1.17491 2.18126
0.343674 1.17293 2.15343
0.358159 1.17099 2.15349
0.303464 1.16985 2.11689
0.359365 1.16836 2.13653
0.344859 1.16695 2.1208
0.312683 1.16555 2.09623
0.315599 1.16418 2.08914
0.300084 1.16323 2.07177
0.33841 1.16232 2.08124
0.342284 1.16108 2.07438
0.297919 1.16025 2.04233
0.298792 1.15946 2.0328
0.251847 1.1589 1.99876
0.310889 1.15817 2.01817
0.335377 1.15749 2.02019
0.22977 1.15686 1.95706
0.328385 1.15627 1.99593
0.238802 1.15572 1.94059
0.285181 1.15557 1.95215
0.345101 1.15512 1.97132
0.287346 1.15472 1.93154
0.318564 1.1547 1.93517
0.277736 1.15437 1.90365
0.283919 1.15442 1.89458
0.332904 1.15418 1.90773
0.241686 1.15431 1.84971
0.258475 1.15449 1.84558
0.332382 1.1547 1.86988
0.382328 1.15511 1.88167
0.243925 1.15543 1.79952
0.290765 1.15598 1.80931
0.368448 1.15639 1.8349
0.251181 1.15764 1.76059
0.345516 1.15874 1.79248
0.419749 1.15992 1.8141
0.425392 1.16241 1.79751
0.574326 1.16572 1.8501
0.490685 1.20931 2.25795
0.413657 1.20324 2.22205
0.415522 1.1997 2.21941
0.432157 1.19667 2.22296
0.400158 1.19375 2.20198
0.381215 1.19165 2.18552
0.41999 1.1896 2.19784
0.313135 1.18798 2.13627
0.287275 1.18604 2.11607
0.278676 1.18451 2.10348
0.42539 1.1834 2.1675
0.38397 1.18194 2.13838
0.296883 1.18058 2.08621
0.298374 1.17921 2.07836
0.28763 1.17826 2.06334
0.311888 1.17735 2.06574
0.277876 1.17611 2.03989
0.261942 1.17528 2.02201
0.317724 1.17449 2.03989
0.317754 1.17411 2.02883
0.242447 1.17321 1.98149
0.370121 1.17254 2.03507
0.29823 1.17227 1.98778
0.254231 1.17168 1.9553
0.277426 1.17114 1.9563
0.314511 1.17065 1.96412
0.2162 1.17021 1.90413
0.351597 1.17016 1.95992
0.302727 1.16981 1.92441
0.309745 1.16983 1.91584
0.251361 1.16959 1.87525
0.277068 1.16965 1.8759
0.37848 1.1698 1.91416
0.343306 1.1701 1.88369
0.297049 1.17035 1.84781
0.375013 1.17064 1.87392
0.347823 1.17115 1.84681
0.334271 1.17155 1.82686
0.392288 1.17252 1.84103
0.3658 1.17383 1.81194
0.425221 1.17498 1.82626
0.411256 1.17682 1.80187
0.370456 1.17942 1.7618
0.460352 1.18423 1.7806
0.541039 1.22333 2.28449
0.496939 1.21798 2.26311
0.484598 1.21448 2.25315
0.418717 1.21142 2.21541
0.457038 1.20887 2.22859
0.443364 1.20636 2.21571
0.430378 1.20469 2.20113
0.39118 1.20307 2.17335
0.308938 1.20111 2.12493
0.39686 1.19958 2.16056
0.283698 1.19846 2.09461
0.313537 1.197 2.10109
0.406337 1.19563 2.13881
0.339717 1.19426 2.09686
0.402618 1.19331 2.11862
0.339744 1.1924 2.07741
0.289164 1.19116 2.04323
0.303589 1.19033 2.04049
0.301858 1.18992 2.02861
0.283109 1.18918 2.00908
0.233796 1.18848 1.97417
0.352445 1.18783 2.02312
0.320644 1.18735 1.99644
0.261412 1.18677 1.95629
0.292419 1.18624 1.96115
0.259554 1.18611 1.933
0.241114 1.18568 1.91289
0.23887 1.18529 1.90076
0.276537 1.18529 1.90755
0.364457 1.18531 1.93938
0.378853 1.18504 1.93526
0.352778 1.18516 1.90985
0.338816 1.18542 1.89011
0.294744 1.18564 1.8554
0.311377 1.1859 1.85092
0.282298 1.18638 1.82299
0.42684 1.18675 1.88217
0.363197 1.18769 1.83562
0.431172 1.18871 1.85464
0.467098 1.18981 1.8574
0.423645 1.19159 1.81849
0.486296 1.19383 1.8313
0.496123 1.19721 1.81437
0.474109 1.23772 2.25142
0.536562 1.2328 2.28214
0.372545 1.22927 2.19632
0.419474 1.22659 2.21399
0.333256 1.22361 2.16584
0.452613 1.22148 2.21847
0.386698 1.2198 2.17739
0.325783 1.21779 2.13967
0.40297 1.2162 2.16997
0.344711 1.21466 2.13248
0.283891 1.21315 2.09365
0.319266 1.21207 2.10187
0.337064 1.21071 2.10204
0.28723 1.20933 2.06845
0.336658 1.20838 2.08343
0.376447 1.20748 2.09351
0.269201 1.20661 2.02999
0.293199 1.20578 2.03199
0.384402 1.205 2.06749
0.34122 1.20427 2.0357
0.346276 1.20358 2.02793
0.332315 1.20307 2.01019
0.248769 1.20245 1.95795
0.328286 1.20188 1.98712
0.302334 1.20172 1.9625
0.363878 1.20125 1.98246
0.297634 1.20082 1.9384
0.296376 1.20079 1.92578
0.134709 1.2008 1.83287
0.333113 1.20049 1.92083
0.311838 1.20057 1.89789
0.348858 1.20078 1.90377
0.347836 1.20098 1.89066
0.328504 1.20121 1.86827
0.325836 1.20165 1.85367
0.274831 1.20199 1.81515
0.415335 1.2029 1.87079
0.432076 1.20389 1.86431
0.40994 1.20496 1.83815
0.397209 1.20611 1.81646
0.465484 1.20796 1.83328
0.409185 1.21058 1.78559
0.527079 1.21474 1.82056
0.471845 1.25261 2.24953
0.413003 1.24803 2.21861
0.42199 1.24406 2.22025
0.45373 1.24136 2.23029
0.383413 1.23876 2.18909
0.380685 1.23662 2.18064
0.379334 1.23493 2.17181
0.468028 1.2329 2.20886
0.347055 1.23131 2.14006
0.375866 1.22937 2.14702
0.389941 1.22825 2.14463
0.400997 1.22717 2.14065
0.2951 1.22612 2.07814
0.260546 1.22472 2.05219
0.37559 1.22376 2.09999
0.345393 1.22257 2.07573
0.427206 1.22171 2.10669
0.369931 1.22089 2.06801
0.354598 1.22011 2.0502
0.341058 1.21955 2.03274
0.388412 1.21885 2.04613
0.381126 1.21819 2.03208
0.286152 1.21758 1.97408
0.29801 1.21739 1.96843
0.31151 1.21687 1.96443
0.307674 1.21676 1.95071
0.239618 1.21635 1.9057
0.362793 1.21633 1.95525
0.383632 1.21601 1.95444
0.377442 1.21604 1.93918
0.315318 1.2162 1.8956
0.398815 1.21637 1.92483
0.286061 1.21657 1.85581
0.407038 1.21682 1.90353
0.382444 1.21728 1.87791
0.436203 1.21816 1.8903
0.40105 1.21857 1.85949
0.429348 1.21959 1.85873
0.358915 1.22068 1.80837
0.470641 1.22247 1.84715
0.459019 1.22438 1.82388
0.486581 1.22807 1.81521
0.545972 1.23454 1.81457
0.454171 1.26749 2.23993
0.456554 1.26287 2.23962
0.461298 1.25927 2.23813
0.431399 1.25654 2.21733
0.388055 1.25393 2.18958
0.360346 1.25177 2.1686
0.364531 1.25007 2.16251
0.420853 1.24803 2.18334
0.366605 1.24643 2.14787
0.376514 1.24488 2.14436
0.30406 1.24337 2.09964
0.377651 1.24228 2.1269
0.30794 1.24084 2.08341
0.312019 1.23983 2.07576
0.318859 1.23887 2.06942
0.403278 1.23794 2.10178
0.364025 1.23706 2.07221
0.398862 1.23623 2.07959
0.293339 1.23543 2.0167
0.318717 1.23469 2.01915
0.322019 1.23399 2.01046
0.34477 1.23371 2.01043
0.374689 1.23311 2.01483
0.319717 1.23255 1.97667
0.382837 1.23241 1.99649
0.358623 1.23195 1.97348
0.347753 1.2319 1.95607
0.268688 1.23154 1.90539
0.324346 1.23156 1.92108
0.333343 1.23162 1.91331
0.406276 1.23181 1.93721
0.366148 1.23198 1.90458
0.385318 1.2322 1.90147
0.29326 1.23262 1.84224
0.381762 1.23328 1.87261
0.377965 1.23384 1.85706
0.402506 1.23483 1.85455
0.423998 1.2359 1.85026
0.427164 1.23736 1.83571
0.443662 1.23921 1.82674
0.421055 1.24185 1.79601
0.484813 1.24536 1.80603
0.512533 1.29241 2.25754
0.561071 1.28238 2.29263
0.472237 1.27813 2.24573
0.417145 1.2745 2.2143
0.402271 1.27181 2.20082
0.411353 1.26952 2.19844
0.352232 1.26698 2.1626
0.360955 1.26485 2.15975
0.536231 1.26318 2.2391
0.310059 1.26157 2.11763
0.478591 1.2604 2.19249
0.358441 1.2585 2.12478
0.262876 1.25741 2.06743
0.358384 1.25597 2.10651
0.288258 1.25497 2.06172
0.414067 1.254 2.11482
0.42065 1.25308 2.10822
0.346232 1.2522 2.06102
0.340968 1.25137 2.04831
0.311901 1.25058 2.0236
0.395578 1.24985 2.05516
0.345039 1.24953 2.01855
0.394099 1.24889 2.03258
0.336078 1.24829 1.99296
0.372251 1.24811 1.99938
0.383347 1.24762 1.99409
0.43114 1.24753 2.00609
0.346432 1.24713 1.95265
0.363278 1.24713 1.94897
0.340633 1.24716 1.92546
0.368518 1.24724 1.92709
0.411616 1.24744 1.93601
0.389012 1.24763 1.91209
0.447133 1.24787 1.92842
0.408224 1.24864 1.89481
0.421701 1.24898 1.88852
0.405274 1.2499 1.86572
0.398849 1.25091 1.84767
0.458739 1.252 1.86254
0.438704 1.25379 1.83554
0.496877 1.2557 1.84726
0.535909 1.25873 1.84635
0.534429 1.26305 1.82163
0.559739 1.30602 2.28362
0.519908 1.29728 2.2713
0.491928 1.29307 2.25461
0.469463 1.28981 2.23852
0.467539 1.28661 2.23264
0.447459 1.28436 2.21552
0.327153 1.28216 2.14821
0.406047 1.28002 2.18041
0.409178 1.27876 2.17267
0.272419 1.27673 2.09685
0.42223 1.27555 2.16232
0.309462 1.27401 2.0974
0.338583 1.2729 2.10239
0.446115 1.27152 2.14729
0.364819 1.27012 2.09784
0.36975 1.26916 2.09045
0.333507 1.26824 2.0624
0.303611 1.26736 2.03742
0.353858 1.26654 2.05242
0.336577 1.26614 2.03261
0.311851 1.26541 2.00992
0.344501 1.26472 2.01581
0.393152 1.26408 2.02959
0.347767 1.26387 1.9953
0.383796 1.26333 2.00254
0.370297 1.26321 1.98396
0.358064 1.26277 1.96684
0.31959 1.26275 1.93554
0.363726 1.26275 1.94548
0.409546 1.2628 1.95615
0.336228 1.26289 1.90714
0.437886 1.26311 1.94527
0.330258 1.26331 1.87881
0.407984 1.26356 1.90489
0.431751 1.26436 1.90256
0.364963 1.26471 1.8561
0.403234 1.26566 1.86059
0.399036 1.26669 1.8436
0.491487 1.26842 1.87309
0.499806 1.26996 1.86096
0.535262 1.27257 1.85949
0.579618 1.27568 1.8611
0.640103 1.28188 1.86236
0.572387 1.32102 2.2892
0.516386 1.31302 2.26688
0.452237 1.30835 2.23304
0.460506 1.30507 2.23229
0.448679 1.30226 2.22047
0.454547 1.29958 2.21725
0.408481 1.29736 2.18703
0.404768 1.29603 2.17596
0.367133 1.29395 2.14973
0.394671 1.29231 2.15508
0.410408 1.29032 2.15537
0.369827 1.28918 2.12555
0.404614 1.28808 2.13333
0.353591 1.28701 2.09814
0.331043 1.28599 2.07711
0.393237 1.28473 2.09904
0.332078 1.28381 2.05848
0.366499 1.28294 2.06562
0.39443 1.28211 2.06942
0.404388 1.28134 2.06413
0.312349 1.28061 2.00774
0.248936 1.28031 1.96461
0.348479 1.27968 2.00379
0.277565 1.2791 1.95762
0.363609 1.27895 1.98889
0.400928 1.27884 1.99569
0.3601 1.27841 1.96421
0.364274 1.2784 1.9542
0.389871 1.27841 1.95484
0.326571 1.27846 1.91091
0.405423 1.27857 1.93794
0.448204 1.27881 1.94657
0.358901 1.27902 1.88922
0.404576 1.27963 1.89834
0.411188 1.28011 1.88828
0.410549 1.28102 1.87343
0.45292 1.28202 1.87985
0.380025 1.28344 1.82752
0.499804 1.2846 1.87217
0.531425 1.28649 1.87079
0.519814 1.28883 1.84659
0.584688 1.29269 1.85652
0.651643 1.30056 1.85675
0.533819 1.33612 2.26896
0.569411 1.32846 2.29148
0.533759 1.32406 2.27113
0.44245 1.32033 2.22153
0.453569 1.31799 2.22003
0.415636 1.31528 2.19491
0.33603 1.31303 2.14791
0.442619 1.31085 2.19392
0.423479 1.30956 2.17504
0.434914 1.3075 2.17326
0.415346 1.3063 2.154
0.433853 1.30478 2.15457
0.396836 1.30327 2.12738
0.35166 1.3022 2.09507
0.375687 1.30118 2.09729
0.38928 1.3002 2.0942
0.407374 1.29927 2.09328
0.331223 1.29838 2.04514
0.447727 1.29754 2.09323
0.372171 1.29674 2.04519
0.424997 1.29639 2.0603
0.343125 1.29569 2.00889
0.385055 1.29543 2.01834
0.291336 1.29483 1.96079
0.395029 1.29466 2.00089
0.397789 1.29417 1.99135
0.357837 1.29408 1.95945
0.362151 1.29407 1.94947
0.423418 1.29409 1.9679
0.421948 1.29416 1.95484
0.412741 1.29428 1.9378
0.435474 1.29444 1.9366
0.445952 1.29512 1.92795
0.387632 1.2954 1.88593
0.458218 1.29624 1.90691
0.382467 1.29717 1.85446
0.505005 1.29819 1.90092
0.469671 1.2993 1.86819
0.469624 1.30082 1.85201
0.546309 1.30307 1.87228
0.549985 1.30581 1.85471
0.584586 1.30976 1.84935
0.639012 1.35156 2.31988
0.494706 1.34381 2.25245
0.525075 1.33947 2.26488
0.507184 1.33612 2.25102
0.460877 1.33283 2.22288
0.597095 1.33052 2.28384
0.428986 1.32827 2.19256
0.449574 1.32691 2.19362
0.361048 1.32479 2.14191
0.3681 1.32313 2.13695
0.417498 1.32151 2.1531
0.368739 1.32035 2.11915
0.487864 1.31882 2.17003
0.295761 1.31773 2.06426
0.520835 1.31639 2.16772
0.32414 1.31542 2.05945
0.415808 1.31449 2.09527
0.358926 1.3136 2.05672
0.421187 1.31316 2.0767
0.334469 1.31237 2.02304
0.336148 1.31164 2.01347
0.301371 1.31133 1.98462
0.401858 1.3107 2.02424
0.376359 1.31049 1.99982
0.330671 1.30995 1.96611
0.410046 1.30984 1.9939
0.364503 1.30978 1.95912
0.498694 1.30977 2.01409
0.414566 1.3098 1.95977
0.333123 1.30989 1.90669
0.38149 1.31002 1.91838
0.507372 1.31019 1.96872
0.42204 1.3109 1.91211
0.365596 1.31119 1.87098
0.486214 1.31205 1.91692
0.401067 1.31301 1.85972
0.507697 1.3144 1.8973
0.394297 1.31553 1.8255
0.59078 1.31708 1.90754
0.551541 1.31971 1.8689
0.522488 1.32214 1.83581
0.588712 1.32721 1.84346
0.520008 1.36754 2.25755
0.574369 1.35971 2.28943
0.451365 1.35532 2.22516
0.521846 1.35184 2.25568
0.488854 1.34903 2.23305
0.463224 1.34627 2.21404
0.507114 1.34398 2.22876
0.456951 1.34176 2.19636
0.416062 1.34044 2.16657
0.396904 1.33835 2.14945
0.3829 1.33713 2.13294
0.470401 1.33558 2.16797
0.349841 1.33404 2.09896
0.35297 1.33296 2.09078
0.295585 1.33192 2.05225
0.456507 1.33133 2.12185
0.467659 1.33038 2.11742
0.380186 1.32948 2.06358
0.347539 1.32863 2.03706
0.409967 1.32803 2.05749
0.414224 1.3273 2.04916
0.353833 1.32662 2.0084
0.420112 1.32637 2.02994
0.418281 1.32579 2.01823
0.330138 1.32565 1.96233
0.401564 1.32555 1.9861
0.364032 1.3255 1.95528
0.369512 1.3255 1.94586
0.417437 1.32552 1.95759
0.393413 1.32559 1.93322
0.441117 1.32579 1.94441
0.405563 1.32598 1.91398
0.519433 1.32671 1.95692
0.421248 1.32736 1.894
0.456783 1.32825 1.89735
0.470917 1.32923 1.88974
0.52243 1.3303 1.90058
0.463436 1.3318 1.85508
0.534998 1.33337 1.87462
0.509549 1.33637 1.84199
0.585646 1.33955 1.8596
0.685137 1.34441 1.88454
0.533911 1.38397 2.26075
0.460807 1.37553 2.23005
0.496802 1.37066 2.2462
0.524474 1.36724 2.25509
0.471052 1.36475 2.22146
0.46619 1.36154 2.21375
0.345863 1.35924 2.14632
0.502001 1.35789 2.21507
0.391383 1.3557 2.15233
0.476655 1.35443 2.18551
0.398542 1.35237 2.1388
0.386855 1.35119 2.12335
0.424975 1.35005 2.13274
0.417641 1.34862 2.12008
0.427577 1.34758 2.11517
0.381926 1.34659 2.08239
0.364227 1.34564 2.06349
0.373976 1.34475 2.05822
0.396596 1.3443 2.05836
0.393199 1.3435 2.04632
0.465514 1.34275 2.07202
0.395969 1.34245 2.02577
0.413958 1.3418 2.02409
0.380875 1.34159 1.99585
0.447133 1.34143 2.01717
0.377498 1.34129 1.97051
0.496645 1.34125 2.01799
0.346163 1.34125 1.93056
0.419336 1.34128 1.95487
0.362404 1.34137 1.914
0.383538 1.3415 1.91205
0.373612 1.34215 1.8933
0.399499 1.3424 1.89343
0.413301 1.34322 1.88611
0.416272 1.34394 1.87361
0.406645 1.34491 1.85416
0.522941 1.34632 1.89656
0.498915 1.3481 1.86784
0.43187 1.3497 1.81804
0.591838 1.35275 1.87807
0.604623 1.35598 1.86397
0.577451 1.36122 1.82472
0.654388 1.40097 2.3161
0.563842 1.39103 2.27968
0.516263 1.38655 2.25309
0.498607 1.3831 2.23931
0.573417 1.38014 2.27075
0.488824 1.37776 2.22127
0.4202 1.37543 2.1797
0.499573 1.37316 2.21202
0.483122 1.37183 2.1944
0.451549 1.36969 2.17106
0.441849 1.36845 2.15667
0.388198 1.36687 2.12109
0.294481 1.36531 2.06546
0.393722 1.36421 2.1053
0.294349 1.36315 2.04574
0.37201 1.36214 2.07462
0.425548 1.36159 2.09041
0.434014 1.36067 2.08451
0.43672 1.35981 2.07563
0.372988 1.3592 2.03294
0.471975 1.35846 2.07194
0.302352 1.35777 1.97652
0.409893 1.35752 2.01866
0.372235 1.35733 1.98809
0.446154 1.35718 2.01319
0.493804 1.35708 2.02505
0.336096 1.35703 1.93411
0.36048 1.35702 1.93411
0.415374 1.35705 1.9493
0.443755 1.35718 1.95097
0.421664 1.35732 1.92736
0.430021 1.35788 1.91798
0.493912 1.35862 1.93591
0.410826 1.35893 1.88139
0.623994 1.36019 1.97266
0.473246 1.36119 1.8826
0.508798 1.36262 1.88459
0.575473 1.3638 1.90275
0.585545 1.36606 1.88989
0.583615 1.36846 1.87066
0.57269 1.37276 1.8421
0.588855 1.37774 1.82528
0.58425 1.40743 2.28613
0.563923 1.40291 2.27315
0.545976 1.39941 2.25922
0.531441 1.39598 2.24692
0.422898 1.39357 2.18547
0.445029 1.39121 2.18927
0.454274 1.38891 2.18654
0.439774 1.38669 2.17182
0.428165 1.38539 2.15653
0.409387 1.38373 2.1385
0.417585 1.38252 2.13297
0.428361 1.38136 2.12865
0.425712 1.38024 2.11754
0.417318 1.37885 2.10419
0.373206 1.37785 2.07214
0.435283 1.37689 2.09309
0.366329 1.37598 2.04843
0.41471 1.37552 2.06142
0.502466 1.37471 2.09492
0.409097 1.37435 2.03683
0.42957 1.37365 2.03647
0.390498 1.37339 2.00531
0.397474 1.37317 1.99707
0.438017 1.37301 2.0055
0.490055 1.37248 2.02055
0.435581 1.37246 1.98115
0.384784 1.37283 1.94267
0.47815 1.37286 1.97705
0.405633 1.37295 1.92836
0.426718 1.37354 1.92527
0.407495 1.37375 1.90293
0.525472 1.37437 1.9482
0.472395 1.3752 1.90742
0.461931 1.37613 1.8877
0.567453 1.3775 1.92486
0.471387 1.37862 1.86184
0.533962 1.38016 1.87707
0.626433 1.38246 1.90536
0.629785 1.38522 1.8879
0.533406 1.38851 1.81923
0.697195 1.39384 1.87548
0.64881 1.42443 2.31348
0.572263 1.41885 2.2745
0.52395 1.41521 2.2456
0.517041 1.41184 2.23689
0.555438 1.4094 2.24891
0.483752 1.40695 2.20593
0.418568 1.40512 2.16492
0.426233 1.40286 2.16128
0.372819 1.40154 2.1251
0.404305 1.39942 2.13315
0.470929 1.3982 2.15683
0.474402 1.39702 2.14886
0.421746 1.39554 2.11351
0.474094 1.39447 2.12978
0.394754 1.39344 2.08012
0.389199 1.39288 2.06634
0.430106 1.39195 2.07662
0.440325 1.39107 2.07146
0.444777 1.39065 2.06239
0.374183 1.38987 2.01662
0.353616 1.38941 1.99516
0.429337 1.38916 2.02136
0.417459 1.38856 2.00456
0.502156 1.38842 2.03502
0.428788 1.38832 1.98633
0.358146 1.38827 1.93889
0.46967 1.38865 1.98155
0.483815 1.38867 1.97633
0.438391 1.38881 1.94107
0.539216 1.38933 1.97801
0.470159 1.38953 1.93077
0.494055 1.39029 1.92868
0.560275 1.3915 1.94664
0.507649 1.39189 1.90714
0.568273 1.39326 1.92189
0.554416 1.39471 1.89916
0.555304 1.3969 1.882
0.605365 1.39855 1.89071
0.594954 1.40169 1.86549
0.734005 1.40535 1.91368
0.655518 1.41074 1.84876
0.678549 1.44045 2.32555
0.565258 1.43525 2.26726
0.490108 1.43069 2.22681
0.477743 1.42817 2.21349
0.50456 1.42473 2.22175
0.512272 1.42234 2.21831
0.501007 1.42092 2.20332
0.464915 1.41863 2.17781
0.419823 1.41686 2.14674
0.450773 1.41557 2.15264
0.440238 1.41433 2.13774
0.440075 1.41233 2.12971
0.487935 1.4112 2.14382
0.436771 1.41053 2.10741
0.469071 1.40948 2.11358
0.394453 1.40849 2.0662
0.46693 1.40729 2.09282
0.379118 1.40683 2.03768
0.521792 1.40601 2.0986
0.456933 1.40565 2.05474
0.41568 1.40533 2.02257
0.494103 1.40467 2.05104
0.412917 1.40446 1.99868
0.496736 1.4043 2.02872
0.501882 1.40419 2.0193
0.437096 1.40413 1.97481
0.502271 1.4045 1.99429
0.509879 1.40454 1.98576
0.517505 1.40463 1.97711
0.496576 1.40514 1.9532
0.538431 1.40582 1.96029
0.522547 1.40608 1.93948
0.512448 1.40729 1.91931
0.53979 1.40823 1.91846
0.47661 1.40962 1.87127
0.633732 1.41111 1.93399
0.506933 1.41267 1.85451
0.49532 1.415 1.83076
0.593216 1.4178 1.86059
0.587684 1.42114 1.83734
0.691304 1.42656 1.86353
0.622576 1.45649 2.29479
0.67819 1.45124 2.32094
0.548245 1.44763 2.25098
0.53197 1.44408 2.2378
0.502243 1.44105 2.21686
0.495273 1.43862 2.20608
0.418313 1.43625 2.1602
0.493118 1.43486 2.18818
0.439505 1.43262 2.15378
0.478737 1.43132 2.16383
0.466749 1.42966 2.14907
0.460308 1.42846 2.13611
0.443016 1.4273 2.11765
0.38783 1.42619 2.08017
0.520767 1.42482 2.13732
0.416728 1.42425 2.07427
0.52232 1.42331 2.11686
0.421593 1.42283 2.05527
0.392178 1.42199 2.03015
0.487594 1.42161 2.06644
0.411707 1.42088 2.01787
0.459773 1.4206 2.03027
0.407427 1.42038 1.99235
0.513047 1.42013 2.03345
0.525864 1.42003 2.02783
0.393633 1.42 1.94953
0.393948 1.42037 1.9366
0.385871 1.4204 1.92024
0.449771 1.42048 1.93974
0.49988 1.42107 1.95117
0.551424 1.42164 1.96334
0.513325 1.42241 1.93023
0.406532 1.4231 1.86294
0.589943 1.42439 1.93932
0.465207 1.42542 1.86222
0.506693 1.4269 1.86715
0.611083 1.42847 1.9033
0.631416 1.43114 1.89475
0.642503 1.43361 1.88202
0.619861 1.43729 1.84947
0.668911 1.44193 1.85038
0.789908 1.45254 1.87271
0.681593 1.47403 2.31849
0.580128 1.46725 2.26913
0.527416 1.46405 2.23685
0.552023 1.46046 2.24411
0.447506 1.45694 2.1867
0.386031 1.45448 2.14867
0.457477 1.45253 2.17607
0.533495 1.45068 2.20558
0.47906 1.44884 2.16985
0.477004 1.44752 2.15925
0.478775 1.4454 2.15231
0.417331 1.44418 2.11185
0.40958 1.44343 2.09725
0.456357 1.44197 2.11147
0.393832 1.44091 2.07019
0.404458 1.4399 2.06539
0.499862 1.43935 2.10198
0.423961 1.43844 2.05373
0.45539 1.438 2.05813
0.433078 1.4376 2.03557
0.386302 1.43685 2.00157
0.428936 1.43643 2.01154
0.447733 1.43622 2.00915
0.497073 1.43606 2.02192
0.488009 1.43594 2.00537
0.508692 1.43591 2.00353
0.52439 1.43626 1.99831
0.484145 1.43628 1.96587
0.547776 1.43678 1.98427
0.563149 1.43692 1.97935
0.504309 1.43749 1.93634
0.527244 1.43825 1.93378
0.507327 1.43947 1.9087
0.599948 1.44022 1.94097
0.50715 1.4416 1.87903
0.574432 1.44307 1.8969
0.620943 1.44463 1.90414
0.722691 1.44696 1.93716
0.61083 1.44977 1.8622
0.712276 1.45313 1.89254
0.745296 1.45796 1.88506
0.702529 1.46592 1.83212
0.728938 1.49221 2.33518
0.591099 1.48477 2.2688
0.596452 1.48005 2.2686
0.479707 1.47641 2.20517
0.536045 1.47331 2.22727
0.506662 1.47081 2.20528
0.452804 1.46839 2.17096
0.502497 1.46696 2.18637
0.515956 1.46465 2.18552
0.502523 1.46331 2.16924
0.452625 1.46159 2.13555
0.491845 1.46035 2.14543
0.493296 1.45916 2.13635
0.421594 1.45767 2.09135
0.492416 1.45701 2.11583
0.538867 1.45598 2.12896
0.456321 1.45501 2.07749
0.440189 1.4545 2.05822
0.455888 1.45403 2.05477
0.467065 1.45303 2.05027
0.521679 1.45269 2.06602
0.454336 1.45241 2.02068
0.458621 1.45218 2.01105
0.606434 1.452 2.07307
0.546832 1.45188 2.03126
0.533572 1.45184 2.01245
0.448299 1.45217 1.95677
0.499269 1.45221 1.9699
0.462752 1.45267 1.93831
0.420218 1.4528 1.90445
0.46648 1.45385 1.9129
0.489941 1.45411 1.91174
0.446473 1.45532 1.87491
0.450479 1.45607 1.86289
0.580731 1.45744 1.91251
0.6254 1.45891 1.9191
0.556976 1.46113 1.86737
0.653359 1.46314 1.89848
0.717604 1.46562 1.91241
0.688481 1.46889 1.87773
0.806623 1.47319 1.91419
0.772466 1.48016 1.86809
0.676721 1.51044 2.30213
0.675954 1.50189 2.30636
0.603236 1.49606 2.26923
0.557283 1.49284 2.24027
0.530764 1.49025 2.21981
0.5701 1.48672 2.23423
0.482858 1.48471 2.1823
0.508447 1.48282 2.18658
0.583627 1.48093 2.21568
0.475745 1.47957 2.15217
0.542754 1.47782 2.17695
0.443029 1.47656 2.11736
0.465301 1.47497 2.11948
0.444086 1.47382 2.09895
0.492337 1.47272 2.11307
0.534041 1.4721 2.12292
0.490053 1.4711 2.09073
0.54376 1.47057 2.1064
0.489601 1.46946 2.0694
0.371883 1.46906 1.99911
0.559919 1.46871 2.08158
0.453782 1.46841 2.01686
0.454841 1.46817 2.00563
0.404716 1.46798 1.96869
0.505721 1.46784 2.0072
0.470999 1.46779 1.97766
0.538086 1.46811 1.99819
0.425919 1.46813 1.92977
0.567293 1.46858 1.98714
0.566702 1.46909 1.97341
0.457812 1.46974 1.90518
0.516208 1.47036 1.92066
0.637755 1.4712 1.96721
0.59302 1.4725 1.92954
0.659549 1.47331 1.94862
0.619989 1.47477 1.91313
0.587436 1.47668 1.88009
0.687311 1.47901 1.91226
0.730339 1.48182 1.91484
0.718578 1.48476 1.88967
0.730693 1.48861 1.87426
0.744744 1.49461 1.8547
0.659348 1.51904 2.2932
0.612712 1.5136 2.2682
0.588068 1.50988 2.25083
0.489055 1.50622 2.1962
0.641963 1.50365 2.26539
0.559775 1.50159 2.21603
0.450383 1.49915 2.15388
0.496385 1.49678 2.16931
0.511068 1.4954 2.16708
0.557249 1.49363 2.18146
0.434786 1.49235 2.1105
0.419925 1.49073 2.09407
0.513345 1.49 2.12995
0.453667 1.48888 2.09011
0.521491 1.48781 2.11393
0.510044 1.48722 2.09713
0.458284 1.486 2.0615
0.445654 1.48553 2.04386
0.535048 1.48512 2.07713
0.455186 1.48475 2.02567
0.497597 1.48444 2.03524
0.519423 1.48418 2.0344
0.520024 1.48397 2.02284
0.520118 1.48382 2.01092
0.534157 1.48377 2.00575
0.520436 1.48407 1.98592
0.543678 1.48408 1.98521
0.60885 1.48452 2.0045
0.499426 1.48502 1.93637
0.516793 1.48566 1.9313
0.482849 1.48627 1.90062
0.629403 1.48746 1.95888
0.577223 1.48839 1.91835
0.607441 1.48955 1.91848
0.578195 1.49101 1.88818
0.5979 1.49256 1.88211
0.680182 1.49523 1.90474
0.702027 1.49699 1.89921
0.682226 1.50024 1.86937
0.800158 1.50406 1.90702
0.800531 1.50934 1.88241
0.828271 1.51754 1.8646
0.562565 1.53624 2.23996
0.635563 1.53074 2.27478
0.689681 1.52591 2.2989
0.605668 1.52267 2.25086
0.492797 1.52006 2.18715
0.574369 1.51752 2.22058
0.493345 1.5155 2.17171
0.627037 1.5131 2.23099
0.492988 1.5117 2.1544
0.516016 1.5099 2.1572
0.486098 1.5086 2.13252
0.481272 1.50695 2.12113
0.507005 1.50576 2.12408
0.484186 1.50506 2.10177
0.515949 1.50397 2.10757
0.503842 1.50336 2.09044
0.416132 1.50212 2.03686
0.548753 1.50163 2.09186
0.528725 1.5012 2.07043
0.491636 1.50082 2.04037
0.536618 1.50049 2.05124
0.58371 1.50022 2.06305
0.533313 1.49999 2.026
0.51821 1.49983 2.00649
0.466356 1.49976 1.96838
0.578062 1.50004 2.01131
0.521595 1.50043 1.96989
0.609687 1.50048 2.00151
0.523706 1.50096 1.94512
0.58187 1.50159 1.96048
0.523203 1.5022 1.91746
0.558811 1.50338 1.92028
0.636676 1.50411 1.94524
0.576441 1.50546 1.89972
0.665444 1.50691 1.92858
0.647342 1.50881 1.90284
0.618325 1.51045 1.87221
0.753021 1.51323 1.92081
0.651529 1.51615 1.85094
0.715998 1.51952 1.86295
0.706818 1.52415 1.83521
0.8177 1.53093 1.86243
0.688205 1.55455 2.29584
0.568671 1.54791 2.2365
0.516535 1.54348 2.2066
0.580828 1.53972 2.23364
0.574667 1.53605 2.22535
0.536686 1.53393 2.1981
0.494903 1.53143 2.16976
0.612173 1.52945 2.21993
0.479174 1.52803 2.14386
0.474398 1.52575 2.13368
0.483338 1.52487 2.12753
0.564086 1.5236 2.15811
0.494089 1.52199 2.11403
0.523996 1.52083 2.11899
0.523293 1.52016 2.10766
0.444424 1.5191 2.05806
0.504205 1.51853 2.07679
0.537474 1.51775 2.08269
0.563656 1.5173 2.08438
0.516372 1.51691 2.04923
0.558469 1.51656 2.05867
0.491158 1.51627 2.01329
0.529632 1.51604 2.0207
0.584061 1.51586 2.03597
0.619465 1.51579 2.04149
0.517378 1.51604 1.97756
0.552424 1.51643 1.98191
0.485475 1.51646 1.93602
0.534903 1.51694 1.94736
0.62325 1.51755 1.97784
0.595981 1.51815 1.95053
0.593822 1.51932 1.9345
0.591523 1.52004 1.9194
0.666823 1.52139 1.94168
0.625615 1.52319 1.90466
0.722559 1.52473 1.93728
0.599371 1.52672 1.85881
0.708734 1.52878 1.8964
0.651878 1.53166 1.84899
0.785745 1.53468 1.89658
0.769434 1.53896 1.86616
0.793309 1.54488 1.85198
0.896245 1.55396 1.86998
0.692728 1.57507 2.287
0.726966 1.56512 2.31082
0.604628 1.56063 2.24583
0.585519 1.55576 2.23327
0.579099 1.55354 2.22191
0.62757 1.55092 2.23883
0.50808 1.54836 2.17167
0.559605 1.54633 2.18902
0.615029 1.54393 2.20909
0.56478 1.54253 2.17434
0.512493 1.54073 2.13941
0.421487 1.53987 2.08322
0.523437 1.53824 2.12513
0.554771 1.53706 2.13081
0.512097 1.53636 2.09851
0.505098 1.53529 2.08484
0.580453 1.5347 2.11138
0.53973 1.53415 2.07978
0.531623 1.53301 2.06573
0.566303 1.5326 2.07158
0.650143 1.53225 2.1019
0.563257 1.53235 2.04588
0.635226 1.5321 2.07005
0.527643 1.53191 2.00433
0.513097 1.53183 1.98487
0.565288 1.53206 1.99813
0.62012 1.53244 2.01238
0.536266 1.53246 1.95805
0.617166 1.53293 1.98514
0.613901 1.53391 1.96902
0.60187 1.53449 1.94936
0.575556 1.53513 1.92244
0.643418 1.53636 1.94129
0.611367 1.5377 1.90993
0.65692 1.53852 1.91848
0.64042 1.54038 1.8937
0.706191 1.54198 1.9106
0.626305 1.54471 1.85212
0.686273 1.54687 1.8648
0.744186 1.55019 1.87379
0.713454 1.55396 1.83739
0.843295 1.55886 1.87865
0.939803 1.56556 1.89907
0.643751 1.58238 2.26441
0.588686 1.57783 2.23306
0.67237 1.57335 2.27103
0.550692 1.56958 2.20501
0.63401 1.56693 2.23935
0.649411 1.5648 2.23874
0.587745 1.56228 2.20039
0.509312 1.5603 2.15264
0.63942 1.55888 2.20808
0.597872 1.55705 2.17853
0.608711 1.55573 2.17416
0.44756 1.5549 2.08283
0.638262 1.55331 2.169
0.526922 1.55216 2.10326
0.559915 1.5515 2.10872
0.567046 1.55089 2.10115
0.507587 1.5499 2.06107
0.482515 1.5494 2.03721
0.615753 1.54873 2.09283
0.646669 1.54836 2.0967
0.553118 1.5482 2.03791
