ply
format ascii 1.0
comment Created by Open3D
element vertex 1676
property double x
property double y
property double z
end_header
-0.224102 -0.111544 0.207923
-0.190868 -0.111516 0.215164
-0.161702 -0.11149 0.22025
-0.241914 -0.111438 0.171748
-0.23265 -0.111386 0.167997
-0.157806 -0.111334 0.197052
-0.211652 -0.111308 0.160667
-0.195722 -0.111256 0.160288
-0.174315 -0.111204 0.162662
-0.133066 -0.111151 0.174972
-0.233357 -0.111099 0.116526
-0.196863 -0.111073 0.125356
-0.17124 -0.111045 0.128829
-0.211741 -0.110992 0.100312
-0.191353 -0.110939 0.102253
-0.255765 -0.110913 0.0606614
-0.231771 -0.11086 0.0644295
-0.218616 -0.110807 0.0627926
-0.190566 -0.110754 0.0686173
-0.17988 -0.110701 0.0657748
-0.179362 -0.110674 0.0566937
-0.172341 -0.110621 0.0520426
-0.144518 -0.110567 0.0578071
-0.219744 -0.110514 0.0120613
-0.290035 -0.110487 -0.0323891
-0.140474 -0.110433 0.0342831
-0.129466 -0.106076 1.46895
-0.00623865 -0.105934 1.52389
-0.126349 -0.105703 1.46011
-0.12698 -0.10551 1.45488
-0.237459 -0.105423 1.39126
-0.155207 -0.105302 1.42515
-0.266038 -0.105165 1.36305
-0.223673 -0.105079 1.37587
-0.220945 -0.104962 1.36994
-0.196782 -0.104829 1.37528
-0.0657784 -0.104746 1.4324
-0.145136 -0.104681 1.38374
-0.220872 -0.104598 1.33749
-0.229194 -0.104471 1.32649
-0.273819 -0.104453 1.29363
-0.233891 -0.104329 1.30671
-0.213218 -0.10425 1.30863
-0.365241 -0.104213 1.22273
-0.27647 -0.104153 1.25808
-0.286713 -0.104034 1.24596
-0.16441 -0.103998 1.29726
-0.204876 -0.10394 1.26796
-0.276909 -0.103864 1.22349
-0.263919 -0.103789 1.22152
-0.269276 -0.103733 1.20972
-0.265063 -0.10366 1.20334
-0.27884 -0.103588 1.18794
-0.243172 -0.103551 1.19603
-0.261398 -0.103498 1.17775
-0.284248 -0.103427 1.15779
-0.274643 -0.103358 1.15405
-0.277767 -0.103339 1.14212
-0.290739 -0.10327 1.12708
-0.233142 -0.103203 1.14731
-0.224324 -0.103165 1.14206
-0.26308 -0.103117 1.11342
-0.320258 -0.103051 1.07622
-0.299564 -0.102986 1.07794
-0.306225 -0.102967 1.06431
-0.264461 -0.102903 1.07655
-0.259502 -0.102865 1.06944
-0.28403 -0.102802 1.04853
-0.27993 -0.102764 1.04102
-0.242914 -0.102721 1.05015
-0.248964 -0.10266 1.03843
-0.228323 -0.102622 1.03923
-0.235347 -0.102581 1.02629
-0.290104 -0.102522 0.990172
-0.212037 -0.102484 1.01972
-0.239993 -0.102445 0.996264
-0.27534 -0.102406 0.969129
-0.268934 -0.10235 0.963539
-0.273804 -0.102311 0.951664
-0.254687 -0.102255 0.95243
-0.353393 -0.102233 0.89303
-0.24278 -0.102181 0.939401
-0.305408 -0.102142 0.898695
-0.248719 -0.102088 0.918205
-0.266273 -0.102049 0.900061
-0.225666 -0.102016 0.910737
-0.207752 -0.101977 0.910349
-0.269354 -0.101925 0.870668
-0.278771 -0.101886 0.85664
-0.282909 -0.101855 0.844881
-0.296261 -0.101815 0.828907
-0.3551 -0.101766 0.790558
-0.284517 -0.101726 0.816577
-0.195692 -0.101695 0.851379
-0.323385 -0.101658 0.778136
-0.313242 -0.101611 0.774225
-0.262194 -0.101571 0.790523
-0.225696 -0.10153 0.799559
-0.215172 -0.101496 0.795373
-0.247744 -0.101464 0.769526
-0.205296 -0.10142 0.781724
-0.274735 -0.101379 0.737838
-0.27973 -0.101341 0.726041
-0.276338 -0.101315 0.718
-0.282758 -0.101274 0.705658
-0.232012 -0.101231 0.721957
-0.243302 -0.101191 0.707164
-0.286519 -0.101149 0.676464
-0.229263 -0.101128 0.695191
-0.307548 -0.101086 0.646978
-0.204001 -0.101044 0.689695
-0.253715 -0.101003 0.655777
-0.249649 -0.100982 0.647901
-0.287898 -0.10094 0.619754
-0.2578 -0.1009 0.62572
-0.233152 -0.100858 0.629047
-0.249404 -0.100815 0.611938
-0.224262 -0.100794 0.614641
-0.211326 -0.100755 0.612013
-0.310351 -0.100712 0.553552
-0.189668 -0.100674 0.604767
-0.249109 -0.100632 0.566122
-0.193164 -0.10061 0.584266
-0.194781 -0.100567 0.574557
-0.22577 -0.10053 0.549922
-0.216615 -0.100487 0.545623
-0.174031 -0.100444 0.558053
-0.274299 -0.10043 0.497819
-0.210521 -0.100387 0.520866
-0.211257 -0.100343 0.51167
-0.312278 -0.100308 0.451972
-0.257794 -0.100287 0.469456
-0.281604 -0.100243 0.448757
-0.205181 -0.100199 0.478189
-0.307618 -0.100166 0.417766
-0.157904 -0.100122 0.483868
-0.242764 -0.1001 0.431721
-0.164625 -0.100056 0.462058
-0.231907 -0.100023 0.419197
-0.21233 -0.0999789 0.420278
-0.213087 -0.0999347 0.411206
-0.229979 -0.0999126 0.393084
-0.2299 -0.0998682 0.384454
-0.186727 -0.0998364 0.396812
-0.241428 -0.0997918 0.360817
-0.227142 -0.0997472 0.359329
-0.240183 -0.0997248 0.343173
-0.183642 -0.0996801 0.362836
-0.149497 -0.0996492 0.370673
-0.216288 -0.0996043 0.328695
-0.263255 -0.0995593 0.296642
-0.240207 -0.0995367 0.298572
-0.158529 -0.0994915 0.330866
-0.204822 -0.0994617 0.298474
-0.166246 -0.0994164 0.309242
-0.149868 -0.0993937 0.307869
-0.283514 -0.0993482 0.232549
-0.228654 -0.0993026 0.251496
-0.209352 -0.099257 0.252678
-0.221078 -0.0992112 0.238362
-0.197674 -0.0991883 0.240546
-0.0896171 -0.0991593 0.285345
-0.203325 -0.0991134 0.220071
-0.117867 -0.0990673 0.254394
-0.236297 -0.0990443 0.185693
-0.149216 -0.0989981 0.220852
-0.214442 -0.0989518 0.179871
-0.201298 -0.0989054 0.17809
-0.223095 -0.0988589 0.158853
-0.241293 -0.0988357 0.140312
-0.129885 -0.0988076 0.186811
-0.216317 -0.0987609 0.13529
-0.256123 -0.0987142 0.107096
-0.180711 -0.0986908 0.135393
-0.21168 -0.0986439 0.111642
-0.208581 -0.0985969 0.104939
-0.141783 -0.0985499 0.130101
-0.266712 -0.0985027 0.0594127
-0.205711 -0.0984791 0.0805488
-0.160398 -0.0984319 0.0950066
-0.175977 -0.0983845 0.0790323
-0.157584 -0.098337 0.0800588
-0.180292 -0.0983133 0.0593757
-0.241003 -0.0982657 0.0208742
-0.152446 -0.098218 0.0570215
-0.192371 -0.0981702 0.0289422
-0.156119 -0.0981463 0.0377747
-0.223505 -0.0980984 -0.00401078
-0.0981204 -0.092724 1.45412
-0.0647466 -0.0926148 1.46362
-0.183679 -0.0923976 1.4011
-0.222392 -0.0922743 1.37516
-0.178021 -0.0921518 1.39076
-0.129997 -0.092046 1.40758
-0.142095 -0.0919258 1.39492
-0.180364 -0.0918505 1.36747
-0.145878 -0.0917481 1.37747
-0.214363 -0.091674 1.3349
-0.191596 -0.0916002 1.33797
-0.215795 -0.0915014 1.31855
-0.245648 -0.0914291 1.29529
-0.300314 -0.0913573 1.25962
-0.196022 -0.0913018 1.3028
-0.204154 -0.091231 1.29039
-0.200516 -0.0911608 1.28386
-0.222954 -0.0911071 1.26365
-0.22069 -0.0910381 1.25642
-0.203492 -0.0909697 1.25665
-0.198638 -0.0909019 1.25069
-0.212344 -0.0908509 1.2348
-0.179298 -0.0907845 1.24292
-0.236863 -0.0907187 1.20572
-0.30531 -0.0907025 1.16109
-0.31299 -0.0906374 1.14883
-0.228687 -0.0905731 1.18255
-0.215855 -0.0905259 1.17985
-0.198253 -0.0904931 1.17895
-0.259958 -0.0904303 1.13964
-0.302376 -0.0903682 1.10996
-0.229718 -0.0903234 1.13712
-0.300098 -0.0902904 1.09228
-0.268313 -0.0902299 1.09968
-0.302548 -0.0901869 1.07335
-0.227841 -0.0901536 1.10109
-0.263337 -0.0900948 1.07482
-0.215453 -0.0900368 1.09021
-0.196309 -0.0900033 1.09022
-0.228481 -0.089963 1.06486
-0.206821 -0.0899068 1.06711
-0.224631 -0.0898731 1.04867
-0.2213 -0.0898346 1.04101
-0.208543 -0.0898007 1.03788
-0.237387 -0.0897462 1.01485
-0.266344 -0.0897122 0.990886
-0.200055 -0.0896756 1.01467
-0.247964 -0.089623 0.982054
-0.337158 -0.0895888 0.92801
-0.25205 -0.089537 0.961891
-0.179876 -0.0895199 0.987803
-0.238972 -0.089469 0.949563
-0.32244 -0.0894345 0.89843
-0.25122 -0.0893846 0.92533
-0.273197 -0.0893652 0.904294
-0.201495 -0.0893183 0.931319
-0.260732 -0.0892835 0.892349
-0.225803 -0.0892355 0.901063
-0.175882 -0.0892136 0.916114
-0.206779 -0.089171 0.891691
-0.246685 -0.0891359 0.862435
-0.282964 -0.0890898 0.835499
-0.30311 -0.0890545 0.816149
-0.252572 -0.0890271 0.831797
-0.312762 -0.0889917 0.792446
-0.198385 -0.0889475 0.840789
-0.247704 -0.088912 0.8069
-0.234299 -0.088885 0.803993
-0.203512 -0.088851 0.810101
-0.253842 -0.0888153 0.775741
-0.243087 -0.088773 0.772232
-0.229124 -0.0887434 0.769751
-0.295995 -0.0887074 0.727162
-0.2047 -0.0886778 0.76336
-0.234357 -0.0886376 0.73959
-0.269247 -0.0886055 0.712832
-0.235895 -0.0885692 0.720401
-0.242079 -0.088544 0.707684
-0.259883 -0.0885076 0.689694
-0.227947 -0.0884712 0.696588
-0.264581 -0.0884346 0.66921
-0.247119 -0.0884145 0.668103
-0.185553 -0.0883772 0.689877
-0.239595 -0.0883404 0.653827
-0.208934 -0.0883036 0.660143
-0.218216 -0.0882671 0.646479
-0.355192 -0.0882482 0.568133
-0.222646 -0.0882111 0.625428
-0.337918 -0.0881739 0.558829
-0.236374 -0.0881366 0.600652
-0.18044 -0.0881187 0.618734
-0.236556 -0.0880813 0.581747
-0.164087 -0.0880438 0.609067
-0.265778 -0.0880081 0.549223
-0.221191 -0.0879705 0.562627
-0.197747 -0.0879517 0.564542
-0.244149 -0.087917 0.532319
-0.192328 -0.0878792 0.549374
-0.260684 -0.0878413 0.506355
-0.357598 -0.0878223 0.448124
-0.258087 -0.0877885 0.488843
-0.259609 -0.0877504 0.479275
-0.280946 -0.0877122 0.459814
-0.208643 -0.0876795 0.486908
-0.125996 -0.0876603 0.518496
-0.255658 -0.0876219 0.444907
-0.24465 -0.0875834 0.441667
-0.309662 -0.0875516 0.400087
-0.188114 -0.087513 0.452142
-0.269298 -0.0874936 0.401856
-0.184673 -0.0874548 0.435473
-0.238001 -0.087416 0.400127
-0.215428 -0.0873851 0.402334
-0.197853 -0.0873461 0.402465
-0.235672 -0.0873265 0.373903
-0.299852 -0.0872874 0.33318
-0.305932 -0.0872482 0.321521
-0.189493 -0.0872182 0.370654
-0.166889 -0.0871985 0.372336
-0.1336 -0.0871591 0.380396
-0.219956 -0.0871196 0.328647
-0.189058 -0.0870801 0.33554
-0.212349 -0.0870509 0.3148
-0.224993 -0.0870311 0.2989
-0.190123 -0.0869913 0.307813
-0.281944 -0.0869515 0.253395
-0.278672 -0.0869116 0.246537
-0.165955 -0.0868916 0.293352
-0.21252 -0.0868516 0.2616
-0.200904 -0.0868233 0.258322
-0.228661 -0.0867831 0.235998
-0.214682 -0.0867429 0.234557
-0.149922 -0.0867227 0.257435
-0.242978 -0.0866824 0.202501
-0.252181 -0.0866419 0.189507
-0.266899 -0.0866014 0.173771
-0.153834 -0.0865811 0.220836
-0.266527 -0.0865536 0.155419
-0.242162 -0.0865129 0.159258
-0.185098 -0.0864721 0.179461
-0.250754 -0.0864517 0.137198
-0.21012 -0.0864108 0.14921
-0.200713 -0.0863698 0.145623
-0.204847 -0.0863288 0.13528
-0.241833 -0.0862876 0.108525
-0.284487 -0.086267 0.0778082
-0.213106 -0.0862258 0.105261
-0.216869 -0.0861844 0.095157
-0.195187 -0.086143 0.0977899
-0.18966 -0.0861223 0.091199
-0.324148 -0.0860808 0.015771
-0.191922 -0.0860391 0.0737143
-0.154201 -0.0859974 0.08442
-0.204542 -0.0859766 0.0499307
-0.221724 -0.0859348 0.0332089
-0.256618 -0.0858929 0.00764578
-0.256275 -0.0858509 -0.000284447
-0.177338 -0.0858299 0.0299013
-0.181182 -0.0857878 0.0199023
-0.146643 -0.0794375 1.3977
-0.158465 -0.0793038 1.38643
-0.116786 -0.0791572 1.40254
-0.187383 -0.0790116 1.3625
-0.167798 -0.0789454 1.36402
-0.224776 -0.0788157 1.33014
-0.211938 -0.0787125 1.33001
-0.216517 -0.0786613 1.31884
-0.21424 -0.0785968 1.31172
-0.230112 -0.0784961 1.29719
-0.103877 -0.0784327 1.35204
-0.193416 -0.0783833 1.29838
-0.307909 -0.0783206 1.23286
-0.241981 -0.078224 1.25914
-0.203448 -0.0782102 1.26791
-0.174519 -0.0781155 1.27565
-0.259416 -0.0780551 1.2249
-0.179128 -0.0780273 1.25523
-0.167394 -0.0779496 1.25364
-0.171178 -0.0778908 1.24342
-0.228197 -0.0778628 1.20514
-0.247137 -0.0778184 1.18669
-0.250696 -0.0777606 1.17658
-0.216988 -0.0777034 1.18509
-0.248312 -0.0776609 1.1604
-0.290452 -0.0776049 1.13096
-0.240695 -0.0775766 1.14615
-0.220678 -0.0775354 1.1471
-0.258245 -0.0774807 1.11993
-0.201952 -0.0774266 1.13966
-0.196357 -0.077398 1.13283
-0.283591 -0.0773589 1.0801
-0.178004 -0.0773062 1.12446
-0.352395 -0.0772774 1.02767
-0.350054 -0.0772254 1.02041
-0.204673 -0.0771884 1.08392
-0.275308 -0.0771595 1.03905
-0.214202 -0.0771089 1.06113
-0.234539 -0.0770798 1.04144
-0.25762 -0.0770444 1.02069
-0.243288 -0.0769952 1.01935
-0.300442 -0.0769659 0.98128
-0.282019 -0.0769321 0.981237
-0.180358 -0.0768845 1.02352
-0.289958 -0.0768551 0.959266
-0.254248 -0.0768229 0.967814
-0.234379 -0.0767933 0.968314
-0.182345 -0.0767472 0.985756
-0.283968 -0.0767175 0.925538
-0.217613 -0.0766721 0.950126
-0.25111 -0.0766572 0.923228
-0.252325 -0.0766126 0.914011
-0.265859 -0.0765689 0.898604
-0.162539 -0.0765389 0.940919
-0.172713 -0.0765226 0.925784
-0.321491 -0.0764808 0.84268
-0.209582 -0.0764507 0.889325
-0.237442 -0.0764085 0.866727
-0.234301 -0.0763901 0.858388
-0.233307 -0.0763519 0.850021
-0.238029 -0.0763215 0.838399
-0.239032 -0.076281 0.829186
-0.328142 -0.0762604 0.774863
-0.211441 -0.076226 0.824195
-0.261366 -0.0761953 0.79002
-0.308214 -0.0761564 0.757835
-0.313787 -0.0761338 0.745425
-0.3048 -0.0761028 0.740746
-0.27946 -0.0760721 0.744242
-0.208541 -0.0760411 0.77055
-0.271881 -0.0760101 0.729742
-0.26009 -0.0759883 0.726001
-0.221018 -0.0759572 0.73642
-0.286049 -0.0759208 0.695087
-0.189847 -0.0758895 0.734097
-0.24592 -0.0758632 0.696703
-0.260289 -0.0758382 0.680098
-0.186317 -0.0758067 0.708029
-0.246957 -0.0757719 0.668846
-0.23761 -0.0757435 0.664312
-0.143488 -0.0757118 0.70236
-0.226775 -0.0756906 0.651122
-0.225922 -0.0756588 0.642554
-0.269839 -0.075627 0.611613
-0.321582 -0.0755971 0.576658
-0.227681 -0.0755779 0.613932
-0.251812 -0.0755459 0.592919
-0.212184 -0.0755136 0.603811
-0.164527 -0.0754815 0.618711
-0.226527 -0.0754653 0.577891
-0.212673 -0.075433 0.57592
-0.212315 -0.0754007 0.567215
-0.207794 -0.0753682 0.560606
-0.25418 -0.0753357 0.528557
-0.286361 -0.0753194 0.502682
-0.209519 -0.0752878 0.532211
-0.268936 -0.0752551 0.493682
-0.238813 -0.0752223 0.499937
-0.208755 -0.0752059 0.505214
-0.18921 -0.0751751 0.506081
-0.257026 -0.0751422 0.463401
-0.223084 -0.0751091 0.471614
-0.187749 -0.0750792 0.480355
-0.22283 -0.0750626 0.453102
-0.226465 -0.0750294 0.442561
-0.210016 -0.0749962 0.442077
-0.291283 -0.0749628 0.392749
-0.274664 -0.0749503 0.391131
-0.264228 -0.0749169 0.387675
-0.220715 -0.0748834 0.400772
-0.223772 -0.0748499 0.390598
-0.295328 -0.0748215 0.345872
-0.288787 -0.0748047 0.339505
-0.173558 -0.0747709 0.388509
-0.22567 -0.0747372 0.353856
-0.231049 -0.0747033 0.342584
-0.313007 -0.0746863 0.292001
-0.27238 -0.0746587 0.303369
-0.254696 -0.0746247 0.303663
-0.173537 -0.0745906 0.335708
-0.200027 -0.0745564 0.313944
-0.204472 -0.0745393 0.302161
-0.199624 -0.074505 0.29609
-0.280021 -0.0744782 0.246947
-0.30132 -0.0744438 0.227827
-0.226452 -0.0744266 0.255733
-0.244351 -0.0743921 0.238336
-0.141418 -0.0743575 0.281371
-0.137844 -0.0743229 0.274741
-0.160328 -0.0742882 0.255096
-0.193954 -0.0742794 0.228257
-0.236286 -0.0742446 0.198707
-0.220826 -0.0742098 0.198068
-0.175946 -0.0741749 0.212155
-0.228325 -0.0741574 0.176514
-0.21137 -0.0741224 0.176661
-0.231245 -0.0740873 0.158408
-0.0759288 -0.0740521 0.227765
-0.176021 -0.0740345 0.168303
-0.211111 -0.0739992 0.142482
-0.241289 -0.0739639 0.119131
-0.150351 -0.0739384 0.15571
-0.162827 -0.0739207 0.140089
-0.174244 -0.0738853 0.126152
-0.217999 -0.0738498 0.0960614
-0.133999 -0.0738142 0.129863
-0.219427 -0.0737963 0.0778009
-0.194863 -0.0737606 0.0819083
-0.264631 -0.0737249 0.0388645
-0.207916 -0.073689 0.0590766
-0.191367 -0.0736711 0.058039
-0.247343 -0.0736352 0.0219303
-0.218241 -0.0735992 0.0283752
-0.18693 -0.0735631 0.0359388
-0.180955 -0.073545 0.0296498
-0.179909 -0.0735089 0.0221055
-0.0871529 -0.0661634 1.39537
-0.160918 -0.066052 1.3532
-0.0755598 -0.0658963 1.39302
-0.173779 -0.0657749 1.33925
-0.120045 -0.0657309 1.35727
-0.246066 -0.0656435 1.28781
-0.169417 -0.0655568 1.31968
-0.144485 -0.0655023 1.32394
-0.122645 -0.0654287 1.32773
-0.176764 -0.0653749 1.29247
-0.200175 -0.0653215 1.27256
-0.143677 -0.0652503 1.29361
-0.147146 -0.0651979 1.28366
-0.223469 -0.0651457 1.23728
-0.150232 -0.0651056 1.26502
-0.196125 -0.0650542 1.23385
-0.192547 -0.0650032 1.2274
-0.265342 -0.0649644 1.18211
-0.262096 -0.0649142 1.17548
-0.243613 -0.0648645 1.17647
-0.166866 -0.064827 1.20591
-0.213104 -0.0647782 1.17451
-0.156127 -0.0647298 1.19472
-0.200886 -0.0647061 1.16265
-0.190039 -0.0646701 1.1591
-0.178117 -0.0646227 1.15677
-0.270906 -0.0645759 1.10206
-0.162095 -0.0645519 1.14683
-0.193697 -0.0645175 1.12202
-0.225609 -0.0644717 1.09773
-0.2845 -0.0644476 1.05869
-0.199885 -0.0644144 1.09195
-0.25388 -0.0643696 1.0566
-0.186456 -0.0643255 1.08194
-0.162258 -0.0643012 1.08449
-0.249355 -0.0642698 1.03184
-0.269436 -0.0642268 1.01339
-0.200378 -0.0642024 1.03842
-0.199106 -0.0641722 1.0299
-0.307577 -0.0641477 0.966186
-0.339249 -0.0641058 0.941926
-0.230094 -0.0640812 0.987051
-0.217377 -0.0640523 0.98422
-0.228981 -0.0640118 0.969955
-0.239447 -0.063987 0.955306
-0.308428 -0.0639594 0.911575
-0.227541 -0.0639346 0.942625
-0.25233 -0.0638953 0.921738
-0.293091 -0.0638702 0.891991
-0.313899 -0.0638441 0.8723
-0.288807 -0.063819 0.875503
-0.214743 -0.063781 0.904008
-0.263588 -0.0637558 0.870269
-0.239099 -0.0637305 0.873211
-0.303541 -0.0637051 0.8317
-0.169594 -0.063669 0.89007
-0.326954 -0.0636436 0.802122
-0.266206 -0.0636181 0.823243
-0.28123 -0.0635925 0.806491
-0.242106 -0.0635594 0.817301
-0.171541 -0.0635338 0.843365
-0.222614 -0.0635081 0.808624
-0.37672 -0.0634823 0.72238
-0.255773 -0.0634605 0.773417
-0.233062 -0.0634265 0.776133
-0.211565 -0.0634006 0.777725
-0.150692 -0.0633802 0.798654
-0.171699 -0.0633543 0.779016
-0.254751 -0.0633216 0.7288
-0.29337 -0.0632956 0.700382
-0.380967 -0.0632759 0.647061
-0.157392 -0.0632496 0.74977
-0.257302 -0.0632243 0.690682
-0.267863 -0.0631931 0.67667
-0.224662 -0.0631716 0.688898
-0.246722 -0.0631535 0.66828
-0.199415 -0.063123 0.683184
-0.198754 -0.0630965 0.674503
-0.287924 -0.0630699 0.62092
-0.327691 -0.0630473 0.591785
-0.162168 -0.0630267 0.665161
-0.223641 -0.063 0.625463
-0.186753 -0.0629709 0.635122
-0.196896 -0.0629464 0.620952
-0.245381 -0.0629306 0.587032
-0.212642 -0.0629021 0.594596
-0.233314 -0.0628752 0.575358
-0.255724 -0.0628497 0.555163
-0.174089 -0.0628225 0.58711
-0.276215 -0.0628068 0.526398
-0.266336 -0.0627797 0.522484
-0.26311 -0.0627525 0.515259
-0.255066 -0.0627257 0.510417
-0.174582 -0.0627115 0.540934
-0.345682 -0.0626841 0.446584
-0.187376 -0.0626566 0.516951
-0.242809 -0.0626291 0.480462
-0.181939 -0.0626153 0.501167
-0.150015 -0.062588 0.508355
-0.156736 -0.0625604 0.496257
-0.200168 -0.0625326 0.465819
-0.308962 -0.0625187 0.401724
-0.221559 -0.0624921 0.436638
-0.249725 -0.0624643 0.413868
-0.139912 -0.0624364 0.460101
-0.218438 -0.0624084 0.412179
-0.272283 -0.0623965 0.375449
-0.336599 -0.0623684 0.334653
-0.167145 -0.0623403 0.410755
-0.243019 -0.0623121 0.364209
-0.21334 -0.0622838 0.370453
-0.234781 -0.0622727 0.349899
-0.270148 -0.0622444 0.323641
-0.22334 -0.0622161 0.338484
-0.210219 -0.0621876 0.336499
-0.167271 -0.0621734 0.348393
-0.256815 -0.0621448 0.295099
-0.201056 -0.0621202 0.314177
-0.133618 -0.0620916 0.339399
-0.23131 -0.0620773 0.281006
-0.220821 -0.0620486 0.277778
-0.176859 -0.0620198 0.291301
-0.220888 -0.061991 0.260843
-0.37671 -0.0619814 0.173052
-0.203594 -0.0619526 0.251187
-0.279277 -0.0619236 0.204936
-0.247493 -0.0618946 0.212434
-0.178611 -0.0618801 0.237397
-0.129703 -0.061851 0.25348
-0.170539 -0.0618218 0.224706
-0.311994 -0.0617926 0.145637
-0.166584 -0.0617633 0.210016
-0.232657 -0.0617546 0.167091
-0.162025 -0.0617253 0.1941
-0.19845 -0.0616959 0.167595
-0.219202 -0.0616812 0.147809
-0.193224 -0.0616517 0.15253
-0.166404 -0.0616222 0.157687
-0.185769 -0.0615926 0.139766
-0.319226 -0.0615778 0.0636627
-0.201439 -0.0615481 0.114342
-0.20706 -0.0615183 0.103332
-0.209449 -0.0614886 0.0939525
-0.27833 -0.0614736 0.0501732
-0.176003 -0.0614438 0.0931763
-0.143818 -0.0614138 0.101123
-0.216655 -0.0613838 0.0565734
-0.262113 -0.0613688 0.0245414
-0.162056 -0.0613387 0.066463
-0.261321 -0.0613086 0.00873857
-0.262006 -0.0612784 0.000318291
-0.289874 -0.0612633 -0.0228825
-0.229232 -0.0612331 -0.000614582
-0.118456 -0.0528132 1.3425
-0.0341369 -0.0526884 1.38191
-0.12989 -0.0525909 1.32947
-0.15675 -0.0525555 1.30724
-0.201792 -0.0524594 1.28012
-0.182494 -0.05239 1.28337
-0.257673 -0.0523807 1.23524
-0.283759 -0.052312 1.21579
-0.128601 -0.0522442 1.28693
-0.194465 -0.0522106 1.24519
-0.281268 -0.052168 1.19364
-0.300139 -0.0521255 1.17605
-0.118284 -0.0520834 1.25883
-0.241211 -0.0520509 1.18854
-0.170258 -0.0520093 1.21586
-0.268514 -0.051968 1.15857
-0.216353 -0.0519365 1.1758
-0.197244 -0.0518959 1.17718
-0.181141 -0.0518555 1.17705
-0.209786 -0.0518251 1.15385
-0.160078 -0.0517855 1.1705
-0.200519 -0.0517463 1.14207
-0.256558 -0.0517271 1.1044
-0.23732 -0.0516978 1.10511
-0.242254 -0.0516593 1.09442
-0.279048 -0.0516213 1.06778
-0.205697 -0.0516019 1.09486
-0.167659 -0.0515739 1.10493
-0.168779 -0.0515366 1.09612
-0.180557 -0.0515096 1.08123
-0.270859 -0.05149 1.02653
-0.258552 -0.0514536 1.02441
-0.226334 -0.0514177 1.03223
-0.288 -0.0514079 0.99115
-0.234003 -0.0513724 1.00984
-0.233062 -0.0513373 1.00199
-0.164908 -0.0513176 1.0266
-0.243778 -0.0512929 0.978083
-0.204491 -0.051273 0.988285
-0.243287 -0.0512389 0.960544
-0.172835 -0.051219 0.986357
-0.282174 -0.0511954 0.922565
-0.287809 -0.0511622 0.911365
-0.197534 -0.0511422 0.947127
-0.245313 -0.0511196 0.914064
-0.174828 -0.0510995 0.939954
-0.303736 -0.0510674 0.86709
-0.302072 -0.0510471 0.858597
-0.312014 -0.0510256 0.844407
-0.266595 -0.0510053 0.857814
-0.188 -0.0509742 0.888669
-0.267741 -0.0509538 0.839523
-0.248954 -0.0509334 0.839656
-0.218342 -0.050913 0.845701
-0.220667 -0.050883 0.836058
-0.329707 -0.0508624 0.772313
-0.220649 -0.0508418 0.817631
-0.247199 -0.0508226 0.79504
-0.304139 -0.0507936 0.758048
-0.251236 -0.0507729 0.775324
-0.231378 -0.0507603 0.775426
-0.269818 -0.050734 0.747497
-0.242235 -0.0507132 0.752148
-0.26445 -0.0506853 0.732486
-0.165099 -0.0506713 0.772479
-0.229822 -0.0506539 0.730727
-0.226417 -0.0506265 0.723861
-0.269825 -0.0506054 0.69308
-0.19249 -0.0505843 0.722684
-0.145597 -0.0505681 0.736675
-0.263036 -0.0505469 0.668914
-0.243361 -0.0505206 0.670145
-0.222023 -0.0504994 0.671799
-0.221996 -0.050483 0.662394
-0.18909 -0.050463 0.669748
-0.172374 -0.0504416 0.669127
-0.206781 -0.0504202 0.642958
-0.254192 -0.050403 0.609939
-0.303574 -0.0503842 0.576071
-0.18659 -0.0503596 0.625894
-0.260739 -0.0503381 0.579902
-0.28824 -0.0503194 0.556991
-0.166887 -0.0503056 0.608106
-0.237584 -0.0502815 0.56408
-0.332577 -0.0502598 0.507715
-0.152942 -0.0502403 0.58848
-0.213452 -0.0502254 0.548785
-0.200823 -0.0502035 0.546266
-0.174726 -0.0501816 0.550497
-0.258769 -0.0501597 0.499671
-0.221163 -0.0501392 0.509547
-0.230782 -0.0501257 0.495215
-0.184817 -0.0501036 0.509428
-0.211487 -0.0500812 0.487366
-0.169789 -0.0500602 0.499372
-0.224606 -0.050048 0.462351
-0.264457 -0.0500257 0.433707
-0.341811 -0.0500035 0.386324
-0.287401 -0.0499811 0.404838
-0.237855 -0.0499699 0.419935
-0.217989 -0.0499475 0.421201
-0.257661 -0.0499251 0.392712
-0.202411 -0.0499025 0.411699
-0.195908 -0.0498913 0.405309
-0.175265 -0.0498693 0.406962
-0.243012 -0.0498467 0.364486
-0.262669 -0.049824 0.346068
-0.234783 -0.0498013 0.351437
-0.259556 -0.0497899 0.329452
-0.141528 -0.0497671 0.379917
-0.230603 -0.0497456 0.326718
-0.140547 -0.0497227 0.363221
-0.248213 -0.0497113 0.299823
-0.317094 -0.0496883 0.256882
-0.191366 -0.0496653 0.31126
-0.154872 -0.0496444 0.32084
-0.229937 -0.0496329 0.273776
-0.260995 -0.0496098 0.249796
-0.149419 -0.0495867 0.297148
-0.196602 -0.0495635 0.265135
-0.226888 -0.0495519 0.240495
-0.211455 -0.0495286 0.239814
-0.201808 -0.0495053 0.236255
-0.228009 -0.0494848 0.21451
-0.24799 -0.0494732 0.195056
-0.197012 -0.0494498 0.212198
-0.295003 -0.0494263 0.154869
-0.262625 -0.0494028 0.162739
-0.175714 -0.0493911 0.196767
-0.257226 -0.0493675 0.147716
-0.239834 -0.0493439 0.148133
-0.205884 -0.0493202 0.156843
-0.240271 -0.0493084 0.130257
-0.183949 -0.0492846 0.150178
-0.239427 -0.0492609 0.114213
-0.274911 -0.0492409 0.0878849
-0.25058 -0.049229 0.0906912
-0.189767 -0.0492051 0.112907
-0.25313 -0.0491812 0.0730495
-0.217691 -0.0491573 0.0826072
-0.260491 -0.0491453 0.0518838
-0.184701 -0.0491213 0.0816422
-0.174354 -0.0490972 0.0786932
-0.143717 -0.0490852 0.0847144
-0.146106 -0.049061 0.0754222
-0.17919 -0.0490369 0.0507973
-0.19581 -0.0490127 0.034419
-0.183488 -0.0490005 0.0313187
-0.275316 -0.0489763 -0.0226392
-0.0841893 -0.0395881 1.3278
-0.11192 -0.0394943 1.31129
-0.122357 -0.0394406 1.29977
-0.113654 -0.0393942 1.29719
-0.145231 -0.0393218 1.27691
-0.173254 -0.0392884 1.2548
-0.165542 -0.0392433 1.25168
-0.168034 -0.0392103 1.24235
-0.207589 -0.039159 1.21623
-0.215335 -0.0391337 1.2036
-0.232005 -0.0391013 1.18717
-0.148464 -0.0390515 1.22253
-0.20462 -0.0390372 1.18469
-0.255492 -0.0389954 1.15213
-0.199522 -0.0389641 1.17201
-0.175967 -0.0389497 1.17407
-0.304869 -0.0389258 1.10083
-0.247072 -0.0388788 1.12318
-0.177027 -0.0388643 1.14853
-0.267354 -0.0388412 1.09455
-0.272481 -0.0388111 1.08385
-0.244477 -0.0387812 1.08972
-0.236278 -0.038759 1.08495
-0.240733 -0.0387444 1.07312
-0.17056 -0.0387151 1.10006
-0.149639 -0.0386861 1.10236
-0.221977 -0.0386648 1.05729
-0.311435 -0.03865 1.00301
-0.203857 -0.0386217 1.04863
-0.291047 -0.038601 0.996098
-0.227006 -0.0385862 1.01861
-0.258405 -0.0385584 0.994714
-0.179196 -0.038531 1.0261
-0.0703837 -0.0385235 1.07029
-0.129344 -0.0384964 1.03259
-0.314283 -0.0384697 0.931872
-0.152969 -0.0384547 1.0031
-0.273662 -0.0384358 0.933737
-0.257203 -0.0384207 0.932566
-0.297384 -0.0383947 0.904212
-0.241302 -0.0383795 0.922882
-0.241082 -0.0383614 0.913934
-0.215931 -0.0383361 0.91821
-0.237664 -0.0383209 0.898009
-0.264132 -0.0383036 0.875668
-0.28757 -0.0382883 0.854638
-0.226746 -0.0382637 0.876723
-0.293382 -0.0382483 0.834121
-0.240582 -0.0382318 0.85137
-0.271323 -0.0382164 0.826739
-0.292837 -0.0381926 0.807623
-0.235529 -0.0381771 0.827044
-0.126209 -0.0381614 0.872503
-0.274974 -0.0381459 0.78891
-0.249236 -0.0381229 0.793384
-0.219816 -0.0381147 0.798111
-0.251722 -0.0380991 0.772989
-0.225722 -0.0380768 0.777543
-0.29131 -0.0380611 0.735603
-0.26887 -0.0380454 0.73769
-0.205946 -0.038031 0.759885
-0.158037 -0.0380092 0.775393
-0.201314 -0.0379934 0.744657
-0.223815 -0.0379775 0.724324
-0.184842 -0.037964 0.734483
-0.192355 -0.0379481 0.721666
-0.207731 -0.0379271 0.705497
-0.244091 -0.0379162 0.67772
-0.257693 -0.0379002 0.6619
-0.266286 -0.0378825 0.648782
-0.210739 -0.0378664 0.667558
-0.188184 -0.0378504 0.669852
-0.195976 -0.0378382 0.656544
-0.2254 -0.037822 0.632871
-0.253093 -0.0378059 0.610077
-0.255302 -0.0377897 0.600039
-0.165437 -0.0377779 0.63554
-0.284288 -0.0377617 0.567203
-0.112253 -0.0377423 0.644679
-0.272162 -0.0377259 0.55584
-0.220928 -0.0377127 0.572234
-0.317151 -0.0376988 0.514977
-0.236147 -0.0376824 0.54663
-0.198877 -0.0376659 0.55643
-0.212828 -0.037652 0.540339
-0.170716 -0.0376391 0.552168
-0.224209 -0.0376226 0.516622
-0.189185 -0.037606 0.525349
-0.152373 -0.0375894 0.534985
-0.221226 -0.0375795 0.491011
-0.359611 -0.0375629 0.413069
-0.269139 -0.0375462 0.44957
-0.190102 -0.0375295 0.480368
-0.229861 -0.0375142 0.451609
-0.213386 -0.0375033 0.450452
-0.217318 -0.0374865 0.439801
-0.25129 -0.0374697 0.414144
-0.23464 -0.0374537 0.413702
-0.250048 -0.0374438 0.396513
-0.244389 -0.0374269 0.390708
-0.234306 -0.03741 0.387129
-0.243977 -0.0373934 0.373638
-0.300347 -0.0373845 0.335881
-0.234565 -0.0373674 0.36019
-0.264667 -0.0373503 0.336572
-0.197442 -0.0373332 0.361631
-0.204967 -0.0373246 0.348283
-0.190003 -0.0373074 0.347236
-0.258063 -0.0372902 0.304692
-0.244306 -0.0372731 0.303045
-0.164181 -0.0372645 0.333555
-0.344713 -0.0372472 0.23481
-0.2187 -0.0372299 0.289353
-0.218205 -0.0372125 0.28115
-0.185031 -0.0372038 0.288221
-0.268452 -0.0371863 0.238085
-0.165105 -0.0371697 0.281247
-0.174699 -0.0371522 0.268051
-0.241709 -0.0371434 0.225063
-0.164996 -0.0371259 0.255044
-0.246308 -0.0371083 0.206027
-0.210823 -0.0370907 0.215424
-0.260378 -0.0370819 0.181199
-0.218826 -0.0370642 0.193654
-0.20531 -0.0370465 0.192105
-0.288185 -0.0370391 0.141063
-0.203076 -0.0370214 0.175331
-0.197319 -0.0370036 0.169938
-0.234588 -0.0369858 0.143047
-0.170682 -0.0369769 0.165612
-0.26818 -0.0369591 0.10863
-0.182847 -0.0369412 0.14308
-0.182869 -0.0369233 0.134866
-0.155291 -0.0369143 0.139303
-0.260816 -0.0368963 0.0783619
-0.197975 -0.0368783 0.101619
-0.184182 -0.0368603 0.100367
-0.184094 -0.0368512 0.091095
-0.291793 -0.0368331 0.0291214
-0.231173 -0.036815 0.0513217
-0.186454 -0.0367968 0.0655868
-0.162115 -0.0367878 0.0684761
-0.232018 -0.0367695 0.0254551
-0.155183 -0.0367513 0.0558174
-0.230262 -0.0367422 0.00902421
-0.180831 -0.0367239 0.0257093
-0.147871 -0.0264036 1.26053
-0.152604 -0.0263145 1.2593
-0.16363 -0.0262833 1.2469
-0.10197 -0.0262475 1.27152
-0.182823 -0.026199 1.2267
-0.0850311 -0.0261766 1.26756
-0.174442 -0.0261463 1.21595
-0.140852 -0.0261117 1.22649
-0.197095 -0.0260897 1.19034
-0.237656 -0.0260726 1.16135
-0.128669 -0.0260509 1.20783
-0.144887 -0.0260173 1.1934
-0.174893 -0.0260125 1.16798
-0.170724 -0.0259795 1.16371
-0.214811 -0.0259584 1.13363
-0.17711 -0.0259423 1.14373
-0.234993 -0.0259215 1.10674
-0.215326 -0.0259008 1.10852
-0.145542 -0.0258911 1.13378
-0.188008 -0.0258755 1.10378
-0.173879 -0.0258551 1.10279
-0.297642 -0.025835 1.03284
-0.311851 -0.0258199 1.01693
-0.180328 -0.0258001 1.0746
-0.193865 -0.0257902 1.05829
-0.213029 -0.0257756 1.03988
-0.147162 -0.0257562 1.06471
-0.247603 -0.025737 1.00638
-0.216805 -0.025727 1.01228
-0.184066 -0.025713 1.01978
-0.231847 -0.0256943 0.987755
-0.242421 -0.0256842 0.973016
-0.185821 -0.0256707 0.992412
-0.232075 -0.0256606 0.959858
-0.234581 -0.0256423 0.95046
-0.242476 -0.0256241 0.938347
-0.215384 -0.0256191 0.941728
-0.197913 -0.0256012 0.942289
-0.276005 -0.025591 0.893883
-0.200451 -0.0255733 0.923478
-0.211805 -0.0255682 0.907673
-0.187196 -0.0255508 0.911784
-0.292059 -0.0255336 0.851134
-0.207526 -0.0255284 0.8833
-0.217933 -0.0255115 0.869864
-0.271135 -0.0255012 0.833994
-0.206641 -0.0254845 0.857997
-0.319033 -0.0254793 0.791736
-0.263995 -0.0254628 0.810994
-0.317573 -0.0254524 0.774986
-0.194894 -0.025442 0.827122
-0.34556 -0.025431 0.742689
-0.1679 -0.0254206 0.822338
-0.228046 -0.0254046 0.783984
-0.26366 -0.0253941 0.757023
-0.132636 -0.0253837 0.813385
-0.208899 -0.0253732 0.766123
-0.179286 -0.0253577 0.772611
-0.260661 -0.0253471 0.72282
-0.290274 -0.0253414 0.698127
-0.222761 -0.0253267 0.723484
-0.220354 -0.025316 0.715621
-0.25197 -0.0253054 0.69076
-0.259304 -0.0252958 0.677874
-0.261277 -0.0252851 0.667858
-0.349428 -0.0252704 0.615423
-0.159062 -0.0252597 0.701604
-0.220477 -0.0252529 0.661254
-0.214907 -0.0252399 0.655419
-0.249044 -0.0252292 0.629385
-0.202369 -0.0252183 0.64377
-0.227696 -0.0252096 0.621807
-0.277234 -0.0251988 0.588109
-0.298556 -0.025185 0.569038
-0.265393 -0.025177 0.576213
-0.178581 -0.0251686 0.610301
-0.328158 -0.0251577 0.526633
-0.258658 -0.0251441 0.552968
-0.261158 -0.0251331 0.542866
-0.231632 -0.0251247 0.548345
-0.255672 -0.0251143 0.527389
-0.223456 -0.0251033 0.534681
-0.289709 -0.0250923 0.492753
-0.30446 -0.0250834 0.4762
-0.285174 -0.0250737 0.476828
-0.217425 -0.0250626 0.501937
-0.211166 -0.0250515 0.496315
-0.160509 -0.0250422 0.512574
-0.324538 -0.0250331 0.421463
-0.294202 -0.0250219 0.427916
-0.189965 -0.0250107 0.471333
-0.190611 -0.025001 0.462051
-0.224406 -0.0249926 0.435971
-0.229465 -0.0249814 0.424777
-0.244991 -0.0249701 0.408363
-0.268904 -0.0249599 0.387558
-0.21205 -0.0249522 0.406715
-0.330919 -0.0249409 0.338666
-0.195839 -0.0249295 0.397606
-0.214057 -0.0249189 0.379761
-0.168322 -0.0249124 0.393171
-0.251856 -0.0249004 0.342936
-0.19163 -0.024889 0.364499
-0.314807 -0.024878 0.294288
-0.197438 -0.0248718 0.343486
-0.221863 -0.0248603 0.322762
-0.307215 -0.0248486 0.271616
-0.281952 -0.0248376 0.275662
-0.127852 -0.0248313 0.343272
-0.165096 -0.0248197 0.31619
-0.269172 -0.0248081 0.255706
-0.291971 -0.0247966 0.235862
-0.169224 -0.0247907 0.287743
-0.30375 -0.024779 0.212073
-0.214605 -0.0247673 0.248253
-0.174091 -0.0247556 0.260132
-0.210111 -0.0247497 0.232654
-0.138641 -0.024738 0.260034
-0.239377 -0.0247262 0.201328
-0.2584 -0.0247203 0.182372
-0.223659 -0.0247085 0.191429
-0.26296 -0.0246967 0.163479
-0.0932776 -0.0246848 0.240035
-0.247359 -0.0246789 0.153587
-0.24499 -0.024667 0.146511
-0.194816 -0.024655 0.163353
-0.204075 -0.0246431 0.150493
-0.248737 -0.0246371 0.11879
-0.280132 -0.0246256 0.0947921
-0.231419 -0.0246136 0.110954
-0.246001 -0.0246076 0.0943154
-0.201747 -0.0245956 0.108272
-0.169612 -0.0245836 0.116184
-0.202241 -0.0245715 0.0917288
-0.269592 -0.0245655 0.0487416
-0.214 -0.0245534 0.0684216
-0.174648 -0.0245412 0.0799965
-0.21225 -0.0245291 0.0531093
-0.262438 -0.024523 0.0187399
-0.187408 -0.0245108 0.0481934
-0.185175 -0.0244986 0.0412629
-0.204651 -0.0244925 0.0222759
-0.258034 -0.0244803 -0.0124375
-0.166305 -0.0131694 1.2153
-0.106718 -0.0131405 1.24199
-0.183737 -0.0131159 1.19921
-0.0889725 -0.0130916 1.2423
-0.148065 -0.0130827 1.20409
-0.185816 -0.0130651 1.17907
-0.0821887 -0.0130476 1.22472
-0.0737545 -0.0130428 1.21918
-0.263195 -0.0130279 1.11759
-0.116973 -0.0130109 1.18449
-0.264423 -0.013006 1.10106
-0.175052 -0.0129917 1.1388
-0.245815 -0.0129809 1.09545
-0.12287 -0.0129703 1.14895
-0.210299 -0.0129621 1.09654
-0.260217 -0.0129516 1.0636
-0.242537 -0.0129411 1.06446
-0.114977 -0.0129387 1.11791
-0.196476 -0.0129283 1.06919
-0.217569 -0.012918 1.05066
-0.156642 -0.0129103 1.07239
-0.234085 -0.0129001 1.02566
-0.209699 -0.0128901 1.02984
-0.255738 -0.0128851 0.99731
-0.243607 -0.0128777 0.99461
-0.212197 -0.0128678 1.00229
-0.185407 -0.0128581 1.00764
-0.20691 -0.0128556 0.986675
-0.256299 -0.0128459 0.953938
-0.245405 -0.0128364 0.951327
-0.148961 -0.0128313 0.990138
-0.251382 -0.0128244 0.930086
-0.278695 -0.0128194 0.907043
-0.215114 -0.01281 0.930767
-0.280467 -0.0128049 0.888732
-0.307075 -0.0127982 0.866561
-0.291626 -0.0127891 0.866192
-0.204427 -0.012784 0.900473
-0.200845 -0.0127776 0.893355
-0.204682 -0.0127724 0.882142
-0.206983 -0.0127635 0.872879
-0.195469 -0.0127584 0.86937
-0.189087 -0.0127522 0.863617
-0.254927 -0.012747 0.821454
-0.207433 -0.0127383 0.837066
-0.205829 -0.0127331 0.828654
-0.29645 -0.0127272 0.774358
-0.235431 -0.012722 0.795677
-0.234585 -0.0127136 0.787937
-0.260074 -0.0127109 0.765181
-0.270049 -0.0127027 0.752012
-0.24014 -0.0126974 0.757828
-0.238166 -0.0126892 0.75062
-0.17354 -0.0126866 0.772956
-0.231215 -0.0126813 0.735017
-0.260331 -0.0126733 0.712258
-0.27787 -0.0126679 0.694414
-0.220451 -0.0126627 0.714024
-0.264802 -0.0126574 0.682798
-0.224215 -0.0126496 0.69485
-0.229639 -0.0126466 0.682321
-0.169641 -0.0126412 0.703311
-0.206971 -0.0126339 0.676292
-0.276309 -0.0126285 0.632637
-0.292453 -0.0126231 0.615593
-0.307083 -0.0126183 0.599106
-0.221698 -0.0126129 0.632849
-0.281748 -0.0126075 0.59389
-0.240648 -0.012602 0.605519
-0.162364 -0.0125974 0.635473
-0.223348 -0.0125919 0.596084
-0.217672 -0.0125847 0.590636
-0.196401 -0.0125809 0.591804
-0.271822 -0.0125764 0.544888
-0.171167 -0.0125693 0.586915
-0.272189 -0.0125638 0.52757
-0.284585 -0.0125598 0.512009
-0.230071 -0.0125555 0.530042
-0.208002 -0.0125485 0.532772
-0.200335 -0.012543 0.527822
-0.242938 -0.0125374 0.497752
-0.255671 -0.0125334 0.48209
-0.235753 -0.0125278 0.483302
-0.26964 -0.0125222 0.457626
-0.212012 -0.0125178 0.477291
-0.279743 -0.0125127 0.434538
-0.29793 -0.0125071 0.416749
-0.250869 -0.0125014 0.431597
-0.22533 -0.0124968 0.435327
-0.241845 -0.012492 0.418099
-0.251706 -0.0124864 0.404523
-0.30693 -0.0124807 0.368281
-0.31301 -0.0124759 0.356311
-0.294403 -0.0124722 0.356298
-0.17104 -0.0124657 0.409645
-0.178781 -0.01246 0.397195
-0.183612 -0.012455 0.385962
-0.24945 -0.0124514 0.343699
-0.233241 -0.0124457 0.343263
-0.194637 -0.0124394 0.354232
-0.273507 -0.0124348 0.305848
-0.201032 -0.0124307 0.332958
-0.236649 -0.012425 0.306659
-0.247092 -0.0124192 0.292962
-0.251677 -0.0124163 0.281133
-0.251078 -0.0124101 0.273108
-0.148091 -0.0124043 0.316162
-0.242238 -0.0123985 0.260663
-0.24886 -0.0123955 0.24785
-0.224429 -0.0123897 0.251665
-0.212095 -0.0123838 0.249446
-0.246376 -0.0123779 0.223935
-0.230584 -0.012375 0.222365
-0.202699 -0.012369 0.22801
-0.24708 -0.0123631 0.197485
-0.259909 -0.0123573 0.182707
-0.252448 -0.0123542 0.177048
-0.281068 -0.0123483 0.154442
-0.253746 -0.0123423 0.159822
-0.310413 -0.0123394 0.122083
-0.204327 -0.0123334 0.166869
-0.21749 -0.0123274 0.152046
-0.2531 -0.0123215 0.126014
-0.182909 -0.0123185 0.151739
-0.202308 -0.0123125 0.133838
-0.310919 -0.0123065 0.0713451
-0.168005 -0.0123004 0.134629
-0.227669 -0.0122974 0.0954635
-0.205526 -0.0122914 0.0983873
-0.17683 -0.0122853 0.104602
-0.208421 -0.0122823 0.079501
-0.214617 -0.0122762 0.0682983
-0.224558 -0.0122701 0.0552382
-0.209944 -0.012264 0.0544706
-0.243103 -0.012261 0.0286218
-0.201043 -0.0122549 0.0416019
-0.253787 -0.0122487 0.00719488
-0.24048 -0.0122457 0.0046059
-0.23916 -0.0122396 -0.00277312
-0.0646442 0 1.22972
-0.0189195 0 1.25028
-0.122589 0 1.19052
-0.210094 0 1.14188
-0.114115 0 1.18381
-0.139927 0 1.163
-0.100437 0 1.17414
-0.175128 0 1.13071
-0.195222 0 1.11277
-0.185376 0 1.10908
-0.149613 0 1.12082
-0.125869 0 1.12479
-0.208734 0 1.07374
-0.199076 0 1.07164
-0.20465 0 1.06094
-0.234254 0 1.03657
-0.205493 0 1.04231
-0.181896 0 1.0462
-0.232395 0 1.01304
-0.102127 0 1.0695
-0.151403 0 1.03693
-0.184502 0 1.01244
-0.179056 0 1.00492
-0.225834 0 0.973597
-0.164173 0 0.996478
-0.224931 0 0.956672
-0.179361 0 0.970727
-0.266521 0 0.919182
-0.183303 0 0.951404
-0.201603 0 0.933497
-0.206111 0 0.923258
-0.261767 0 0.886084
-0.263702 0 0.87713
-0.139561 0 0.929074
-0.213363 0 0.884179
-0.247609 0 0.859043
-0.197736 0 0.873882
-0.135519 0 0.896967
-0.14396 0 0.883493
-0.296099 0 0.799393
-0.254286 0 0.81024
-0.209805 0 0.824438
-0.244438 0 0.797921
-0.276612 0 0.772648
-0.178531 0 0.8128
-0.248446 0 0.769776
-0.194313 0 0.787694
-0.208485 0 0.771474
-0.254177 0 0.739698
-0.244348 0 0.735502
-0.247123 0 0.726033
-0.27326 0 0.703004
-0.177728 0 0.74267
-0.208213 0 0.718369
-0.255044 0 0.68591
-0.244404 0 0.682234
-0.242231 0 0.6743
-0.213741 0 0.680422
-0.243832 0 0.656384
-0.27523 0 0.630823
-0.258633 0 0.630964
-0.250894 0 0.625878
-0.149509 0 0.667629
-0.245115 0 0.610764
-0.172069 0 0.638368
-0.129653 0 0.651415
-0.216866 0 0.598177
-0.224194 0 0.585436
-0.2484 0 0.564466
-0.230764 0 0.565123
-0.311704 0 0.515124
-0.282518 0 0.520624
-0.238932 0 0.534243
-0.216341 0 0.536737
-0.186107 0 0.542429
-0.240805 0 0.506558
-0.225032 0 0.505679
-0.271586 0 0.473652
-0.194262 0 0.502994
-0.308411 0 0.437323
-0.23612 0 0.464755
-0.225167 0 0.461532
-0.257245 0 0.435805
-0.283971 0 0.414244
-0.233952 0 0.430591
-0.253911 0 0.411964
-0.208564 0 0.424984
-0.265651 0 0.388236
-0.236801 0 0.39405
-0.220264 0 0.393307
-0.260739 0 0.363866
-0.23116 0 0.370083
-0.227467 0 0.363729
-0.240456 0 0.348334
-0.297743 0 0.310461
-0.245744 0 0.32794
-0.137888 0 0.373361
-0.293179 0 0.286878
-0.224621 0 0.312247
-0.239144 0 0.296516
-0.167154 0 0.324056
-0.2263 0 0.284959
-0.263882 0 0.257737
-0.218939 0 0.271793
-0.192552 0 0.276585
-0.277111 0 0.22504
-0.206244 0 0.252095
-0.22245 0 0.235626
-0.312844 0 0.181866
-0.167013 0 0.245541
-0.250175 0 0.195636
-0.170054 0 0.227385
-0.221396 0 0.192287
-0.129187 0 0.230253
-0.230514 0 0.171315
-0.12311 0 0.216757
-0.181733 0 0.178053
-0.295164 0 0.113103
-0.222813 0 0.141059
-0.173653 0 0.156272
-0.172442 0 0.148683
-0.172715 0 0.140365
-0.20957 0 0.113773
-0.237228 0 0.0906136
-0.297282 0 0.0524461
-0.165782 0 0.11007
-0.233299 0 0.0670075
-0.129329 0 0.110892
-0.175454 0 0.0797436
-0.226781 0 0.0460088
-0.249259 0 0.0255024
-0.14477 0 0.0697007
-0.232067 0 0.018021
-0.231378 0 0.00912452
-0.240566 0 -0.0034476
-0.0318992 0.0131443 1.21095
-0.163168 0.013113 1.14312
-0.170379 0.0130973 1.13283
-0.160636 0.0130728 1.13362
-0.104931 0.0130549 1.15551
-0.149347 0.0130459 1.12474
-0.153767 0.0130283 1.11656
-0.1835 0.0130107 1.09569
-0.176984 0.0130057 1.0893
-0.218274 0.0129909 1.06191
-0.203297 0.0129798 1.06158
-0.170384 0.0129688 1.07022
-0.1984 0.0129604 1.04764
-0.190378 0.0129495 1.04383
-0.0858154 0.0129329 1.09
-0.250041 0.0129304 0.997596
-0.229885 0.0129197 0.999844
-0.229234 0.0129091 0.992335
-0.189033 0.0129011 1.00383
-0.189621 0.0128906 0.995685
-0.218857 0.0128802 0.97321
-0.260068 0.0128751 0.94316
-0.148227 0.0128674 0.990447
-0.260453 0.0128572 0.926471
-0.23499 0.012847 0.931329
-0.238216 0.0128445 0.919534
-0.18713 0.0128345 0.937203
-0.235832 0.0128245 0.904965
-0.191786 0.0128219 0.916836
-0.230043 0.0128121 0.889818
-0.248255 0.0128069 0.87139
-0.215916 0.0127972 0.87967
-0.217638 0.0127946 0.868696
-0.133091 0.012785 0.903074
-0.160565 0.0127754 0.881424
-0.275982 0.0127702 0.814464
-0.177566 0.0127634 0.854919
-0.238328 0.0127581 0.815311
-0.123441 0.0127488 0.864828
-0.239461 0.0127462 0.796773
-0.197263 0.012737 0.809935
-0.164198 0.0127317 0.817294
-0.232651 0.0127253 0.774264
-0.26714 0.01272 0.747871
-0.208404 0.012711 0.769281
-0.192241 0.0127057 0.768242
-0.178276 0.0126995 0.766383
-0.264779 0.0126941 0.714035
-0.251079 0.0126854 0.712901
-0.222401 0.01268 0.718173
-0.263828 0.0126773 0.687516
-0.179255 0.0126687 0.721816
-0.148154 0.0126633 0.728337
-0.197279 0.0126579 0.69476
-0.232637 0.0126521 0.668189
-0.203525 0.0126467 0.673753
-0.21593 0.0126383 0.659546
-0.162366 0.0126356 0.676447
-0.264802 0.0126301 0.616275
-0.245727 0.0126219 0.617801
-0.250767 0.0126164 0.606356
-0.215032 0.0126136 0.614386
-0.22891 0.0126055 0.599419
-0.237599 0.0126 0.586187
-0.340614 0.012592 0.52664
-0.247642 0.0125893 0.563317
-0.199614 0.0125837 0.578481
-0.218715 0.0125759 0.560881
-0.332186 0.0125703 0.495323
-0.206397 0.0125675 0.548443
-0.208013 0.0125619 0.538838
-0.240149 0.0125542 0.514721
-0.223493 0.0125507 0.513546
-0.207685 0.0125458 0.512444
-0.293209 0.0125382 0.46162
-0.229533 0.0125326 0.484725
-0.251155 0.0125289 0.464515
-0.190608 0.0125241 0.485766
-0.163584 0.0125167 0.491214
-0.2492 0.012511 0.439725
-0.263322 0.012507 0.423371
-0.288251 0.0125024 0.401865
-0.274438 0.0124951 0.400703
-0.228466 0.0124894 0.415061
-0.228 0.0124865 0.405651
-0.259794 0.0124808 0.381149
-0.22965 0.0124751 0.387631
-0.224547 0.0124693 0.381607
-0.257167 0.012465 0.356204
-0.277766 0.0124592 0.337352
-0.19339 0.0124534 0.371001
-0.206075 0.012449 0.355627
-0.250381 0.0124435 0.324866
-0.207789 0.0124377 0.337661
-0.181946 0.0124318 0.342095
-0.266577 0.0124289 0.290233
-0.31504 0.0124231 0.25754
-0.181972 0.0124172 0.315627
-0.161115 0.0124103 0.318013
-0.181002 0.0124074 0.298558
-0.298351 0.0124015 0.231473
-0.265494 0.0123956 0.239506
-0.239347 0.0123907 0.243817
-0.148471 0.0123867 0.28016
-0.255727 0.0123808 0.218176
-0.216071 0.012374 0.229984
-0.229896 0.0123711 0.213621
-0.238858 0.0123651 0.200821
-0.252709 0.0123592 0.185591
-0.229904 0.0123532 0.188704
-0.176272 0.0123502 0.206105
-0.192635 0.0123442 0.189659
-0.262524 0.0123382 0.146464
-0.253711 0.0123352 0.141482
-0.163206 0.0123292 0.17851
-0.250185 0.0123232 0.12681
-0.230134 0.0123165 0.12888
-0.2471 0.0123135 0.111043
-0.16107 0.0123074 0.145884
-0.299173 0.0123014 0.0686741
-0.2554 0.0122984 0.0812337
-0.182563 0.0122923 0.109518
-0.243079 0.0122862 0.0711415
-0.162852 0.0122806 0.102931
-0.240061 0.012277 0.0552558
-0.218689 0.0122709 0.0578629
-0.243457 0.0122648 0.0374148
-0.190914 0.0122617 0.0544222
-0.193627 0.0122556 0.0450268
-0.259436 0.0122494 0.00409832
-0.190616 0.0122463 0.0292704
-0.196576 0.0122402 0.0182913
-0.167179 0.0262803 1.09961
-0.115834 0.0261911 1.12705
-0.0615459 0.0261417 1.15022
-0.162648 0.0261186 1.09189
-0.0823088 0.0260747 1.12735
-0.135949 0.0260391 1.09464
-0.216044 0.0260164 1.04682
-0.159995 0.0259988 1.06634
-0.196269 0.0259639 1.04229
-0.182533 0.0259415 1.0414
-0.183647 0.0259244 1.03233
-0.250073 0.0259022 0.991362
-0.155983 0.0258802 1.03065
-0.159729 0.0258634 1.02026
-0.23512 0.0258417 0.974805
-0.165501 0.02582 1.00185
-0.24837 0.0258098 0.950953
-0.149752 0.0257934 0.991731
-0.18028 0.0257721 0.968713
-0.282736 0.0257509 0.909726
-0.150562 0.025735 0.967251
-0.195893 0.0257142 0.936807
-0.163913 0.0256935 0.945009
-0.188149 0.0256883 0.922721
-0.207719 0.0256678 0.905151
-0.178384 0.0256475 0.912021
-0.262083 0.025637 0.86085
-0.16249 0.0256221 0.902032
-0.108666 0.0256117 0.919647
-0.179864 0.0255917 0.876252
-0.184059 0.0255864 0.864055
-0.194132 0.0255667 0.851219
-0.23877 0.0255471 0.821085
-0.202842 0.0255366 0.829823
-0.17556 0.0255225 0.834799
-0.22328 0.0255119 0.801738
-0.178316 0.0254928 0.816396
-0.264135 0.0254874 0.763455
-0.203477 0.0254685 0.785951
-0.173929 0.0254578 0.791578
-0.291331 0.0254391 0.725038
-0.299446 0.0254337 0.710988
-0.273953 0.0254153 0.715884
-0.146987 0.0254045 0.770274
-0.291589 0.0253917 0.689228
-0.290342 0.0253808 0.680783
-0.201509 0.0253628 0.717327
-0.157468 0.025352 0.730308
-0.222179 0.0253465 0.688025
-0.215911 0.0253288 0.683286
-0.193588 0.0253178 0.685447
-0.260648 0.0253058 0.643117
-0.138041 0.0252948 0.695444
-0.169121 0.0252839 0.670942
-0.273992 0.0252666 0.610617
-0.152374 0.0252611 0.661562
-0.20152 0.025244 0.629081
-0.205075 0.025233 0.618393
-0.244427 0.0252219 0.589822
-0.152106 0.0252106 0.627127
-0.251809 0.0251995 0.568403
-0.223572 0.0251884 0.573665
-0.188123 0.0251772 0.582547
-0.230522 0.0251663 0.55248
-0.19683 0.0251551 0.560507
-0.146299 0.0251388 0.577845
-0.201175 0.0251326 0.54074
-0.203227 0.0251219 0.530835
-0.209908 0.0251107 0.518728
-0.261756 0.0250946 0.48488
-0.217541 0.025089 0.497258
-0.290295 0.0250776 0.452152
-0.224278 0.0250619 0.477225
-0.197107 0.0250549 0.481333
-0.197847 0.0250448 0.472046
-0.178062 0.0250334 0.473262
-0.130238 0.0250179 0.489238
-0.0832659 0.0250105 0.503352
-0.248326 0.0250007 0.411887
-0.219884 0.0249892 0.417484
-0.148686 0.024974 0.445145
-0.204478 0.0249682 0.407616
-0.224031 0.0249567 0.389253
-0.217888 0.0249451 0.383754
-0.255525 0.0249335 0.356378
-0.188143 0.0249277 0.380473
-0.167945 0.0249127 0.382652
-0.281506 0.0249011 0.317352
-0.31363 0.0248928 0.292177
-0.189492 0.0248836 0.345294
-0.217585 0.0248719 0.322767
-0.220407 0.0248572 0.313444
-0.304624 0.0248513 0.2618
-0.19291 0.0248396 0.309214
-0.277631 0.0248278 0.258426
-0.19938 0.024816 0.289139
-0.235776 0.0248101 0.26144
-0.228434 0.0247956 0.257214
-0.186238 0.0247838 0.269936
-0.274959 0.0247778 0.216102
-0.330717 0.024766 0.179872
-0.244679 0.024754 0.214555
-0.210996 0.0247421 0.223075
-0.233198 0.0247361 0.202536
-0.185961 0.0247242 0.217858
-0.23074 0.02471 0.187608
-0.181904 0.024704 0.202613
-0.263858 0.024692 0.153377
-0.176837 0.0246799 0.188644
-0.240808 0.02467 0.148018
-0.318694 0.0246618 0.10011
-0.179608 0.0246497 0.161448
-0.199102 0.0246376 0.143512
-0.178584 0.0246315 0.144421
-0.17806 0.0246194 0.136519
-0.160246 0.0246072 0.137277
-0.149472 0.0246011 0.13334
-0.237971 0.0245889 0.0809664
-0.2261 0.0245767 0.0787923
-0.228855 0.0245644 0.0693209
-0.276548 0.0245583 0.0361873
-0.259904 0.0245443 0.0367678
-0.240733 0.024532 0.038296
-0.272956 0.0245258 0.0129231
-0.19953 0.0245135 0.0416039
-0.216894 0.0245012 0.0249044
-0.162603 0.024495 0.0428153
-0.325047 0.0244826 -0.0463988
-0.129498 0.0393203 1.08335
-0.128082 0.0392458 1.08019
-0.0470775 0.0391791 1.11609
-0.120192 0.0391052 1.07567
-0.0963853 0.0390513 1.08178
-0.0713425 0.0390245 1.08584
-0.185344 0.0389901 1.02116
-0.194196 0.0389371 1.01093
-0.155981 0.0389108 1.02158
-0.181087 0.038877 1.00135
-0.145841 0.0388252 1.01312
-0.133565 0.0388097 1.00977
-0.261056 0.0387841 0.937567
-0.108957 0.0387509 1.00595
-0.152102 0.0387179 0.976703
-0.140614 0.0386929 0.973979
-0.213113 0.0386603 0.930051
-0.168565 0.0386279 0.944643
-0.125648 0.0386036 0.957608
-0.204683 0.038588 0.908717
-0.207839 0.038556 0.899459
-0.191887 0.0385322 0.89893
-0.20608 0.0385008 0.884133
-0.237149 0.038485 0.859285
-0.260491 0.0384539 0.839921
-0.115622 0.0384309 0.903818
-0.143656 0.038415 0.880529
-0.223485 0.0383844 0.832911
-0.106526 0.0383764 0.881304
-0.219479 0.0383461 0.817122
-0.182171 0.038316 0.828056
-0.177475 0.0383 0.821204
-0.217982 0.0382783 0.792371
-0.158818 0.0382622 0.812778
-0.217244 0.0382328 0.775839
-0.16872 0.0382247 0.790085
-0.173622 0.0381955 0.779902
-0.246581 0.0381794 0.734303
-0.151757 0.0381586 0.773096
-0.174614 0.0381424 0.752572
-0.214124 0.0381139 0.725072
-0.304751 0.0380976 0.670693
-0.173395 0.0380776 0.727721
-0.199976 0.0380612 0.70539
-0.221038 0.0380334 0.687095
-0.188799 0.038017 0.694204
-0.311478 0.0380087 0.622952
-0.284403 0.0379812 0.628727
