ply
format ascii 1.0
comment Created by Open3D
element vertex 1728
property double x
property double y
property double z
end_header
-0.446161 -0.904936 1.99147
-0.367734 -0.905077 2.01888
-0.383661 -0.905111 1.99944
-0.346555 -0.905145 2.00651
-0.229539 -0.90539 2.05288
-0.19279 -0.905532 2.05944
-0.28399 -0.905857 2.00144
-0.430905 -0.905963 1.91626
-0.481538 -0.906345 1.87835
-0.0915906 -0.906916 2.06011
-0.518355 -0.907386 1.83383
-0.183429 -0.907889 1.98828
-0.337499 -0.908767 1.897
-0.368782 -0.909708 1.86689
-0.213599 -0.911096 1.92854
-0.154174 -0.912574 1.94197
-0.157483 -0.925529 2.56097
-0.382066 -0.920838 2.4489
-0.44052 -0.91763 2.41619
-0.138073 -0.915939 2.56009
-0.318096 -0.91406 2.46329
-0.24048 -0.912417 2.49474
-0.511922 -0.911011 2.35107
-0.324067 -0.909823 2.43652
-0.353971 -0.908656 2.41306
-0.337091 -0.907513 2.41296
-0.29187 -0.906241 2.42741
-0.402558 -0.905499 2.3625
-0.267005 -0.904303 2.42197
-0.463972 -0.903592 2.31388
-0.191407 -0.90278 2.44086
-0.369766 -0.902096 2.34204
-0.395252 -0.901332 2.3199
-0.547856 -0.9006 2.23413
-0.475485 -0.899963 2.26061
-0.162903 -0.899284 2.40732
-0.413301 -0.898678 2.27235
-0.242453 -0.898054 2.34807
-0.352708 -0.897481 2.28312
-0.159792 -0.896916 2.36974
-0.61707 -0.896377 2.1312
-0.481017 -0.89603 2.1888
-0.517948 -0.895516 2.16039
-0.431825 -0.895053 2.19337
-0.322327 -0.894576 2.23809
-0.280469 -0.894348 2.24828
-0.202103 -0.893906 2.27736
-0.389059 -0.893569 2.17347
-0.438306 -0.893332 2.13816
-0.630452 -0.892939 2.03186
-0.386666 -0.89269 2.14311
-0.131218 -0.892499 2.26002
-0.434526 -0.892158 2.09802
-0.282611 -0.891991 2.1631
-0.258284 -0.891694 2.16479
-0.284522 -0.891562 2.1407
-0.481371 -0.891443 2.03128
-0.460884 -0.891393 2.03031
-0.219835 -0.891308 2.13973
-0.293905 -0.891171 2.09175
-0.333089 -0.89112 2.06095
-0.259125 -0.891052 2.08679
-0.510125 -0.891176 1.94953
-0.399113 -0.891181 1.99366
-0.426109 -0.891197 1.96875
-0.397056 -0.891224 1.97183
-0.318071 -0.891451 1.99923
-0.548489 -0.891579 1.87225
-0.723723 -0.891658 1.77301
-0.409754 -0.892094 1.91722
-0.509764 -0.892476 1.8546
-0.392405 -0.892615 1.90145
-0.354435 -0.89305 1.90763
-0.289586 -0.893702 1.92653
-0.246975 -0.894219 1.93474
-0.584616 -0.895115 1.75156
-0.098348 -0.896071 1.98011
-0.216121 -0.897472 1.90513
-0.347711 -0.899788 1.82016
-0.457285 -0.910058 2.40358
-0.451524 -0.906274 2.40457
-0.349551 -0.903742 2.45048
-0.347404 -0.901454 2.4459
-0.283308 -0.899811 2.47063
-0.22162 -0.898196 2.49414
-0.172502 -0.897004 2.51026
-0.429719 -0.895647 2.3737
-0.355478 -0.894501 2.40233
-0.274261 -0.893379 2.43441
-0.339531 -0.892129 2.39362
-0.355402 -0.891402 2.37613
-0.482245 -0.890549 2.30352
-0.420893 -0.889532 2.32549
-0.352729 -0.888736 2.35027
-0.239681 -0.888066 2.39717
-0.505906 -0.887317 2.25466
-0.369387 -0.886676 2.31325
-0.321459 -0.885976 2.32771
-0.660264 -0.885311 2.14874
-0.318028 -0.884719 2.31009
-0.500786 -0.884109 2.20901
-0.599003 -0.88355 2.15008
-0.379063 -0.88318 2.24968
-0.299397 -0.882645 2.27964
-0.285343 -0.882132 2.27674
-0.427414 -0.881631 2.19576
-0.193694 -0.881315 2.30214
-0.437891 -0.880883 2.16991
-0.19723 -0.88043 2.28019
-0.548757 -0.880062 2.09413
-0.614877 -0.87981 2.05044
-0.451381 -0.879406 2.12202
-0.443616 -0.879123 2.11537
-0.503596 -0.878916 2.07463
-0.207836 -0.878562 2.21222
-0.235759 -0.878366 2.18748
-0.631073 -0.878206 1.97895
-0.407499 -0.877902 2.08031
-0.433085 -0.877793 2.05649
-0.542909 -0.877679 1.99057
-0.616026 -0.877576 1.94297
-0.312142 -0.877405 2.0841
-0.240617 -0.877336 2.10872
-0.531198 -0.877234 1.9524
-0.41102 -0.877199 2.00124
-0.309389 -0.877176 2.04077
-0.341575 -0.877304 2.01292
-0.667507 -0.877313 1.83856
-0.273365 -0.877365 2.02411
-0.229673 -0.877406 2.03447
-0.260307 -0.877657 2.00697
-0.311507 -0.877812 1.96951
-0.308022 -0.87814 1.95881
-0.3579 -0.878252 1.92213
-0.214372 -0.878775 1.98079
-0.343044 -0.878925 1.90458
-0.461114 -0.879378 1.83266
-0.312496 -0.880178 1.8929
-0.398445 -0.880924 1.83603
-0.250211 -0.881498 1.8968
-0.173317 -0.882467 1.92055
-0.104292 -0.884274 1.93749
-0.301708 -0.886619 1.81932
-0.179779 -0.896082 2.53105
-0.0612385 -0.891523 2.5907
-0.34482 -0.889451 2.44275
-0.101596 -0.887201 2.55873
-0.310954 -0.885586 2.44677
-0.234464 -0.883999 2.47769
-0.305227 -0.882829 2.43389
-0.424481 -0.881494 2.36632
-0.307235 -0.88037 2.41646
-0.304367 -0.879269 2.40938
-0.212169 -0.878382 2.4464
-0.329494 -0.87733 2.37913
-0.348939 -0.876492 2.36024
-0.430065 -0.875804 2.3101
-0.466632 -0.875009 2.28256
-0.462383 -0.87406 2.27589
-0.46839 -0.873325 2.26351
-0.614509 -0.872698 2.18077
-0.372701 -0.872013 2.29219
-0.578962 -0.871416 2.17933
-0.462258 -0.870784 2.22807
-0.539152 -0.870393 2.17933
-0.394658 -0.869814 2.24184
-0.360629 -0.869279 2.249
-0.289819 -0.868757 2.27453
-0.399733 -0.868248 2.20967
-0.326677 -0.867919 2.23578
-0.203752 -0.867459 2.28721
-0.442948 -0.866997 2.15761
-0.363996 -0.866598 2.18691
-0.667741 -0.866332 2.02445
-0.242408 -0.865917 2.22701
-0.346566 -0.865602 2.16452
-0.382841 -0.86538 2.13568
-0.29224 -0.865127 2.1704
-0.382927 -0.864784 2.11475
-0.253487 -0.864607 2.16866
-0.501326 -0.86444 2.0339
-0.307462 -0.864146 2.1204
-0.353117 -0.864015 2.08662
-0.632171 -0.863896 1.93612
-0.373016 -0.863691 2.055
-0.582745 -0.863605 1.93906
-0.461823 -0.863531 1.98841
-0.254132 -0.863416 2.08127
-0.284532 -0.863376 2.05486
-0.298179 -0.863328 2.03684
-0.457162 -0.863458 1.94558
-0.328363 -0.863474 1.99858
-0.73551 -0.863498 1.78357
-0.0909329 -0.863533 2.0944
-0.547885 -0.863635 1.85423
-0.249276 -0.863907 1.99128
-0.226348 -0.863994 1.9911
-0.371783 -0.864437 1.90553
-0.495929 -0.864562 1.83168
-0.479953 -0.864963 1.82694
-0.65252 -0.865276 1.72822
-0.239141 -0.865744 1.92194
-0.449734 -0.866563 1.80246
-0.254494 -0.86733 1.88605
-0.357743 -0.867915 1.821
-0.382425 -0.868895 1.79385
-0.298258 -0.87111 1.8168
-0.390452 -0.882117 2.41442
-0.0432132 -0.877636 2.58846
-0.236856 -0.875402 2.48604
-0.275229 -0.872972 2.46185
-0.294467 -0.871385 2.44496
-0.147553 -0.869826 2.51112
-0.413708 -0.868678 2.36963
-0.247532 -0.867548 2.44429
-0.569178 -0.866263 2.27551
-0.392142 -0.865534 2.35452
-0.290885 -0.864312 2.39707
-0.514893 -0.863281 2.27648
-0.0347805 -0.862593 2.50698
-0.352957 -0.861786 2.33871
-0.6755 -0.861006 2.16819
-0.40162 -0.860359 2.29552
-0.415582 -0.859624 2.27921
-0.514266 -0.859004 2.22021
-0.633525 -0.858072 2.15186
-0.489977 -0.857662 2.2134
-0.280739 -0.85709 2.30827
-0.318517 -0.856488 2.27974
-0.519299 -0.855947 2.16954
-0.371219 -0.8554 2.2338
-0.202352 -0.855057 2.30786
-0.505929 -0.85456 2.14617
-0.413951 -0.854075 2.18224
-0.507285 -0.853626 2.12555
-0.451398 -0.853335 2.14299
-0.38241 -0.852896 2.16745
-0.425758 -0.852528 2.13554
-0.36886 -0.8522 2.15363
-0.6213 -0.851889 2.01701
-0.424706 -0.851604 2.10484
-0.497713 -0.851248 2.05809
-0.2149 -0.851056 2.18874
-0.403707 -0.850855 2.08362
-0.284477 -0.850549 2.13286
-0.564314 -0.850402 1.98206
-0.407 -0.850266 2.0498
-0.404805 -0.850028 2.04032
-0.500535 -0.849926 1.98144
-0.288316 -0.849835 2.07651
-0.277948 -0.849686 2.07083
-0.360427 -0.849629 2.01844
-0.277182 -0.849582 2.04888
-0.403141 -0.849522 1.97476
-0.385507 -0.849508 1.97228
-0.534957 -0.849645 1.88576
-0.179009 -0.849662 2.05233
-0.424387 -0.849729 1.91807
-0.554083 -0.849778 1.84172
-0.315009 -0.849908 1.94947
-0.197853 -0.850201 1.9957
-0.461308 -0.8503 1.85228
-0.418794 -0.850648 1.86099
-0.462582 -0.850912 1.82683
-0.556675 -0.851057 1.76792
-0.402816 -0.851664 1.83138
-0.580128 -0.852147 1.72966
-0.358644 -0.852659 1.82723
-0.327055 -0.85377 1.82773
-0.18933 -0.854364 1.88309
-0.129383 -0.85573 1.89681
-0.120841 -0.857978 1.88165
-0.186394 -0.863353 2.50674
-0.234637 -0.861157 2.47705
-0.228939 -0.858767 2.47493
-0.564338 -0.857208 2.29998
-0.277038 -0.85606 2.43526
-0.389602 -0.854927 2.3706
-0.40078 -0.853624 2.35714
-0.406369 -0.852179 2.34693
-0.372525 -0.851466 2.35435
-0.436387 -0.8506 2.31339
-0.179372 -0.849578 2.43334
-0.107068 -0.848759 2.46037
-0.223682 -0.84779 2.3934
-0.614419 -0.847025 2.1888
-0.291624 -0.846393 2.34059
-0.267773 -0.845672 2.34319
-0.532035 -0.845067 2.2014
-0.42638 -0.844394 2.2448
-0.272632 -0.843817 2.31196
-0.422133 -0.843194 2.22766
-0.377299 -0.842647 2.24031
-0.462945 -0.842078 2.18781
-0.463777 -0.841724 2.17706
-0.486347 -0.841209 2.15596
-0.47355 -0.840724 2.15245
-0.326046 -0.840251 2.21628
-0.283472 -0.839949 2.22712
-0.428044 -0.839501 2.14485
-0.307116 -0.839104 2.19519
-0.359961 -0.838843 2.15821
-0.371555 -0.838441 2.14232
-0.349946 -0.838124 2.14277
-0.618081 -0.837906 1.99804
-0.420738 -0.837551 2.08649
-0.188845 -0.837317 2.19184
-0.252018 -0.837143 2.14947
-0.385283 -0.836836 2.07249
-0.482096 -0.836684 2.01323
-0.656431 -0.836544 1.91518
-0.493352 -0.836296 1.98619
-0.562609 -0.836189 1.94058
-0.372208 -0.836007 2.02505
-0.266135 -0.835933 2.067
-0.212235 -0.83587 2.08282
-0.405357 -0.835776 1.97524
-0.330343 -0.835745 2.00152
-0.455682 -0.835725 1.92759
-0.395033 -0.835716 1.94661
-0.502844 -0.835856 1.88089
-0.540637 -0.83591 1.85047
-0.268334 -0.835952 1.97514
-0.235246 -0.836068 1.97995
-0.111903 -0.836141 2.03003
-0.546372 -0.836435 1.80043
-0.3172 -0.836648 1.90292
-0.40108 -0.836769 1.84921
-0.259039 -0.8373 1.907
-0.356876 -0.837457 1.84617
-0.266784 -0.838089 1.87761
-0.333227 -0.838585 1.83125
-0.465226 -0.83911 1.75199
-0.264337 -0.839896 1.83822
-0.328071 -0.840844 1.79153
-0.100036 -0.842219 1.88915
-0.380147 -0.845279 1.72651
-0.191591 -0.849497 2.49287
-0.323289 -0.846936 2.42262
-0.346532 -0.844979 2.40493
-0.540483 -0.843441 2.30075
-0.249622 -0.841928 2.43893
-0.553069 -0.840816 2.27884
-0.420764 -0.839537 2.33714
-0.443898 -0.838468 2.31715
-0.420196 -0.837421 2.32053
-0.163531 -0.836571 2.43984
-0.45606 -0.835569 2.28503
-0.243285 -0.834767 2.38231
-0.412646 -0.834117 2.28807
-0.248048 -0.833354 2.36118
-0.161031 -0.83245 2.39595
-0.379832 -0.831842 2.27693
-0.59463 -0.831152 2.16018
-0.615672 -0.830493 2.14023
-0.648938 -0.830094 2.11338
-0.141919 -0.82954 2.35717
-0.457097 -0.828948 2.19
-0.402626 -0.828425 2.20745
-0.554976 -0.827886 2.12155
-0.359355 -0.827393 2.20951
-0.436419 -0.827069 2.1606
-0.285673 -0.8266 2.22607
-0.402542 -0.826155 2.15767
-0.399619 -0.825747 2.14906
-0.341179 -0.825445 2.16787
-0.451589 -0.825078 2.10248
-0.465416 -0.824687 2.08547
-0.31141 -0.824456 2.15187
-0.53327 -0.824169 2.03052
-0.425352 -0.823824 2.07425
-0.381487 -0.823635 2.08546
-0.390382 -0.823316 2.07072
-0.443983 -0.823133 2.03319
-0.50689 -0.822987 1.99088
-0.486217 -0.822715 1.99079
-0.499735 -0.822592 1.97311
-0.419145 -0.82248 2.00245
-0.470957 -0.822288 1.96587
-0.580998 -0.822208 1.89979
-0.380037 -0.822139 1.98917
-0.474917 -0.822033 1.93077
-0.192124 -0.821997 2.06097
-0.312725 -0.821955 1.98948
-0.461737 -0.821951 1.90367
-0.531375 -0.821956 1.8575
-0.418946 -0.821972 1.90233
-0.312952 -0.822156 1.94336
-0.306401 -0.822258 1.93494
-0.386897 -0.822324 1.88313
-0.346062 -0.822485 1.89164
-0.416473 -0.822581 1.84476
-0.264168 -0.823036 1.90794
-0.395703 -0.823168 1.83035
-0.312679 -0.823568 1.85907
-0.410811 -0.823893 1.79748
-0.299042 -0.824358 1.84031
-0.221977 -0.824747 1.86606
-0.527501 -0.825271 1.70001
-0.221423 -0.826397 1.83752
-0.434986 -0.826996 1.71713
-0.248882 -0.828735 1.79231
-0.27625 -0.833432 1.74967
-0.349685 -0.835652 2.40253
-0.20636 -0.833133 2.46983
-0.438959 -0.830815 2.34865
-0.402131 -0.829305 2.35987
-0.515554 -0.827819 2.29593
-0.41294 -0.826729 2.33888
-0.449674 -0.825829 2.31162
-0.313823 -0.824425 2.37219
-0.357348 -0.823737 2.34095
-0.307598 -0.822564 2.35783
-0.124206 -0.821902 2.44002
-0.641849 -0.821103 2.17213
-0.210504 -0.820162 2.37919
-0.394553 -0.819414 2.27798
-0.63761 -0.818803 2.14687
-0.457095 -0.818098 2.22785
-0.399076 -0.817513 2.24723
-0.26766 -0.816853 2.30356
-0.385234 -0.816296 2.23509
-0.18977 -0.815684 2.32332
-0.436683 -0.815156 2.19012
-0.476548 -0.814595 2.16057
-0.357921 -0.81425 2.20958
-0.423389 -0.813741 2.16708
-0.280426 -0.813272 2.22868
-0.347711 -0.812815 2.18513
-0.379813 -0.812519 2.15866
-0.438862 -0.812086 2.11918
-0.634896 -0.811691 2.01109
-0.244607 -0.811435 2.19571
-0.357487 -0.811046 2.1292
-0.320789 -0.810729 2.13724
-0.401369 -0.810515 2.08632
-0.399307 -0.810171 2.07715
-0.187108 -0.809934 2.1727
-0.570317 -0.809762 1.97034
-0.379476 -0.809465 2.05543
-0.529521 -0.809308 1.96961
-0.0579087 -0.809175 2.19454
-0.605741 -0.808915 1.91018
-0.639653 -0.808691 1.88267
-0.554207 -0.808596 1.9144
-0.298294 -0.808511 2.03133
-0.277433 -0.808373 2.03092
-0.55045 -0.80832 1.88328
-0.538884 -0.808277 1.87789
-0.573499 -0.808224 1.84945
-0.149955 -0.808213 2.04994
-0.108406 -0.808212 2.0594
-0.0154625 -0.808242 2.09444
-0.398062 -0.808272 1.89172
-0.286295 -0.808312 1.93613
-0.389638 -0.808605 1.87208
-0.297537 -0.808684 1.90652
-0.555147 -0.808871 1.76571
-0.321855 -0.808978 1.87063
-0.413392 -0.809221 1.81264
-0.485603 -0.809605 1.76378
-0.29707 -0.809757 1.84614
-0.114771 -0.810365 1.92369
-0.290658 -0.810549 1.8237
-0.386775 -0.811249 1.76167
-0.241124 -0.811783 1.82112
-0.262137 -0.812584 1.79621
-0.394899 -0.813534 1.71485
-0.141634 -0.815566 1.82234
-0.190321 -0.821428 2.47207
-0.429893 -0.819343 2.34679
-0.346099 -0.817058 2.38385
-0.39432 -0.815569 2.35258
-0.185359 -0.814102 2.44987
-0.360897 -0.813027 2.35377
-0.718486 -0.811782 2.1672
-0.447907 -0.810747 2.2941
-0.48937 -0.809732 2.26494
-0.647399 -0.808904 2.17696
-0.347618 -0.807933 2.31834
-0.190047 -0.80715 2.38807
-0.430793 -0.806524 2.25816
-0.563776 -0.805778 2.18253
-0.42762 -0.8049 2.24192
-0.379757 -0.804209 2.25658
-0.33964 -0.803638 2.26701
-0.51284 -0.802992 2.17104
-0.531483 -0.802603 2.15153
-0.403972 -0.802068 2.20559
-0.302257 -0.801487 2.24691
-0.463737 -0.800981 2.15641
-0.342965 -0.80045 2.20713
-0.43249 -0.799974 2.15253
-0.575893 -0.799657 2.07049
-0.513462 -0.799198 2.09184
-0.427891 -0.798763 2.1247
-0.371848 -0.798359 2.1427
-0.1831 -0.798074 2.22666
-0.490879 -0.797676 2.06275
-0.258217 -0.79738 2.16873
-0.545471 -0.797103 2.01469
-0.194553 -0.79675 2.18001
-0.42728 -0.796544 2.05301
-0.633739 -0.796296 1.93929
-0.376741 -0.795987 2.05752
-0.335472 -0.795823 2.06739
-0.693168 -0.795654 1.8778
-0.0498891 -0.795392 2.18903
-0.545071 -0.795269 1.93054
-0.451125 -0.795157 1.96659
-0.464148 -0.794931 1.94956
-0.362268 -0.794841 1.9895
-0.254244 -0.794692 2.03272
-0.391591 -0.794634 1.95295
-0.380262 -0.794548 1.9476
-0.39316 -0.79452 1.92994
-0.50177 -0.794503 1.86439
-0.605084 -0.794497 1.80144
-0.397904 -0.794514 1.89366
-0.44812 -0.794537 1.85715
-0.349519 -0.794615 1.89485
-0.293955 -0.794668 1.91112
-0.393926 -0.794805 1.84931
-0.238322 -0.794887 1.91549
-0.546651 -0.795185 1.74889
-0.268552 -0.795414 1.87576
-0.298823 -0.795542 1.84881
-0.398399 -0.795824 1.78663
-0.0857194 -0.795978 1.93105
-0.266208 -0.796588 1.82715
-0.221098 -0.796774 1.83765
-0.475122 -0.797473 1.6966
-0.322332 -0.798005 1.75959
-0.48343 -0.799142 1.66328
-0.145534 -0.799744 1.8185
-0.072348 -0.801758 1.83585
-0.392973 -0.807611 2.35942
-0.294288 -0.805564 2.4033
-0.523322 -0.802934 2.28515
-0.306748 -0.801472 2.3863
-0.332274 -0.8004 2.36524
-0.404958 -0.79934 2.32059
-0.352779 -0.798106 2.33895
-0.265523 -0.796743 2.37528
-0.4773 -0.796082 2.25994
-0.33287 -0.794937 2.32423
-0.724115 -0.794299 2.11912
-0.317353 -0.79352 2.31349
-0.203522 -0.792607 2.36183
-0.327768 -0.791877 2.29058
-0.308133 -0.791289 2.29083
-0.50069 -0.790599 2.18533
-0.213456 -0.790035 2.31934
-0.46345 -0.789389 2.18502
-0.415901 -0.788851 2.19913
-0.399623 -0.788251 2.19783
-0.277227 -0.787741 2.2493
-0.343164 -0.787388 2.2061
-0.248537 -0.786853 2.2438
-0.30819 -0.786382 2.20417
-0.594981 -0.785899 2.05101
-0.316341 -0.785599 2.17997
-0.567992 -0.785169 2.04423
-0.367 -0.78475 2.13479
-0.227784 -0.784358 2.19438
-0.402825 -0.784108 2.09637
-0.540077 -0.783732 2.01769
-0.250625 -0.783415 2.15216
-0.431702 -0.783149 2.05121
-0.0987974 -0.782872 2.20729
-0.515605 -0.782632 1.9884
-0.547911 -0.782374 1.96182
-0.359746 -0.782175 2.04528
-0.345847 -0.782013 2.04148
-0.402608 -0.781763 2.00267
-0.287669 -0.781636 2.04928
-0.291803 -0.78152 2.03631
-0.10849 -0.781318 2.11739
-0.490902 -0.781113 1.91561
-0.239215 -0.781039 2.03041
-0.51519 -0.780975 1.88135
-0.481133 -0.780878 1.88743
-0.429599 -0.780845 1.90201
-0.632847 -0.780822 1.78916
-0.530132 -0.780806 1.82927
-0.49859 -0.780814 1.83371
-0.305971 -0.780831 1.91865
-0.534549 -0.780895 1.79281
-0.415035 -0.780942 1.84108
-0.309298 -0.781065 1.88218
-0.549152 -0.781141 1.75065
-0.144981 -0.78132 1.94074
-0.39404 -0.781424 1.8045
-0.605881 -0.781658 1.68636
-0.310234 -0.781789 1.82236
-0.29198 -0.782172 1.81868
-0.049473 -0.782491 1.92737
-0.40092 -0.782843 1.73894
-0.402593 -0.783317 1.72491
-0.315024 -0.784034 1.75452
-0.369697 -0.784257 1.71495
-0.375842 -0.785387 1.69604
-0.399934 -0.786334 1.66885
-0.403328 -0.787609 1.65067
-0.379506 -0.793805 2.35483
-0.101523 -0.79196 2.48786
-0.325719 -0.789205 2.3727
-0.118738 -0.787766 2.46908
-0.34289 -0.786347 2.34987
-0.295906 -0.785309 2.36507
-0.457443 -0.784097 2.27659
-0.2985 -0.783097 2.34771
-0.301739 -0.782272 2.3372
-0.0282863 -0.78131 2.46551
-0.586445 -0.780369 2.17797
-0.279963 -0.779606 2.3222
-0.590546 -0.779003 2.1574
-0.399844 -0.778276 2.24366
-0.607945 -0.777696 2.13007
-0.366434 -0.776748 2.24251
-0.3491 -0.776346 2.24107
-0.685548 -0.775566 2.06402
-0.437564 -0.775187 2.17786
-0.342453 -0.774672 2.21573
-0.402774 -0.774101 2.1761
-0.189988 -0.773613 2.27275
-0.180016 -0.773091 2.26812
-0.307458 -0.772772 2.19411
-0.281108 -0.772323 2.19745
-0.362467 -0.771869 2.14697
-0.407486 -0.77145 2.11454
-0.617102 -0.771178 1.99932
-0.546266 -0.770782 2.02477
-0.353382 -0.770418 2.11114
-0.427784 -0.770155 2.06352
-0.556931 -0.76983 1.98876
-0.5257 -0.769541 1.99406
-0.465621 -0.769286 2.01368
-0.178014 -0.769036 2.14705
-0.391731 -0.768786 2.02977
-0.396833 -0.768576 2.01665
-0.520173 -0.768301 1.94466
-0.676052 -0.76816 1.85592
-0.181957 -0.768027 2.09214
-0.553009 -0.767797 1.89615
-0.451997 -0.767697 1.93572
-0.321879 -0.767606 1.9898
-0.330262 -0.767412 1.97503
-0.672006 -0.767343 1.79311
-0.463466 -0.767235 1.88649
-0.360251 -0.767196 1.92694
-0.488505 -0.767149 1.85169
-0.215455 -0.76714 1.97695
-0.21005 -0.767142 1.96835
-0.162624 -0.767153 1.98072
-0.230637 -0.767204 1.93521
-0.390021 -0.767245 1.84406
-0.276739 -0.767194 1.8896
-0.449407 -0.767324 1.79146
-0.216924 -0.767403 1.89609
-0.422254 -0.767492 1.78177
-0.292639 -0.767906 1.83365
-0.321328 -0.768029 1.80751
-0.41555 -0.768302 1.748
-0.20762 -0.768451 1.84006
-0.303407 -0.768774 1.77955
-0.359804 -0.769217 1.73826
-0.364793 -0.769601 1.72289
0.0611932 -0.770317 1.92166
-0.553762 -0.770541 1.60193
-0.178941 -0.771663 1.77342
-0.214003 -0.77287 1.7396
-0.310427 -0.77386 1.67595
-0.136084 -0.781283 2.46117
-0.390852 -0.777824 2.33306
-0.515807 -0.775859 2.2652
-0.182212 -0.774072 2.4261
-0.292581 -0.772674 2.36382
-0.243329 -0.771651 2.38017
-0.595523 -0.770452 2.19641
-0.485064 -0.769465 2.24332
-0.331227 -0.768496 2.31189
-0.44979 -0.767381 2.24476
-0.321412 -0.766768 2.29948
-0.23372 -0.76601 2.33436
-0.344577 -0.765125 2.2704
-0.312999 -0.764413 2.27712
-0.496599 -0.763847 2.17577
-0.4494 -0.763173 2.1902
-0.314087 -0.76263 2.24827
-0.251319 -0.761998 2.27038
-0.46842 -0.76148 2.15219
-0.592019 -0.760892 2.081
-0.25289 -0.76054 2.24038
-0.483308 -0.760057 2.11545
-0.194135 -0.759532 2.25048
-0.65004 -0.759078 2.01274
-0.561631 -0.758602 2.04724
-0.653516 -0.758309 1.99096
-0.280453 -0.757894 2.1676
-0.462214 -0.757487 2.06682
-0.550389 -0.757227 2.01231
-0.507489 -0.756845 2.02378
-0.483269 -0.756521 2.02572
-0.412413 -0.756269 2.05072
-0.513892 -0.755929 1.98989
-0.30848 -0.75571 2.08206
-0.397991 -0.755464 2.02688
-0.528569 -0.755167 1.95137
-0.305566 -0.755001 2.05216
-0.512306 -0.754727 1.9385
-0.487007 -0.754563 1.94044
-0.359854 -0.754437 1.99318
-0.382104 -0.754207 1.97162
-0.254691 -0.754102 2.02442
-0.374351 -0.754007 1.95365
-0.591785 -0.753811 1.83437
-0.466101 -0.753737 1.8862
-0.473348 -0.753619 1.87173
-0.377683 -0.753575 1.90844
-0.43403 -0.753516 1.8692
-0.352099 -0.753502 1.89893
-0.422678 -0.753497 1.85236
-0.296936 -0.7534 1.90432
-0.392764 -0.753416 1.84505
-0.400726 -0.753476 1.82954
-0.469218 -0.753521 1.78382
-0.383046 -0.753638 1.81515
-0.46194 -0.75371 1.76412
-0.243507 -0.753882 1.86135
-0.223009 -0.753982 1.8599
-0.329949 -0.754208 1.79422
-0.309212 -0.754334 1.79277
-0.516363 -0.754611 1.67677
-0.415539 -0.754762 1.71525
-0.461789 -0.755348 1.67842
-0.229807 -0.75553 1.78234
-0.357915 -0.755916 1.70537
-0.365868 -0.756631 1.68711
-0.321436 -0.757164 1.69577
-0.383256 -0.757639 1.65153
-0.130722 -0.758805 1.76157
-0.512136 -0.76012 1.55397
-0.400083 -0.767472 2.31779
-0.189408 -0.764079 2.42245
-0.173269 -0.762149 2.42516
-0.317514 -0.76039 2.34718
-0.33607 -0.759013 2.33084
-0.529899 -0.757809 2.22633
-0.423535 -0.756482 2.27237
-0.360683 -0.755516 2.29548
-0.281744 -0.754715 2.32611
-0.438737 -0.753785 2.23924
-0.191485 -0.753181 2.35341
-0.377542 -0.752133 2.25246
-0.412811 -0.751553 2.22533
-0.497006 -0.750845 2.1742
-0.520025 -0.750287 2.15316
-0.482141 -0.749616 2.16298
-0.68734 -0.74897 2.05119
-0.257228 -0.748449 2.25664
-0.558306 -0.747845 2.0968
-0.414311 -0.747349 2.15914
-0.39721 -0.746789 2.15827
-0.220029 -0.746453 2.23666
-0.424423 -0.745993 2.12472
-0.409119 -0.745496 2.12277
-0.410159 -0.745063 2.11243
-0.430881 -0.744616 2.09232
-0.480669 -0.74434 2.05707
-0.220316 -0.743946 2.17733
-0.592176 -0.74369 1.98099
-0.393584 -0.743317 2.07031
-0.465823 -0.742957 2.02418
-0.479465 -0.74273 2.00687
-0.314087 -0.742391 2.07948
-0.509865 -0.742105 1.97134
-0.261364 -0.741916 2.08498
-0.404167 -0.741619 2.00338
-0.186528 -0.741406 2.10169
-0.540153 -0.741256 1.91414
-0.342175 -0.741002 2.00278
-0.528193 -0.740864 1.899
-0.250939 -0.740641 2.02718
-0.443788 -0.740532 1.91988
-0.508645 -0.740433 1.87654
-0.232378 -0.740263 2.00403
-0.344212 -0.740088 1.93751
-0.225765 -0.740029 1.98567
-0.503489 -0.739979 1.83572
-0.369973 -0.73991 1.89146
-0.469346 -0.73989 1.83057
-0.415318 -0.73978 1.84673
-0.297519 -0.73978 1.89434
-0.199844 -0.73979 1.93186
-0.574566 -0.739837 1.73302
-0.508319 -0.739875 1.7547
-0.406719 -0.739979 1.79379
-0.216067 -0.740045 1.87756
-0.543292 -0.740204 1.70201
-0.381039 -0.740114 1.77221
-0.146522 -0.740311 1.87737
-0.162415 -0.740422 1.85767
-0.109373 -0.74067 1.87187
-0.400115 -0.740951 1.71402
-0.272568 -0.741346 1.76484
-0.330853 -0.741692 1.72294
-0.113502 -0.741877 1.81952
-0.140593 -0.742264 1.79302
-0.157455 -0.742967 1.77029
-0.412931 -0.743489 1.62899
-0.121467 -0.743953 1.7614
-0.241609 -0.745097 1.68507
-0.0356725 -0.746387 1.77112
-0.214507 -0.750343 2.39854
-0.197435 -0.748599 2.40125
-0.0815559 -0.746867 2.45337
-0.330744 -0.745511 2.32175
-0.224547 -0.744176 2.36779
-0.336997 -0.742866 2.30446
-0.260062 -0.741914 2.33464
-0.408202 -0.741122 2.25177
-0.390062 -0.740203 2.25249
-0.350201 -0.739446 2.26355
-0.187641 -0.738568 2.3364
-0.137527 -0.737997 2.35198
-0.317555 -0.737293 2.25297
-0.171712 -0.736612 2.31684
-0.617665 -0.735818 2.08524
-0.641519 -0.735431 2.06326
-0.272315 -0.734917 2.23827
-0.581191 -0.734313 2.07458
-0.424613 -0.733824 2.14323
-0.440122 -0.733263 2.12611
-0.260305 -0.732799 2.20631
-0.295109 -0.732283 2.17941
-0.456935 -0.731973 2.08826
-0.54192 -0.731545 2.03597
-0.491218 -0.731093 2.05163
-0.49253 -0.730817 2.04064
-0.293216 -0.730427 2.1304
-0.530508 -0.730042 2.00185
-0.566841 -0.7298 1.97326
-0.0941724 -0.729442 2.19961
-0.666466 -0.729111 1.90338
-0.389584 -0.7289 2.0313
-0.31819 -0.728582 2.05689
-0.511899 -0.728322 1.94972
-0.641775 -0.728095 1.87434
-0.412372 -0.727872 1.97859
-0.215966 -0.727685 2.06622
-0.392817 -0.727465 1.96735
-0.397992 -0.727315 1.95405
-0.110689 -0.7271 2.08725
-0.505028 -0.726987 1.87923
-0.170151 -0.726883 2.03579
-0.150494 -0.726705 2.03503
-0.407067 -0.726528 1.89616
-0.596362 -0.726464 1.79049
-0.249977 -0.72641 1.95262
-0.286886 -0.72633 1.9232
-0.34269 -0.726304 1.88412
-0.317157 -0.726192 1.88606
-0.0861743 -0.726186 1.9903
-0.175233 -0.72619 1.93447
-0.378269 -0.726225 1.82153
-0.339195 -0.726257 1.82965
-0.452933 -0.726208 1.7617
-0.106316 -0.726259 1.92352
-0.324766 -0.726389 1.80247
-0.164001 -0.726467 1.87125
-0.269493 -0.726649 1.80645
-0.122754 -0.726753 1.86809
-0.506693 -0.726987 1.66384
-0.174186 -0.727258 1.81765
-0.331799 -0.727329 1.72724
-0.48411 -0.727484 1.63913
-0.176486 -0.728064 1.77914
-0.186515 -0.728244 1.76204
-0.248941 -0.728622 1.71788
-0.155586 -0.729023 1.7515
-0.43862 -0.729743 1.59551
-0.241862 -0.730275 1.68022
-0.354966 -0.731069 1.60884
-0.177455 -0.732581 1.67957
-0.0598009 -0.734259 1.71959
-0.021967 -0.736618 2.48344
-0.393812 -0.734905 2.29172
-0.149232 -0.733203 2.40822
-0.0704405 -0.731869 2.44062
-0.35734 -0.730554 2.29015
-0.196817 -0.729263 2.36335
-0.0797761 -0.728325 2.41361
-0.770688 -0.727542 2.05938
-0.485645 -0.726635 2.19359
-0.348492 -0.725886 2.25333
-0.385726 -0.725018 2.22632
-0.154906 -0.724307 2.3328
-0.398905 -0.723483 2.2023
-0.476753 -0.72308 2.15338
-0.303408 -0.722293 2.23147
-0.350777 -0.721909 2.19775
-0.331959 -0.721162 2.19847
-0.399695 -0.720573 2.15535
-0.546365 -0.720224 2.07191
-0.237487 -0.719755 2.21668
-0.25266 -0.719222 2.19969
-0.190734 -0.718779 2.22093
-0.450227 -0.71847 2.08097
-0.530459 -0.718046 2.03109
-0.318564 -0.717591 2.1274
-0.42748 -0.717194 2.06309
-0.483284 -0.716928 2.02486
-0.704536 -0.716537 1.90438
-0.256933 -0.716179 2.11823
-0.350573 -0.715947 2.06097
-0.308879 -0.71561 2.0718
-0.31395 -0.715305 2.05913
-0.338919 -0.715081 2.0362
-0.369956 -0.714813 2.01042
-0.158367 -0.714578 2.10583
-0.645162 -0.714361 1.85199
-0.534752 -0.714164 1.89668
-0.476982 -0.713951 1.91511
-0.59933 -0.71371 1.84361
-0.415453 -0.713583 1.92476
-0.401465 -0.71346 1.92097
-0.463747 -0.71326 1.87935
-0.386889 -0.713171 1.90685
-0.0991342 -0.712993 2.04017
-0.372163 -0.712924 1.89266
-0.472805 -0.712865 1.8313
-0.525515 -0.712775 1.79404
-0.33909 -0.712744 1.87611
-0.624871 -0.71263 1.72242
-0.401192 -0.712618 1.82303
-0.646397 -0.712616 1.68916
-0.254455 -0.71264 1.87376
-0.133858 -0.712552 1.92316
-0.23603 -0.712614 1.86053
-0.241324 -0.712658 1.84642
-0.352991 -0.712775 1.77882
-0.250478 -0.712763 1.81884
-0.304904 -0.712844 1.78001
-0.222605 -0.713037 1.80905
-0.377394 -0.713147 1.7199
-0.272912 -0.713388 1.75981
-0.336296 -0.713443 1.71659
-0.0596734 -0.713724 1.84238
-0.193649 -0.713875 1.76344
-0.386589 -0.714195 1.65426
-0.105101 -0.714618 1.78183
-0.32737 -0.714987 1.65775
-0.364394 -0.715378 1.62618
-0.256314 -0.716083 1.66574
-0.321586 -0.716302 1.6208
-0.28257 -0.717382 1.6241
-0.159291 -0.718528 1.66921
-0.157123 -0.720159 1.65152
-0.163846 -0.724088 2.39698
-0.404932 -0.721221 2.27479
-0.382585 -0.719549 2.28022
-0.230461 -0.717897 2.35051
-0.648676 -0.716609 2.1344
-0.127141 -0.715672 2.38695
-0.358377 -0.714884 2.26262
-0.535017 -0.71366 2.16717
-0.143691 -0.713081 2.35343
-0.576903 -0.712041 2.1291
-0.460816 -0.711482 2.1777
-0.369123 -0.710777 2.21466
-0.473723 -0.709962 2.1539
-0.294315 -0.709299 2.2346
-0.501193 -0.708784 2.12164
-0.572938 -0.708157 2.07668
-0.697522 -0.707663 2.00482
-0.60548 -0.707074 2.04164
-0.630388 -0.706728 2.0191
-0.344711 -0.706265 2.1523
-0.591245 -0.705731 2.01968
-0.490752 -0.705294 2.06022
-0.429963 -0.704804 2.08112
-0.445548 -0.70451 2.0631
-0.430201 -0.704108 2.06098
-0.46307 -0.703679 2.03486
-0.348035 -0.703304 2.08249
-0.385207 -0.703053 2.05356
-0.313783 -0.702698 2.07933
-0.406733 -0.702352 2.0229
-0.803655 -0.70213 1.81399
-0.229706 -0.701819 2.09089
-0.478474 -0.701602 1.95606
-0.380063 -0.701325 1.99507
-0.296283 -0.701083 2.02663
-0.543996 -0.700872 1.89232
-0.375498 -0.700666 1.96611
-0.348232 -0.70046 1.96929
-0.487125 -0.700289 1.88925
-0.291627 -0.700089 1.97654
-0.358281 -0.699955 1.93248
-0.434611 -0.699754 1.88386
-0.349725 -0.699661 1.91541
-0.537574 -0.699483 1.81095
-0.40643 -0.699409 1.86556
-0.55653 -0.699345 1.7795
-0.428482 -0.699245 1.83268
-0.441684 -0.699154 1.81519
-0.435053 -0.699093 1.8075
-0.302771 -0.699076 1.86244
-0.352163 -0.699068 1.82651
-0.201556 -0.698984 1.89091
-0.347713 -0.698995 1.80651
-0.230864 -0.699045 1.85346
-0.303515 -0.699002 1.80605
-0.39023 -0.69905 1.75122
-0.154446 -0.699178 1.85728
-0.304099 -0.699256 1.77084
0.0323602 -0.699267 1.92775
-0.204467 -0.69946 1.79721
-0.280776 -0.699567 1.7473
-0.393506 -0.699725 1.67895
-0.408431 -0.699853 1.65964
-0.398792 -0.700127 1.65194
-0.140578 -0.700274 1.7691
-0.203598 -0.700586 1.72489
-0.102606 -0.700923 1.76256
-0.442061 -0.7011 1.58073
-0.0966373 -0.701742 1.7392
-0.461352 -0.702145 1.54368
-0.14125 -0.702646 1.69011
-0.0771711 -0.703392 1.70737
-0.306704 -0.704499 1.57612
-0.261099 -0.706424 1.5786
-0.251532 -0.710697 2.3405
-0.317343 -0.707547 2.3072
-0.303978 -0.705905 2.30816
-0.235919 -0.70428 2.33647
-0.0474574 -0.703013 2.42373
-0.419831 -0.702225 2.22887
-0.416807 -0.701315 2.22218
-0.29382 -0.700108 2.27659
-0.448365 -0.69954 2.18992
-0.398466 -0.698509 2.2072
-0.358421 -0.69796 2.21779
-0.595479 -0.696982 2.09146
-0.575505 -0.696455 2.09198
-0.469986 -0.695797 2.13578
-0.594213 -0.69529 2.06416
-0.497939 -0.694666 2.10326
-0.398394 -0.694179 2.14348
-0.449711 -0.693592 2.10867
-0.518 -0.693128 2.06492
-0.51101 -0.692581 2.05915
-0.462236 -0.692258 2.07342
-0.211161 -0.691826 2.18927
-0.416538 -0.691334 2.07715
-0.580634 -0.691042 1.9849
-0.544483 -0.690643 1.99319
-0.602589 -0.690212 1.95451
-0.432042 -0.68984 2.02993
-0.50074 -0.689589 1.98525
-0.393386 -0.689237 2.02902
-0.181964 -0.688885 2.12483
-0.174755 -0.688667 2.118
-0.410252 -0.688353 1.99022
-0.217519 -0.688067 2.07644
-0.496228 -0.687859 1.92664
-0.434288 -0.687608 1.94734
-0.35788 -0.687405 1.97509
-0.166334 -0.687144 2.06066
-0.445117 -0.686991 1.91061
-0.404662 -0.686811 1.92031
-0.572935 -0.686664 1.8255
-0.280386 -0.686473 1.96131
-0.407878 -0.686272 1.88713
-0.520229 -0.686175 1.82009
-0.0786852 -0.685996 2.03036
-0.431373 -0.685918 1.84308
-0.324895 -0.685849 1.88534
-0.115829 -0.68574 1.97908
-0.411538 -0.685652 1.82034
-0.435875 -0.68558 1.79722
-0.345808 -0.685558 1.83109
-0.575732 -0.685462 1.70529
-0.467516 -0.685458 1.74815
-0.333991 -0.685464 1.80362
-0.16477 -0.685423 1.87716
-0.268133 -0.685462 1.81404
-0.459684 -0.685508 1.70679
-0.468851 -0.685489 1.69104
-0.390532 -0.685618 1.71835
-0.578346 -0.68562 1.61317
-0.362921 -0.685703 1.70924
-0.465475 -0.68589 1.64585
-0.32998 -0.685994 1.70185
-0.250129 -0.686029 1.73035
-0.324333 -0.686271 1.68086
-0.334895 -0.686401 1.6637
-0.381287 -0.686681 1.62793
-0.171961 -0.686986 1.7199
-0.497175 -0.687314 1.54448
-0.0882284 -0.687486 1.73685
-0.271411 -0.687848 1.63226
-0.149757 -0.688507 1.67868
-0.0171753 -0.688919 1.73171
-0.316013 -0.689427 1.56856
-0.211831 -0.690495 1.60424
0.150774 -0.691951 1.76724
-0.0748259 -0.695026 2.41285
-0.27284 -0.692271 2.31235
-0.185556 -0.690674 2.35031
-0.394362 -0.689755 2.23775
-0.24333 -0.688652 2.30584
-0.519584 -0.687443 2.16071
-0.414778 -0.686568 2.2049
-0.456483 -0.685834 2.17532
-0.432222 -0.68499 2.17917
-0.42673 -0.684288 2.17313
-0.365499 -0.683481 2.19538
-0.469647 -0.682963 2.13385
-0.101776 -0.68231 2.30887
-0.539872 -0.681811 2.08033
-0.435779 -0.68119 2.12338
-0.181809 -0.680592 2.2413
-0.366174 -0.680126 2.13955
-0.488927 -0.679566 2.06899
-0.24507 -0.679122 2.1813
-0.479709 -0.678601 2.05468
-0.243699 -0.678294 2.16255
-0.249943 -0.677883 2.14972
-0.563962 -0.67748 1.98298
-0.688115 -0.677197 1.9107
-0.442076 -0.676763 2.02414
-0.486059 -0.676395 1.99232
-0.496882 -0.676143 1.97661
-0.520774 -0.67577 1.95488
-0.384119 -0.675438 2.01326
-0.413126 -0.675219 1.98835
-0.655509 -0.674907 1.85715
-0.373585 -0.674615 1.98803
-0.388845 -0.674414 1.96994
-0.310808 -0.674156 1.99875
-0.612765 -0.67396 1.83731
-0.305548 -0.673699 1.98074
-0.0380985 -0.673544 2.10384
-0.399999 -0.673355 1.91242
-0.567755 -0.673198 1.81794
-0.39162 -0.673013 1.89553
-0.558072 -0.672812 1.8019
-0.319112 -0.672712 1.91055
-0.441552 -0.672531 1.83884
-0.530323 -0.67245 1.78355
-0.650077 -0.672377 1.71273
-0.284655 -0.672258 1.88471
-0.155854 -0.672174 1.93822
-0.263006 -0.672092 1.87375
-0.614611 -0.671984 1.68717
-0.358409 -0.671966 1.80409
-0.468086 -0.671958 1.73804
-0.489476 -0.671958 1.71609
-0.194595 -0.671901 1.85253
-0.329101 -0.671881 1.77411
-0.579037 -0.671918 1.63772
-0.518411 -0.671963 1.65657
-0.386354 -0.671941 1.71144
-0.0728949 -0.672067 1.85633
-0.678009 -0.672067 1.54252
-0.318363 -0.672147 1.71071
-0.351714 -0.672329 1.68193
-0.412247 -0.672355 1.64028
-0.423956 -0.672462 1.62265
-0.367945 -0.672697 1.63828
-0.314135 -0.672824 1.65332
-0.372296 -0.673097 1.61167
-0.074837 -0.673165 1.7488
-0.253733 -0.673473 1.6466
-0.163954 -0.673881 1.67824
-0.140052 -0.674234 1.67721
-0.335536 -0.674606 1.56636
-0.288479 -0.67528 1.57532
-0.314698 -0.675487 1.54989
0.0989746 -0.676516 1.74038
-0.0448186 -0.677604 1.65181
-0.321177 -0.679821 1.49136
-0.0879346 -0.681345 2.39485
-0.266532 -0.679434 2.30113
-0.25402 -0.677733 2.30223
-0.260173 -0.676302 2.29302
-0.498462 -0.67509 2.16696
-0.637306 -0.673899 2.09058
-0.533451 -0.673345 2.13314
-0.27933 -0.672314 2.25269
-0.367859 -0.671483 2.20018
-0.777377 -0.670789 1.98666
-0.373242 -0.669993 2.18039
-0.419177 -0.669602 2.14752
-0.702785 -0.668836 1.99731
-0.385905 -0.668208 2.14682
-0.168083 -0.667729 2.24623
-0.352353 -0.667135 2.14508
-0.159385 -0.666676 2.23201
-0.41616 -0.666117 2.0945
-0.572953 -0.66568 2.00649
-0.333786 -0.665159 2.11683
-0.493948 -0.664854 2.02664
-0.509087 -0.664448 2.00938
-0.443035 -0.663981 2.03298
-0.345781 -0.663705 2.07141
-0.536081 -0.663332 1.96648
-0.216249 -0.662968 2.11658
-0.375025 -0.662575 2.02752
-0.323276 -0.662339 2.04307
-0.277533 -0.66201 2.05601
-0.286082 -0.661791 2.04136
-0.524345 -0.661481 1.91224
-0.385418 -0.661182 1.97169
-0.318176 -0.660989 1.99484
-0.107655 -0.660723 2.08996
-0.502193 -0.660535 1.88222
-0.359171 -0.660302 1.94346
-0.49475 -0.660102 1.86526
-0.38068 -0.65992 1.91182
-0.616237 -0.659754 1.7835
-0.25874 -0.659576 1.95176
-0.573203 -0.659444 1.78384
-0.400674 -0.65927 1.85961
-0.261332 -0.65909 1.91883
-0.253466 -0.659004 1.91189
-0.344419 -0.658927 1.8555
-0.324468 -0.6588 1.85479
-0.473081 -0.658718 1.7696
-0.389371 -0.658628 1.80061
-0.402378 -0.658595 1.783
-0.39715 -0.658501 1.7748
-0.42528 -0.658422 1.74985
-0.415422 -0.658421 1.74353
-0.115359 -0.658427 1.88228
-0.465441 -0.658369 1.69626
-0.437249 -0.658346 1.69921
-0.296308 -0.658382 1.75827
-0.250042 -0.658425 1.76995
-0.323063 -0.658402 1.7223
-0.195547 -0.65846 1.77453
-0.293061 -0.65845 1.71457
-0.28367 -0.658599 1.7073
-0.401292 -0.658776 1.63639
-0.482413 -0.658701 1.58493
-0.168549 -0.658904 1.72963
-0.373144 -0.659132 1.61497
-0.410791 -0.65918 1.58465
-0.169142 -0.659309 1.69358
-0.450619 -0.659586 1.54021
-0.282864 -0.659886 1.61135
-0.0884251 -0.660044 1.69651
0.0719346 -0.660377 1.76376
-0.328668 -0.66073 1.55042
-0.0601747 -0.661374 1.67017
-0.123592 -0.661853 1.62476
-0.174458 -0.662269 1.58593
-0.215046 -0.663305 1.5491
-0.193135 -0.66544 1.53792
-0.242454 -0.669084 2.30069
-0.070055 -0.665801 2.38793
-0.48823 -0.664257 2.17324
-0.360258 -0.662728 2.23161
-0.245914 -0.661537 2.2819
-0.269467 -0.660675 2.26199
-0.235708 -0.659639 2.27145
-0.453476 -0.658806 2.15437
-0.370682 -0.658105 2.18708
-0.0631606 -0.657302 2.33259
-0.39891 -0.656792 2.15531
-0.332826 -0.655865 2.18065
-0.240924 -0.655376 2.21715
-0.513997 -0.654753 2.07173
-0.533776 -0.654282 2.05235
-0.431038 -0.653691 2.09475
-0.337306 -0.65324 2.13208
-0.249613 -0.652684 2.16685
-0.41383 -0.65236 2.07471
-0.246995 -0.651733 2.14937
-0.427222 -0.65143 2.04917
-0.439207 -0.651029 2.03351
-0.577141 -0.650562 1.95517
-0.516845 -0.650287 1.97515
-0.279989 -0.649918 2.08381
-0.306563 -0.649507 2.06096
-0.288966 -0.649262 2.05949
-0.346933 -0.648927 2.02064
-0.438584 -0.648601 1.96491
-0.498535 -0.648381 1.92458
-0.169569 -0.64806 2.07917
-0.454661 -0.64777 1.9266
-0.176049 -0.647582 2.05544
-0.468623 -0.647311 1.89906
-0.50644 -0.647129 1.86968
-0.524556 -0.64689 1.8504
-0.456288 -0.646681 1.87419
-0.41656 -0.646506 1.88357
-0.370058 -0.646331 1.89634
-0.552281 -0.646159 1.79474
-0.372258 -0.646018 1.87413
-0.288294 -0.645851 1.90561
-0.191307 -0.645743 1.94334
-0.198378 -0.645581 1.92929
-0.304954 -0.6455 1.86512
-0.478023 -0.645349 1.76803
-0.372708 -0.645286 1.80973
-0.19081 -0.645193 1.88986
-0.401693 -0.645092 1.77365
-0.350068 -0.645068 1.78832
-0.555286 -0.644981 1.67488
-0.364744 -0.644901 1.75929
-0.462273 -0.644899 1.69929
-0.485861 -0.644833 1.67656
-0.392151 -0.644846 1.71211
-0.276986 -0.644893 1.75823
-0.339963 -0.644821 1.71584
-0.267692 -0.644824 1.74072
-0.209747 -0.644872 1.75822
-0.168885 -0.644927 1.76713
-0.313093 -0.644916 1.68384
-0.242079 -0.645061 1.70739
-0.541531 -0.645069 1.54638
-0.401923 -0.645157 1.6045
-0.450299 -0.645354 1.56808
-0.537331 -0.645387 1.51315
-0.00946697 -0.645621 1.76466
-0.356154 -0.645747 1.57943
-0.255318 -0.646016 1.61723
-0.424329 -0.646232 1.52037
-0.237746 -0.646386 1.60162
-0.37596 -0.646787 1.5192
-0.531196 -0.647131 1.42855
-0.355321 -0.647494 1.50334
-0.437441 -0.647953 1.44863
-0.316371 -0.64835 1.49582
-0.42497 -0.649349 1.42504
-0.038871 -0.650712 1.59969
-0.117052 -0.652496 2.3517
-0.216543 -0.650664 2.29765
-0.495481 -0.649163 2.1526
-0.521839 -0.647994 2.13257
-0.204765 -0.647264 2.28253
-0.373839 -0.646128 2.19108
-0.204616 -0.645309 2.26753
-0.498238 -0.644617 2.11207
-0.396068 -0.643827 2.15493
-0.31161 -0.643165 2.18843
-0.195785 -0.642409 2.23803
-0.410661 -0.641929 2.12116
-0.257195 -0.641311 2.18905
-0.575309 -0.640714 2.02109
-0.316766 -0.640262 2.14086
-0.48175 -0.639696 2.04937
-0.271794 -0.639265 2.1448
-0.511163 -0.638734 2.016
-0.246998 -0.638425 2.13804
-0.605138 -0.638022 1.94935
-0.542015 -0.637627 1.97126
-0.355837 -0.637159 2.05503
-0.537132 -0.636886 1.95424
-0.215649 -0.636522 2.10524
-0.249209 -0.636108 2.07894
-0.654472 -0.635864 1.86607
-0.584801 -0.635532 1.89106
-0.500971 -0.63521 1.9231
-0.289755 -0.63499 2.01838
-0.413955 -0.634664 1.94644
-0.278918 -0.634467 2.00355
-0.657528 -0.634188 1.80422
-0.559043 -0.633919 1.84339
-0.428207 -0.633743 1.89833
-0.416469 -0.633497 1.89404
-0.543607 -0.633342 1.81991
-0.587342 -0.633112 1.78783
-0.351462 -0.632928 1.89535
-0.319633 -0.632764 1.90077
-0.385741 -0.632613 1.85715
-0.542946 -0.632452 1.76804
-0.285535 -0.632335 1.88604
-0.395254 -0.632179 1.82067
-0.475076 -0.632094 1.7699
-0.290154 -0.631949 1.8518
-0.22368 -0.631888 1.87408
-0.437281 -0.631766 1.75662
-0.45358 -0.631681 1.73764
-0.344426 -0.631611 1.78131
-0.493143 -0.631556 1.69598
-0.407041 -0.631469 1.72821
-0.16017 -0.631388 1.8408
-0.236335 -0.631386 1.79149
-0.628197 -0.631319 1.58465
-0.63397 -0.631331 1.57047
-0.249115 -0.631278 1.75192
-0.224914 -0.631304 1.75266
-0.397317 -0.631304 1.65522
-0.0708856 -0.63135 1.80696
-0.323845 -0.631331 1.66935
-0.351591 -0.631391 1.64393
-0.420511 -0.631457 1.5979
-0.482026 -0.631537 1.5555
-0.207478 -0.631623 1.6811
-0.133241 -0.631641 1.70688
-0.238693 -0.631844 1.64187
-0.467777 -0.631955 1.51551
-0.250743 -0.631996 1.61257
-0.138343 -0.632247 1.65622
-0.175839 -0.63252 1.6248
-0.405065 -0.632814 1.4974
-0.292356 -0.632969 1.54168
-0.267467 -0.633295 1.54115
-0.0473277 -0.633639 1.63813
-0.3283 -0.634078 1.48405
-0.0966377 -0.634457 1.58658
-0.100968 -0.635133 1.56953
-0.137979 -0.636137 1.53436
-0.276453 -0.637887 1.44442
-0.383607 -0.639923 2.20265
-0.388315 -0.637391 2.19902
-0.271056 -0.635917 2.25212
-0.433846 -0.634879 2.16345
-0.0997271 -0.633742 2.32368
-0.433811 -0.632626 2.14977
-0.557449 -0.632113 2.07859
-0.246431 -0.63114 2.2267
-0.320479 -0.630363 2.18148
-0.456265 -0.629709 2.1049
-0.574064 -0.628964 2.03772
-0.258953 -0.628599 2.1854
-0.427584 -0.627882 2.09273
-0.220817 -0.627289 2.18726
-0.346577 -0.626846 2.11489
-0.313095 -0.626284 2.12268
-0.337907 -0.62586 2.10074
-0.224378 -0.625331 2.14845
-0.246296 -0.625026 2.12747
-0.461489 -0.624628 2.01026
-0.256559 -0.624148 2.10351
-0.227885 -0.623772 2.10817
-0.305502 -0.6235 2.05924
-0.470442 -0.623141 1.96705
-0.502424 -0.622726 1.9416
-0.613036 -0.622482 1.87608
-0.586443 -0.622154 1.87955
-0.269152 -0.621795 2.02853
-0.530992 -0.621616 1.88713
-0.288612 -0.621286 1.99853
-0.277524 -0.621088 1.9937
-0.44633 -0.620811 1.89929
-0.393578 -0.620629 1.91523
-0.310304 -0.620371 1.94679
-0.497318 -0.620132 1.84313
-0.36681 -0.619967 1.89789
-0.374928 -0.619737 1.88364
-0.0763499 -0.619598 2.02233
-0.333022 -0.619388 1.88373
-0.532891 -0.619265 1.77312
-0.40447 -0.619074 1.82699
-0.557658 -0.618947 1.73976
-0.232797 -0.618804 1.89163
-0.371802 -0.618655 1.8116
-0.277389 -0.61858 1.84793
-0.130096 -0.618444 1.911
-0.676705 -0.618384 1.62675
-0.492453 -0.618262 1.70823
-0.288857 -0.618178 1.79921
-0.299716 -0.618108 1.78289
-0.362006 -0.618052 1.74079
-0.365516 -0.617965 1.72823
-0.329102 -0.617884 1.73561
-0.262952 -0.617881 1.75747
-0.246569 -0.617814 1.75477
-0.409768 -0.617825 1.66189
-0.199348 -0.617771 1.75614
-0.0764599 -0.617796 1.80623
-0.433853 -0.617755 1.61651
-0.706356 -0.617766 1.46898
-0.119615 -0.617817 1.75085
-0.485265 -0.617875 1.5565
-0.564594 -0.617867 1.50565
-0.26324 -0.618015 1.64432
-0.189497 -0.618024 1.66991
-0.343614 -0.618114 1.58114
-0.31373 -0.618237 1.5842
-0.196377 -0.618344 1.63107
-0.355709 -0.618457 1.53957
-0.218947 -0.618701 1.59541
-0.591872 -0.618755 1.39741
-0.091724 -0.619031 1.63476
-0.398381 -0.619177 1.46939
-0.164321 -0.619483 1.57351
-0.622649 -0.619809 1.33133
-0.397444 -0.620408 1.42941
-0.211341 -0.62059 1.51019
-0.395224 -0.621239 1.40342
-0.212468 -0.62192 1.47976
-0.343647 -0.623521 1.39405
-0.27641 -0.624531 2.24045
-0.0824582 -0.623084 2.33192
-0.0368432 -0.621647 2.34924
-0.554363 -0.62023 2.08496
-0.156995 -0.619426 2.27556
-0.568659 -0.618451 2.06241
-0.423801 -0.617673 2.1267
-0.418775 -0.617014 2.1206
-0.244039 -0.616264 2.19977
-0.451489 -0.615793 2.08665
-0.312798 -0.614917 2.1484
-0.386714 -0.614566 2.10157
-0.356479 -0.613878 2.10831
-0.271574 -0.613443 2.1413
-0.307297 -0.612885 2.11453
-0.160253 -0.612565 2.1781
-0.241141 -0.611943 2.12908
-0.494099 -0.61164 1.9926
-0.436501 -0.611249 2.01181
-0.703702 -0.61077 1.86904
-0.382953 -0.610492 2.01933
-0.436347 -0.61013 1.98296
-0.23542 -0.6097 2.07407
-0.310695 -0.60936 2.02669
-0.371795 -0.609117 1.98595
-0.202691 -0.608793 2.06069
-0.35445 -0.608431 1.9752
-0.389584 -0.608217 1.94734
-0.41811 -0.607925 1.92316
-0.340146 -0.607727 1.95179
-0.364636 -0.607453 1.92956
-0.204229 -0.60727 1.99936
-0.259649 -0.607014 1.96159
-0.387598 -0.606768 1.88753
-0.407163 -0.60661 1.86724
-0.331481 -0.606395 1.89486
-0.291135 -0.606241 1.90452
-0.464724 -0.606057 1.80737
-0.413859 -0.605906 1.82228
-0.533977 -0.605723 1.75187
-0.252089 -0.605593 1.88221
-0.36674 -0.60546 1.8143
-0.406743 -0.605305 1.78382
-0.536911 -0.605218 1.70793
-0.393449 -0.605083 1.7691
-0.223679 -0.604948 1.84342
-0.246142 -0.604888 1.82126
-0.336094 -0.604767 1.76566
-0.24125 -0.604721 1.80208
-0.38729 -0.604614 1.71838
-0.348221 -0.604558 1.72698
-0.308277 -0.604471 1.73617
-0.302844 -0.60446 1.72771
-0.441812 -0.604386 1.64739
-0.441464 -0.604319 1.63668
-0.328821 -0.604329 1.68173
-0.346653 -0.604274 1.66188
-0.42353 -0.604298 1.61209
-0.307192 -0.604256 1.65926
-0.570998 -0.604336 1.51571
-0.147544 -0.604264 1.7166
-0.419838 -0.604297 1.56905
-0.564975 -0.604359 1.48493
-0.32799 -0.604355 1.59222
-0.256126 -0.604429 1.61652
-0.259436 -0.604523 1.60314
-0.29186 -0.604616 1.57519
-0.323882 -0.604714 1.54742
-0.103602 -0.604744 1.64616
-0.309238 -0.60497 1.53088
-0.311472 -0.605217 1.51717
-0.199423 -0.605349 1.56123
-0.198298 -0.60541 1.55021
-0.181885 -0.605698 1.54557
-0.308794 -0.606005 1.46916
-0.300697 -0.606576 1.45876
-0.28443 -0.606749 1.45465
-0.206395 -0.607108 1.48038
-0.145479 -0.608024 1.49439
-0.0873694 -0.608993 1.50667
-0.112015 -0.610083 1.47684
-0.3692 -0.611238 2.18123
-0.325201 -0.609522 2.19905
-0.357801 -0.608115 2.1773
-0.483131 -0.607019 2.10787
-0.250868 -0.606041 2.21677
-0.379771 -0.604978 2.14549
-0.517689 -0.604494 2.06719
-0.251811 -0.603566 2.19277
-0.470364 -0.60283 2.07533
-0.488455 -0.602207 2.05762
-0.448332 -0.601754 2.06829
-0.476001 -0.601156 2.04573
-0.289849 -0.600478 2.13047
-0.396271 -0.600146 2.06737
-0.564271 -0.599725 1.97391
-0.156035 -0.599183 2.16913
-0.52945 -0.598779 1.97291
-0.337121 -0.598268 2.06008
-0.315837 -0.597884 2.06115
-0.210592 -0.597406 2.10465
-0.667188 -0.597131 1.8663
-0.450339 -0.596774 1.96507
-0.627333 -0.596344 1.86727
-0.19634 -0.596095 2.07263
-0.364558 -0.595767 1.97877
-0.301875 -0.595448 2.00033
-0.361623 -0.595221 1.96024
-0.407204 -0.594869 1.92784
-0.188094 -0.594581 2.0275
-0.563676 -0.594382 1.82939
-0.544945 -0.594111 1.82879
-0.359497 -0.593928 1.91113
-0.34303 -0.593675 1.90934
-0.224923 -0.593423 1.95836
-0.412905 -0.59327 1.85386
-0.267615 -0.59305 1.91634
-0.259342 -0.592902 1.90996
-0.348583 -0.59271 1.85504
-0.370273 -0.59258 1.8336
-0.419721 -0.5924 1.79853
-0.464678 -0.592259 1.76552
-0.164593 -0.592127 1.90499
-0.523916 -0.591967 1.71491
-0.495306 -0.591868 1.71848
-0.424903 -0.591728 1.74316
-0.47463 -0.591594 1.70776
-0.389804 -0.59146 1.73963
-0.25985 -0.591401 1.79369
-0.214432 -0.591281 1.8058
-0.149599 -0.591236 1.82723
-0.288303 -0.591129 1.74721
-0.534143 -0.591073 1.61337
-0.528711 -0.591004 1.60523
-0.444211 -0.590916 1.63672
-0.440794 -0.590901 1.62729
-0.218834 -0.590831 1.72743
-0.318539 -0.590842 1.6663
-0.427816 -0.590772 1.60082
-0.344101 -0.590738 1.63165
-0.395929 -0.590767 1.59436
-0.305774 -0.59073 1.62842
-0.155565 -0.590772 1.69209
-0.553337 -0.590748 1.48212
-0.18087 -0.590789 1.6569
-0.223504 -0.590856 1.62401
-0.157085 -0.590855 1.646
-0.0457509 -0.590933 1.69002
-0.0849471 -0.591034 1.65864
-0.248579 -0.591129 1.56507
-0.304238 -0.59123 1.52545
-0.0886874 -0.591375 1.62118
-0.261867 -0.591492 1.5227
-0.0719428 -0.591743 1.60501
-0.332302 -0.591875 1.46284
-0.313034 -0.592155 1.45964
-0.0755273 -0.592227 1.56674
-0.181516 -0.592771 1.49938
-0.114895 -0.592935 1.52048
-0.231149 -0.593276 1.44913
-0.369099 -0.593892 1.36531
-0.0528148 -0.594539 1.5084
-0.196054 -0.595573 1.41945
-0.0405612 -0.599494 2.3258
-0.0875987 -0.596557 2.3037
-0.301106 -0.594884 2.19284
-0.285469 -0.593907 2.19348
-0.459873 -0.592843 2.09955
-0.102865 -0.591795 2.27128
-0.415594 -0.59114 2.1064
-0.282048 -0.590128 2.16631
-0.302023 -0.589669 2.14697
-0.447209 -0.588791 2.06697
-0.262348 -0.588348 2.15001
-0.168334 -0.587757 2.18834
-0.311792 -0.587328 2.1072
-0.606314 -0.586532 1.95226
-0.434923 -0.586215 2.02806
-0.167577 -0.585812 2.15225
-0.111728 -0.585293 2.17126
-0.50827 -0.584909 1.96345
-0.421767 -0.584421 1.99767
-0.462609 -0.584247 1.96674
-0.450632 -0.583783 1.96362
-0.167014 -0.583432 2.09579
-0.182238 -0.583003 2.07893
-0.370858 -0.582755 1.97451
-0.553141 -0.582432 1.87363
-0.529266 -0.582198 1.87541
-0.628101 -0.581891 1.8162
-0.309118 -0.581538 1.96615
-0.148821 -0.581332 2.03603
-0.256882 -0.581055 1.97209
-0.425557 -0.580863 1.87743
-0.430206 -0.580603 1.86514
-0.290024 -0.580426 1.92485
-0.372574 -0.580183 1.87354
-0.375085 -0.579941 1.86225
-0.357015 -0.579797 1.86076
-0.369318 -0.579591 1.84441
-0.443908 -0.579401 1.79683
-0.610771 -0.579272 1.70282
-0.446486 -0.579089 1.77466
-0.36384 -0.578937 1.80553
-0.355916 -0.578806 1.79894
-0.257587 -0.578642 1.83773
-0.458125 -0.578484 1.72705
-0.341187 -0.578387 1.7748
-0.376576 -0.578254 1.74658
-0.204962 -0.578115 1.8219
-0.485787 -0.57805 1.67061
-0.407622 -0.577924 1.69914
-0.659331 -0.577805 1.56271
-0.324759 -0.57776 1.71902
-0.313046 -0.577654 1.71423
-0.312103 -0.577554 1.70403
-0.26595 -0.577529 1.71603
-0.347963 -0.577442 1.66429
-0.386648 -0.577425 1.63382
-0.443732 -0.577356 1.59445
-0.172032 -0.577288 1.71947
-0.435739 -0.577296 1.57636
-0.346412 -0.57724 1.61013
-0.528245 -0.577217 1.50813
-0.430032 -0.577251 1.54584
-0.391658 -0.577219 1.554
-0.217872 -0.577265 1.62942
-0.296325 -0.577245 1.5791
-0.500533 -0.577304 1.46546
-0.197011 -0.577295 1.60606
