ply
format ascii 1.0
comment Created by Open3D
element vertex 1814
property double x
property double y
property double z
end_header
-2.21742 1.67131 0.321709
-2.22869 1.66995 0.310476
-2.26521 1.66861 0.286602
-2.21658 1.66699 0.305923
-2.21097 1.66497 0.304603
-2.22761 1.66368 0.290613
-2.2478 1.6624 0.274822
-2.18733 1.6609 0.299865
-2.22585 1.65967 0.274836
-2.34731 1.65766 0.210045
-2.26511 1.65645 0.245364
-2.2657 1.65526 0.239265
-2.28161 1.65408 0.225482
-2.21422 1.65292 0.253322
-2.22889 1.65177 0.240105
-2.22657 1.65064 0.235363
-2.25606 1.64953 0.214682
-2.34159 1.64844 0.165961
-2.34317 1.64736 0.159183
-2.2755 1.64631 0.187006
-2.27268 1.64526 0.182372
-2.18312 1.64424 0.221082
-2.20922 1.64323 0.201936
-2.31819 1.64224 0.141322
-2.24052 1.64126 0.174029
-2.21452 1.64029 0.180879
-2.22999 1.63934 0.166963
-2.23748 1.6384 0.157009
-2.16165 1.63748 0.188682
-2.25349 1.63658 0.136494
-2.24297 1.6357 0.135452
-2.28782 1.63483 0.106694
-2.30416 1.63398 0.0921622
-2.3121 1.63315 0.0817999
-2.27696 1.63234 0.0929433
-2.23457 1.63251 0.105438
-2.24418 1.63173 0.0941449
-2.23671 1.63097 0.0913551
-2.25063 1.63022 0.077846
-2.24364 1.62949 0.074757
-2.31801 1.62903 0.0303454
-2.2247 1.62835 0.0703167
-2.25863 1.62864 0.04439
-2.24941 1.62799 0.0422549
-2.32198 1.62735 -0.000801002
-2.23612 1.62768 0.0330617
-2.2511 1.62707 0.0187369
-2.23464 1.62685 0.0192168
-2.29132 1.62724 -0.0183141
-2.28635 1.62669 -0.0227846
-2.24667 1.62752 -0.0132078
-2.33089 1.62701 -0.0623658
-2.18938 1.62791 -0.0020536
-2.33175 1.62743 -0.0803703
-2.23642 1.6284 -0.0433114
-2.18243 1.62941 -0.0270309
-2.20805 1.63045 -0.0506544
-2.16489 1.63209 -0.0413244
-2.21241 1.63321 -0.0761289
-2.17442 1.63496 -0.0696949
-2.09329 1.63831 -0.0456215
-1.95746 1.76545 0.504968
-1.9823 1.75173 0.511021
-1.96932 1.74429 0.523558
-2.00585 1.73921 0.506674
-2.05013 1.73583 0.482536
-2.12077 1.73247 0.445225
-1.98787 1.72745 0.513055
-2.10807 1.72413 0.450949
-2.05887 1.72084 0.473523
-2.07214 1.71817 0.463637
-2.10547 1.7155 0.443731
-2.17709 1.71274 0.404906
-2.15819 1.71011 0.4111
-2.15767 1.70749 0.408104
-2.169 1.70538 0.398157
-2.14888 1.70279 0.404947
-2.14363 1.70074 0.403207
-2.15286 1.69819 0.395303
-2.1648 1.69613 0.385036
-2.18566 1.69415 0.37016
-2.20262 1.69222 0.357162
-2.18851 1.69017 0.359972
-2.33049 1.68829 0.284392
-2.17936 1.68624 0.355742
-2.19165 1.68441 0.344932
-2.20948 1.683 0.330481
-2.25243 1.68161 0.30345
-2.2424 1.67922 0.305061
-2.20291 1.67786 0.319218
-2.21773 1.67651 0.306203
-2.21513 1.67417 0.30406
-2.23783 1.67285 0.287069
-2.2357 1.67155 0.282473
-2.29301 1.67027 0.248135
-2.29681 1.66876 0.24105
-2.33882 1.66674 0.215992
-2.24635 1.66551 0.25648
-2.25748 1.6643 0.245144
-2.24007 1.6631 0.248058
-2.20926 1.66191 0.257645
-2.19704 1.66075 0.25791
-2.2579 1.6596 0.221609
-2.22255 1.65847 0.233391
-2.35097 1.65646 0.165222
-2.2725 1.65535 0.198546
-2.24252 1.65426 0.207596
-2.28421 1.65318 0.180783
-2.26282 1.65212 0.185483
-2.21448 1.65108 0.203634
-2.30198 1.65005 0.153832
-2.2334 1.64905 0.182041
-2.25414 1.64806 0.16556
-2.28678 1.64708 0.143101
-2.35539 1.64613 0.102626
-2.20929 1.64519 0.169476
-2.19928 1.64427 0.168252
-2.30615 1.64337 0.108554
-2.31543 1.64249 0.097626
-2.30987 1.64162 0.0940827
-2.26456 1.64077 0.110385
-2.20688 1.64092 0.130595
-2.30942 1.63994 0.0732818
-2.37699 1.63912 0.0330863
-2.28829 1.63833 0.0709911
-2.31667 1.63775 0.0498445
-2.23108 1.63701 0.0860964
-2.3639 1.63627 0.0131139
-2.28332 1.63556 0.0468005
-2.31135 1.63583 0.0238906
-2.28734 1.63514 0.0292261
-2.25399 1.63447 0.0392012
-2.32633 1.63479 -0.00596225
-2.23224 1.63415 0.0343209
-2.3173 1.63388 -0.0158316
-2.2792 1.63328 -0.00364051
-2.27886 1.63366 -0.0126238
-2.25998 1.6335 -0.011061
-2.30512 1.63392 -0.0428803
-2.25593 1.63339 -0.0252897
-2.23175 1.63429 -0.0235902
-2.28136 1.6338 -0.0554919
-2.16513 1.63476 -0.00793582
-2.23697 1.63481 -0.0522488
-2.17534 1.63533 -0.0309402
-2.22998 1.63638 -0.0690802
-2.17835 1.63748 -0.0541853
-2.25062 1.63918 -0.102725
-2.22252 1.64248 -0.105003
-2.16698 1.64588 -0.0938148
-1.9944 1.76065 0.498986
-1.96703 1.75317 0.518762
-2.09232 1.74805 0.457541
-2.06901 1.74465 0.467227
-2.0126 1.73957 0.496876
-2.11511 1.73621 0.443656
-2.11944 1.73286 0.439525
-2.07131 1.72954 0.461609
-2.06013 1.72625 0.4652
-2.09742 1.72298 0.444524
-2.12629 1.72089 0.425691
-2.15699 1.7187 0.406169
-2.08854 1.71551 0.438306
-2.27454 1.71289 0.342079
-2.21232 1.71079 0.368901
-2.22342 1.7082 0.360101
-2.2162 1.70666 0.358315
-2.15252 1.70409 0.386905
-2.16359 1.70211 0.376938
-2.10733 1.70004 0.400827
-2.20203 1.6981 0.348981
-2.22774 1.69664 0.330667
-2.22767 1.69415 0.327391
-2.17264 1.69232 0.350252
-2.1249 1.69026 0.369964
-2.14026 1.68885 0.356769
-2.19993 1.6871 0.322157
-2.32171 1.68505 0.257147
-2.21575 1.68369 0.304567
-2.09792 1.68203 0.358566
-2.26896 1.68071 0.267417
-2.26861 1.67867 0.26353
-2.37201 1.67737 0.206188
-2.29741 1.67608 0.237834
-2.22173 1.67457 0.270503
-2.22203 1.67334 0.264619
-2.28171 1.67131 0.230776
-2.288 1.67009 0.221883
-2.26931 1.66889 0.225453
-2.24484 1.6677 0.231891
-2.25668 1.66654 0.220151
-2.22777 1.66538 0.228757
-2.28129 1.66425 0.196121
-2.30465 1.66314 0.178537
-2.26836 1.66204 0.190758
-2.26816 1.66096 0.184898
-2.29934 1.65989 0.163321
-2.29849 1.65885 0.157734
-2.17894 1.65782 0.211469
-2.31958 1.65681 0.135075
-2.2991 1.65581 0.139229
-2.23031 1.65482 0.167526
-2.22647 1.65385 0.163325
-2.29504 1.65289 0.122887
-2.35345 1.65195 0.0874946
-2.31418 1.65103 0.100914
-2.26956 1.65013 0.116981
-2.33274 1.64924 0.0791119
-2.33816 1.64837 0.0700953
-2.28347 1.64752 0.0911014
-2.2193 1.64669 0.116816
-2.374 1.64587 0.0330626
-2.34898 1.64508 0.0391396
-2.34673 1.64429 0.033803
-2.19974 1.64451 0.0985359
-2.32385 1.64376 0.0299534
-2.29861 1.64303 0.0360146
-2.38399 1.64231 -0.0132662
-2.30461 1.64259 0.0175311
-2.35277 1.6419 -0.0132077
-2.27286 1.64123 0.0200619
-2.28973 1.64091 0.00413188
-2.28315 1.64029 0.000637837
-2.29579 1.64065 -0.0147663
-2.29093 1.64006 -0.0191806
-2.33539 1.63988 -0.0492261
-2.30429 1.64029 -0.0428919
-2.27335 1.63975 -0.034386
-2.29353 1.64063 -0.0548172
-2.26105 1.64013 -0.0456317
-2.3162 1.64108 -0.0837192
-2.27854 1.64112 -0.073228
-2.25723 1.64163 -0.0720486
-2.29817 1.64268 -0.1033
-2.26431 1.64377 -0.0972481
-2.29085 1.64489 -0.121489
-2.08725 1.64663 -0.0321758
-2.2362 1.64783 -0.117829
-2.1668 1.65344 -0.105056
-1.8783 1.77193 0.546367
-2.00279 1.76269 0.493638
-1.93726 1.75688 0.529177
-2.07445 1.75175 0.462067
-2.10052 1.74834 0.447106
-2.1253 1.74495 0.432793
-2.09819 1.74158 0.444422
-2.12887 1.73822 0.427143
-2.09187 1.7349 0.443688
-2.10659 1.7316 0.434346
-2.15577 1.72834 0.407747
-2.16203 1.72624 0.400257
-2.16269 1.72406 0.395761
-2.16209 1.72087 0.393982
-2.14531 1.71878 0.398072
-2.17522 1.71616 0.379913
-2.21349 1.71407 0.356515
-2.15422 1.71203 0.381804
-2.16524 1.70947 0.373056
-2.13377 1.7075 0.384342
-2.20421 1.70542 0.344922
-2.20735 1.7035 0.338835
-2.2384 1.70143 0.319143
-2.21294 1.69997 0.326429
-2.28781 1.69813 0.284362
-2.34308 1.69672 0.251228
-2.18921 1.69532 0.322646
-2.36337 1.6929 0.232218
-2.23455 1.69153 0.29108
-2.24311 1.68987 0.281892
-2.19564 1.68781 0.301572
-2.23461 1.68649 0.276483
-2.26581 1.68518 0.255259
-2.1823 1.68389 0.291365
-2.27169 1.68238 0.241507
-2.2435 1.68034 0.251607
-2.21432 1.6791 0.260487
-2.27461 1.67787 0.224601
-2.37458 1.67667 0.168856
-2.25913 1.67548 0.220797
-2.2707 1.67431 0.209198
-2.29591 1.67315 0.190756
-2.36737 1.67113 0.151115
-2.3058 1.66999 0.176043
-2.33065 1.66887 0.157739
-2.28707 1.66777 0.17362
-2.26771 1.66669 0.177361
-2.30704 1.66563 0.151729
-2.35692 1.66458 0.120793
-2.31065 1.66355 0.137903
-2.31907 1.66254 0.12764
-2.29549 1.66155 0.13335
-2.36763 1.66057 0.0911633
-2.33765 1.65957 0.100106
-2.35873 1.65862 0.0834314
-2.30485 1.65768 0.104203
-2.29196 1.65676 0.104453
-2.3579 1.65585 0.0652501
-2.30425 1.65497 0.0858141
-2.26642 1.65509 0.0961786
-2.36811 1.65424 0.039009
-2.29193 1.65341 0.0707434
-2.33475 1.65259 0.042944
-2.26913 1.65179 0.0693321
-2.32253 1.65101 0.0361849
-2.26453 1.65025 0.0586977
-2.31546 1.65073 0.0238714
-2.32295 1.64975 0.0141566
-2.31333 1.64903 0.0123839
-2.33734 1.64833 -0.00622834
-2.2532 1.64796 0.0284785
-2.26611 1.64731 0.0153115
-2.28602 1.64764 -0.00366324
-2.33049 1.64702 -0.0326652
-2.25063 1.64642 0.000462798
-2.31542 1.64718 -0.0419701
-2.23841 1.64622 -0.00940857
-2.3703 1.64607 -0.0832322
-2.30948 1.6465 -0.0620598
-2.23184 1.64643 -0.0313027
-2.29047 1.64689 -0.0699503
-2.20391 1.64689 -0.0349002
-2.20655 1.64739 -0.0456407
-2.29958 1.64894 -0.104107
-2.1728 1.64907 -0.0492623
-2.26781 1.64963 -0.106343
-2.18202 1.65076 -0.0744267
-2.24806 1.65407 -0.1237
-2.26293 1.65529 -0.142356
-2.20424 1.66098 -0.135082
-1.94483 1.78083 0.507147
-2.01476 1.77154 0.481737
-2.0241 1.7657 0.479884
-2.01408 1.76053 0.486415
-2.07115 1.75709 0.455991
-2.03635 1.75368 0.471507
-2.13485 1.74858 0.423767
-2.15831 1.74521 0.410127
-2.07991 1.74248 0.446166
-2.09893 1.73976 0.43351
-2.13392 1.73692 0.413138
-2.1807 1.73365 0.387747
-2.11132 1.73154 0.418119
-2.14787 1.72937 0.395678
-2.12165 1.72619 0.406713
-2.26339 1.72408 0.331584
-2.30991 1.722 0.304058
-2.21915 1.71939 0.346252
-2.13897 1.71737 0.381979
-2.1498 1.71528 0.372371
-2.2096 1.7133 0.338048
-2.10909 1.71181 0.382894
-2.21927 1.70929 0.324561
-2.2099 1.70783 0.323817
-2.22324 1.70598 0.312528
-2.21556 1.7039 0.312268
-2.24385 1.70212 0.293419
-2.21719 1.70004 0.302675
-2.24134 1.69865 0.285096
-2.30327 1.69728 0.248605
-2.34325 1.69561 0.223732
-2.2857 1.69429 0.246911
-2.35022 1.69222 0.210646
-2.27285 1.69091 0.243727
-2.35145 1.68962 0.198804
-2.26027 1.68811 0.239247
-2.33708 1.68686 0.19514
-2.34181 1.68481 0.188833
-2.24844 1.68359 0.229801
-2.21982 1.68238 0.23837
-2.34375 1.68119 0.170642
-2.24625 1.68001 0.213601
-2.34201 1.67886 0.159904
-2.38047 1.67772 0.134828
-2.29466 1.6766 0.171859
-2.30787 1.6755 0.159355
-2.32886 1.67441 0.14293
-2.29159 1.67334 0.155611
-2.27693 1.67229 0.156955
-2.31807 1.67126 0.130369
-2.26796 1.67025 0.149379
-2.22246 1.66823 0.168334
-2.3574 1.66723 0.0947994
-2.20911 1.66626 0.162845
-2.31925 1.6653 0.101651
-2.33915 1.66436 0.0855424
-2.35064 1.66444 0.0713525
-2.25002 1.66344 0.115658
-2.2814 1.66254 0.0937529
-2.27274 1.66165 0.0918352
-2.32 1.66078 0.0619291
-2.3325 1.65993 0.0493674
-2.22726 1.65928 0.0952446
-2.24881 1.65848 0.0780556
-2.41821 1.65769 -0.0130829
-2.25289 1.65792 0.0608249
-2.36876 1.65693 -0.00306285
-2.27968 1.65618 0.0349751
-2.30733 1.65572 0.0139913
-2.37245 1.65502 -0.0251731
-2.37593 1.65434 -0.033545
-2.28523 1.65465 0.00285471
-2.3459 1.654 -0.0341795
-2.27902 1.65336 -0.00746426
-2.35753 1.65372 -0.0557669
-2.32266 1.65311 -0.0451216
-2.25112 1.65292 -0.0171066
-2.23572 1.65333 -0.018585
-2.35075 1.65278 -0.0830103
-2.23201 1.65269 -0.0316458
-2.31056 1.65315 -0.0802154
-2.30958 1.65314 -0.0879025
-2.21815 1.65363 -0.0515757
-2.3297 1.65465 -0.117993
-2.28211 1.65421 -0.101366
-2.24383 1.65529 -0.0930284
-2.27495 1.65697 -0.120856
-2.21569 1.65813 -0.102255
-2.25766 1.65932 -0.134358
-2.13957 1.66337 -0.0933473
-1.91688 1.79208 0.510495
-1.95578 1.78038 0.505326
-2.01782 1.77449 0.477162
-2.0678 1.76929 0.453736
-2.0587 1.76583 0.45643
-2.05311 1.76067 0.4608
-2.11742 1.75725 0.426785
-2.21401 1.75386 0.376623
-2.1053 1.75049 0.429096
-2.15609 1.74714 0.401793
-2.14852 1.74502 0.401244
-2.10556 1.74218 0.419841
-2.13807 1.73892 0.401599
-2.17833 1.73681 0.37719
-2.11229 1.73465 0.40604
-2.23074 1.73199 0.343673
-2.25742 1.72989 0.32608
-2.15443 1.72728 0.374405
-2.22081 1.72573 0.335873
-2.24581 1.72314 0.320197
-2.27261 1.72116 0.302385
-2.24269 1.71906 0.313207
-2.2272 1.71713 0.316472
-2.1755 1.71566 0.336903
-2.18809 1.71356 0.326514
-2.17459 1.71172 0.328668
-2.32699 1.71029 0.247006
-2.26067 1.70784 0.276887
-2.31351 1.70644 0.244971
-2.20453 1.70506 0.293952
-2.24982 1.70339 0.266427
-2.28505 1.70131 0.244813
-2.26555 1.69998 0.248995
-2.26114 1.69867 0.245612
-2.3089 1.69737 0.216118
-2.28234 1.69586 0.224259
-2.31699 1.69379 0.202995
-2.27893 1.69254 0.216346
-2.33513 1.69131 0.18254
-2.27905 1.6901 0.204855
-2.31394 1.68891 0.181654
-2.46636 1.68773 0.0996642
-2.30464 1.68568 0.176657
-2.35148 1.68452 0.147441
-2.25955 1.68338 0.18758
-2.3349 1.68226 0.144053
-2.31264 1.68115 0.149303
-2.33192 1.68006 0.133753
-2.26358 1.679 0.161986
-2.26699 1.67795 0.154312
-2.23359 1.67691 0.165018
-2.33695 1.6759 0.107315
-2.34998 1.67488 0.0947772
-2.36646 1.67389 0.0804865
-2.27923 1.67291 0.118024
-2.30318 1.67195 0.0999385
-2.27539 1.67101 0.107691
-2.3036 1.67009 0.087412
-2.32218 1.66918 0.0719173
-2.37612 1.6683 0.0387066
-2.28371 1.66743 0.0786442
-2.31298 1.66658 0.0577116
-2.25112 1.66574 0.0823094
-2.3067 1.66493 0.0481554
-2.31413 1.66513 0.0357647
-2.29353 1.66434 0.0396346
-2.35342 1.66358 0.00322976
-2.29478 1.66283 0.0260571
-2.34365 1.6621 -0.00490413
-2.21545 1.66237 0.050349
-2.27898 1.66167 0.0119943
-2.35089 1.66099 -0.0305819
-2.3112 1.66033 -0.0173877
-2.23931 1.66066 0.00957945
-2.27532 1.66002 -0.0151454
-2.30597 1.65978 -0.0380966
-2.28498 1.65919 -0.0344109
-2.33585 1.65959 -0.0689902
-2.35413 1.65903 -0.0850006
-2.29272 1.65893 -0.0622381
-2.31635 1.65938 -0.08332
-2.32785 1.65935 -0.0971879
-2.3089 1.65984 -0.0970666
-2.30059 1.66084 -0.10351
-2.25201 1.6604 -0.0863495
-2.29008 1.66147 -0.116142
-2.2747 1.66257 -0.119307
-2.25977 1.6643 -0.124197
-2.28311 1.66549 -0.146946
-2.14962 1.66671 -0.0913622
-2.22338 1.67082 -0.146406
-1.9739 1.79094 0.486939
-2.00089 1.78327 0.479774
-2.10327 1.77804 0.43019
-2.07708 1.77456 0.441464
-2.01204 1.7687 0.476906
-2.03944 1.76527 0.461374
-2.08054 1.76185 0.438977
-2.13988 1.75908 0.406204
-2.18128 1.75571 0.383644
-2.15421 1.75237 0.395294
-2.15705 1.75023 0.389579
-2.19958 1.74741 0.365421
-2.23804 1.74471 0.343081
-2.16198 1.74203 0.37801
-2.21168 1.73988 0.348982
-2.15936 1.73723 0.37202
-2.22106 1.73514 0.336903
-2.16147 1.73302 0.362533
-2.25341 1.73098 0.312241
-2.25086 1.72887 0.309389
-2.2324 1.72688 0.314234
-2.25367 1.72494 0.299128
-2.21547 1.72283 0.314145
-2.27892 1.72095 0.277872
-2.2009 1.71885 0.312826
-2.32529 1.7174 0.245215
-2.34215 1.71561 0.232116
-2.2499 1.71351 0.274226
-2.29496 1.71211 0.246227
-2.24636 1.71073 0.265041
-2.25013 1.70906 0.258296
-2.19333 1.70772 0.281142
-2.22454 1.70563 0.26159
-2.27882 1.70432 0.228882
-2.26146 1.70302 0.231973
-2.31733 1.70173 0.198424
-2.31229 1.70025 0.195762
-2.35915 1.69818 0.168448
-2.27271 1.69695 0.205984
-2.34345 1.69573 0.164907
-2.29497 1.69453 0.183413
-2.34423 1.69335 0.153022
-2.30288 1.69219 0.167909
-2.356 1.69105 0.13553
-2.34044 1.68992 0.137468
-2.35323 1.68882 0.125205
-2.3275 1.68773 0.132169
-2.3161 1.68665 0.131943
-2.29065 1.6856 0.138706
-2.34412 1.68355 0.108214
-2.43135 1.68252 0.0586198
-2.32846 1.68151 0.104058
-2.31903 1.68153 0.100468
-2.41157 1.68051 0.0482104
-2.33272 1.67953 0.0815716
-2.34525 1.67857 0.0692074
-2.38811 1.67763 0.0416521
-2.39048 1.67671 0.0343082
-2.30916 1.6758 0.0687789
-2.32059 1.67491 0.0568395
-2.34451 1.67404 0.0386262
-2.31124 1.67319 0.0489737
-2.35289 1.67236 0.0218302
-2.34897 1.67154 0.0174379
-2.39403 1.67074 -0.0114753
-2.39112 1.67096 -0.0187258
-2.28385 1.67019 0.0284623
-2.24171 1.66945 0.0430522
-2.36521 1.66871 -0.0252125
-2.30841 1.668 -0.00335695
-2.38815 1.6683 -0.0521031
-2.28434 1.66761 -0.00680656
-2.32962 1.66695 -0.0360868
-2.34157 1.6663 -0.0487318
-2.35038 1.66603 -0.0607007
-2.28664 1.66641 -0.0379071
-2.37015 1.66582 -0.0864626
-2.24792 1.66567 -0.0331644
-2.31119 1.66611 -0.0740005
-2.29384 1.66557 -0.072248
-2.30237 1.66603 -0.0857766
-2.32112 1.66553 -0.102132
-2.328 1.6665 -0.116066
-2.2082 1.66603 -0.063233
-2.29095 1.66761 -0.116544
-2.31699 1.66774 -0.138066
-2.23663 1.66831 -0.107425
-2.28785 1.66946 -0.143995
-2.25445 1.67065 -0.138344
-2.35608 1.67408 -0.205608
-2.22768 1.67825 -0.159684
-1.97197 1.80217 0.47727
-2.02921 1.79204 0.45978
-2.07161 1.78677 0.440225
-2.11552 1.78152 0.419933
-2.07046 1.77737 0.44199
-2.0752 1.7739 0.437825
-2.11138 1.77046 0.417934
-2.09698 1.76704 0.423315
-2.12061 1.76427 0.408433
-2.04314 1.76089 0.445327
-2.145 1.75755 0.39253
-2.20409 1.7554 0.358731
-2.16701 1.7526 0.374362
-2.15956 1.7499 0.375006
-2.12294 1.74828 0.388058
-2.28654 1.74507 0.304247
-2.20038 1.74293 0.343169
-2.23433 1.74085 0.321961
-2.16065 1.73928 0.353504
-2.20175 1.73667 0.329834
-2.23683 1.73468 0.307921
-2.13581 1.73255 0.354354
-2.29378 1.73061 0.270923
-2.27093 1.72913 0.276969
-2.25288 1.72661 0.282806
-2.22675 1.72516 0.290462
-2.34629 1.72372 0.22527
-2.24049 1.72125 0.27494
-2.24919 1.71984 0.265136
-2.30549 1.71845 0.231509
-2.27851 1.71678 0.240149
-2.38244 1.71468 0.184246
-2.29985 1.71334 0.220006
-2.31125 1.71201 0.208752
-2.36065 1.71071 0.178469
-2.36168 1.70942 0.172353
-2.29626 1.70815 0.199438
-2.33691 1.70606 0.175252
-2.34792 1.70461 0.164521
-2.28223 1.70339 0.191671
-2.25296 1.70219 0.200581
-2.285 1.70101 0.17881
-2.39489 1.69893 0.120063
-2.29951 1.69777 0.16198
-2.26925 1.69663 0.171315
-2.3311 1.6955 0.13457
-2.29765 1.69439 0.14544
-2.2169 1.6933 0.179937
-2.31928 1.69223 0.122837
-2.31622 1.69117 0.118427
-2.45543 1.69015 0.0428344
-2.37908 1.68911 0.0750435
-2.38004 1.68809 0.0685725
-2.28668 1.6871 0.109228
-2.36578 1.68612 0.0636206
-2.33172 1.68516 0.0745638
-2.45012 1.68421 0.00925037
-2.38216 1.68329 0.0370781
-2.35581 1.68238 0.0440742
-2.37326 1.68149 0.0291369
-2.4296 1.68163 -0.00756575
-2.28851 1.68062 0.0570589
-2.23418 1.67977 0.0779519
-2.36292 1.67893 0.00727559
-2.3763 1.67812 -0.0057523
-2.34901 1.67732 0.00152293
-2.2766 1.67654 0.0313291
-2.3485 1.67577 -0.011057
-2.26207 1.6763 0.0227661
-2.31754 1.6753 -0.0108449
-2.32028 1.67458 -0.0187512
-2.36694 1.67388 -0.0486429
-2.33166 1.67354 -0.0383676
-2.26053 1.67289 -0.00946474
-2.31232 1.67325 -0.0443647
-2.21172 1.67263 -0.000793065
-2.39902 1.67202 -0.101201
-2.32661 1.67243 -0.0740997
-2.28567 1.67185 -0.0604465
-2.357 1.67173 -0.103998
-2.325 1.67219 -0.097224
-2.38986 1.67167 -0.136596
-2.25474 1.67264 -0.0794824
-2.2866 1.67216 -0.102439
-2.22795 1.67319 -0.0837304
-2.30169 1.67329 -0.129002
-2.28638 1.67384 -0.130833
-2.27479 1.67555 -0.137298
-2.30902 1.67674 -0.165423
-2.24481 1.67795 -0.144418
-2.3078 1.68143 -0.192465
-2.17281 1.68566 -0.143363
-1.94418 1.81097 0.4853
-2.03353 1.80079 0.451799
-2.02309 1.79549 0.458697
-2.04661 1.78952 0.449974
-2.03328 1.78602 0.454878
-2.12616 1.78253 0.406685
-2.13959 1.77905 0.39821
-2.08314 1.7756 0.424665
-2.24231 1.77218 0.343289
-2.13123 1.7694 0.395787
-2.19699 1.76602 0.361087
-2.18375 1.76327 0.364673
-2.21782 1.76052 0.344609
-2.20485 1.75774 0.348167
-2.21616 1.75559 0.33834
-2.18822 1.75342 0.348175
-2.22461 1.75075 0.326916
-2.14498 1.74865 0.36251
-2.25592 1.7465 0.302938
-2.18783 1.74445 0.332703
-2.25904 1.74231 0.293026
-2.27055 1.74031 0.282925
-2.14497 1.73837 0.341279
-2.21439 1.73623 0.302543
-2.28866 1.73434 0.260898
-2.30679 1.73289 0.24644
-2.28568 1.73076 0.253015
-2.31492 1.72932 0.232995
-2.32847 1.72755 0.221538
-2.27038 1.72543 0.246644
-2.28566 1.72404 0.233553
-2.31157 1.72266 0.215122
-2.26843 1.72102 0.231811
-2.33608 1.71891 0.194098
-2.28235 1.71758 0.215429
-2.36019 1.71627 0.170954
-2.25257 1.71498 0.219184
-2.2189 1.71371 0.230415
-2.29366 1.71245 0.187405
-2.40993 1.71104 0.123994
-2.27323 1.70983 0.18663
-2.31526 1.70879 0.159567
-2.27369 1.7067 0.176571
-2.33191 1.70539 0.142006
-2.27789 1.70424 0.163232
-2.33868 1.70311 0.127022
-2.35435 1.702 0.113345
-2.30724 1.70096 0.130907
-2.29928 1.69987 0.12902
-2.26567 1.69879 0.139931
-2.43122 1.69774 0.0512349
-2.36037 1.6967 0.0807057
-2.41624 1.69567 0.0468113
-2.31162 1.69465 0.0931431
-2.32523 1.69365 0.0803281
-2.34324 1.69267 0.0652833
-2.33447 1.69171 0.0635998
-2.35111 1.69076 0.0491757
-2.2692 1.68984 0.0839963
-2.45985 1.68893 -0.0174967
-2.33669 1.68804 0.0378857
-2.31669 1.68717 0.0416532
-2.33264 1.68631 0.0274126
-2.38223 1.68548 -0.00367932
-2.37045 1.68466 -0.00411787
-2.33983 1.68386 0.00483045
-2.33904 1.68409 -0.00347007
-2.34325 1.68308 -0.0114416
-2.38055 1.68232 -0.0365138
-2.4044 1.68157 -0.0548927
-2.37206 1.68113 -0.0458809
-2.34916 1.68043 -0.0409864
-2.33176 1.67975 -0.0388778
-2.39473 1.68009 -0.0792977
-2.28455 1.67944 -0.0308588
-2.31745 1.67881 -0.0539911
-2.28554 1.67919 -0.0470731
-2.31882 1.67859 -0.0704566
-2.41551 1.67842 -0.126562
-2.39658 1.67786 -0.123939
-2.42021 1.67831 -0.144949
-2.31225 1.67825 -0.0989774
-2.29428 1.67874 -0.0992787
-2.26706 1.67824 -0.0926557
-2.40288 1.67927 -0.171136
-2.31635 1.67881 -0.134944
-2.29206 1.6799 -0.133531
-2.29516 1.68103 -0.145915
-2.17957 1.68219 -0.0990517
-2.21122 1.684 -0.127355
-2.3168 1.68524 -0.19129
-2.14706 1.68715 -0.119191
-2.27594 1.69306 -0.206015
-2.02326 1.81198 0.446313
-2.14494 1.80419 0.391999
-2.12058 1.79818 0.407266
-2.10728 1.79465 0.412192
-2.25602 1.79113 0.336104
-2.163 1.78589 0.384339
-2.1566 1.78307 0.384524
-2.17605 1.78025 0.371801
-2.12653 1.77728 0.393888
-2.18413 1.77449 0.36208
-2.20892 1.77112 0.347877
-2.17624 1.76836 0.361209
-2.16989 1.76612 0.360347
-2.16054 1.7634 0.361999
-2.22302 1.76176 0.325545
-2.22598 1.75853 0.322115
-2.22814 1.75637 0.316941
-2.27626 1.75427 0.288684
-2.23076 1.75269 0.306177
-2.2702 1.75006 0.283398
-2.28854 1.74805 0.269891
-2.24074 1.7459 0.289772
-2.17432 1.74395 0.318577
-2.3097 1.74246 0.245545
-2.28435 1.74032 0.25425
-2.28837 1.73846 0.247707
-2.29336 1.73701 0.239826
-2.19617 1.73558 0.28302
-2.2929 1.7331 0.231461
-2.29049 1.7317 0.227227
-2.29907 1.73032 0.217481
-2.23517 1.72896 0.243948
-2.29427 1.72655 0.211133
-2.28446 1.72522 0.210519
-2.27945 1.72391 0.207479
-2.28684 1.72261 0.198214
-2.24449 1.72133 0.213798
-2.30849 1.71922 0.177994
-2.33034 1.71796 0.161459
-2.28849 1.71672 0.176756
-2.34036 1.7155 0.145159
-2.40135 1.71429 0.108982
-2.37203 1.71311 0.117928
-2.248 1.71194 0.174202
-2.27382 1.71078 0.155526
-2.38243 1.70965 0.0954225
-2.32066 1.70854 0.120483
-2.35192 1.70645 0.101157
-2.39553 1.70536 0.073508
-2.34853 1.70428 0.0911285
-2.3668 1.70323 0.0760906
-2.30751 1.70219 0.0997967
-2.40173 1.70117 0.0467177
-2.32159 1.70017 0.0807919
-2.31721 1.69919 0.0769496
-2.29582 1.69822 0.0815845
-2.33896 1.69831 0.051631
-2.32944 1.69728 0.0504881
-2.31375 1.69635 0.0522128
-2.32744 1.69441 0.0415156
-2.40472 1.69353 -0.00330651
-2.32629 1.69368 0.0273878
-2.34826 1.69283 0.0101501
-2.38948 1.69199 -0.0167436
-2.35621 1.69117 -0.00642197
-2.26865 1.69037 0.0310097
-2.48861 1.68959 -0.0853505
-2.22088 1.68883 0.0420983
-2.29172 1.68808 0.000230551
-2.4013 1.68735 -0.0610385
-2.39924 1.68765 -0.0688377
-2.3625 1.68695 -0.0570093
-2.30866 1.68627 -0.0366671
-2.42171 1.68561 -0.099799
-2.38271 1.68597 -0.0892653
-2.3254 1.68533 -0.0672788
-2.34095 1.68472 -0.0817596
-2.37442 1.68453 -0.106193
-2.29737 1.68496 -0.0767973
-2.34183 1.6844 -0.105855
-2.24346 1.68486 -0.065861
-2.38115 1.68433 -0.141596
-2.33189 1.6843 -0.12504
-2.31487 1.6848 -0.125839
-2.26269 1.68485 -0.107994
-2.39087 1.68539 -0.181482
-2.28277 1.68705 -0.139517
-2.28295 1.68664 -0.146771
-2.26854 1.68782 -0.150511
-2.29965 1.68903 -0.177094
-2.34945 1.6909 -0.214623
-2.29901 1.69446 -0.206097
-2.29981 1.69811 -0.223422
-2.04474 1.82071 0.429767
-1.99957 1.81287 0.458929
-2.05211 1.80751 0.434448
-2.16102 1.80327 0.379641
-2.08684 1.79796 0.418528
-2.10609 1.79444 0.407211
-2.15224 1.79095 0.382432
-2.11457 1.78748 0.399552
-2.14343 1.78466 0.382141
-2.14222 1.78233 0.378825
-2.25437 1.77954 0.319771
-2.22867 1.77617 0.330825
-2.24775 1.77398 0.317138
-2.20307 1.77118 0.3366
-2.21251 1.769 0.32777
-2.22978 1.76682 0.315046
-2.17301 1.76412 0.340428
-2.24117 1.76201 0.302169
-2.19602 1.75984 0.320699
-2.19367 1.75778 0.317633
-2.24825 1.75623 0.285082
-2.31685 1.75361 0.247721
-2.28702 1.75165 0.258238
-2.31925 1.74949 0.238159
-2.3044 1.748 0.240274
-2.27436 1.74613 0.250771
-2.26348 1.74398 0.252287
-2.28936 1.74253 0.233991
-2.24064 1.74075 0.25369
-2.22608 1.73861 0.257093
-2.30482 1.73721 0.212308
-2.31463 1.73582 0.201966
-2.3061 1.73445 0.200775
-2.3066 1.73284 0.195609
-2.34946 1.73152 0.168648
-2.28923 1.72939 0.194958
-2.32611 1.72809 0.170969
-2.33242 1.72681 0.162246
-2.22361 1.72555 0.211054
-2.25911 1.7243 0.187683
-2.2746 1.72307 0.174285
-2.32542 1.72187 0.143204
-2.34619 1.71975 0.129095
-2.35611 1.71857 0.118443
-2.30607 1.71739 0.137739
-2.3191 1.71624 0.125477
-2.3413 1.71511 0.108601
-2.36198 1.71399 0.0924514
-2.36165 1.7129 0.0867816
-2.37888 1.71182 0.0722995
-2.40745 1.71076 0.0521157
-2.26749 1.70972 0.116173
-2.36676 1.70868 0.0606171
-2.37161 1.70766 0.0522435
-2.32064 1.70665 0.0717426
-2.35288 1.70567 0.0496104
-2.29513 1.70471 0.072437
-2.40102 1.70367 0.013615
-2.32568 1.70272 0.0452088
-2.41806 1.7018 -0.00708739
-2.3316 1.70089 0.0300081
-2.29239 1.7 0.0434408
-2.3623 1.69913 0.00228141
-2.35437 1.69828 1.20294e-05
-2.36874 1.69744 -0.0134405
-2.34177 1.69663 -0.00625574
-2.35214 1.69685 -0.020098
-2.32426 1.69607 -0.0125253
-2.36357 1.6953 -0.0385784
-2.38697 1.69456 -0.0567163
-2.31762 1.69383 -0.0285047
-2.38186 1.69312 -0.0671243
-2.41026 1.69344 -0.0901873
-2.38744 1.69276 -0.0853384
-2.23885 1.69209 -0.0176421
-2.34535 1.69145 -0.0775202
-2.37593 1.69222 -0.102716
-2.23412 1.69121 -0.0375923
-2.2238 1.69103 -0.0401322
-2.36716 1.69046 -0.118599
-2.27213 1.69091 -0.0802442
-2.37627 1.69037 -0.139161
-2.32571 1.69032 -0.121896
-2.29174 1.69082 -0.114191
-2.2699 1.69085 -0.111461
-2.35386 1.69138 -0.16281
-2.37355 1.69248 -0.183351
-2.33219 1.69205 -0.169776
-2.35663 1.6932 -0.192854
-2.27985 1.695 -0.166857
-2.32513 1.69623 -0.200579
-2.29705 1.6975 -0.197705
-2.28236 1.70176 -0.208687
-2.29925 1.70545 -0.234139
-2.07954 1.82942 0.406581
-2.00904 1.82154 0.448444
-2.03585 1.81794 0.433364
-2.05283 1.81187 0.42807
-2.1362 1.80653 0.388227
-2.09816 1.80298 0.405597
-2.16211 1.79946 0.371962
-2.20957 1.79596 0.346558
-2.25638 1.79249 0.321457
-2.22198 1.79029 0.334474
-2.22632 1.78734 0.329627
-2.26189 1.78454 0.308891
-2.21985 1.78176 0.326961
-2.24704 1.7795 0.309374
-2.19577 1.77675 0.33205
-2.17297 1.77456 0.339375
-2.26589 1.77185 0.289928
-2.16008 1.76966 0.338801
-2.32103 1.76755 0.254172
-2.25972 1.76548 0.280596
-2.24676 1.7633 0.283087
-2.31885 1.76128 0.242742
-2.27238 1.75911 0.262022
-2.27225 1.75715 0.257713
-2.27556 1.75565 0.25076
-2.22195 1.75348 0.273652
-2.21102 1.75161 0.274616
-2.29239 1.75016 0.228585
-2.24691 1.74872 0.24596
-2.36264 1.74656 0.184237
-2.29179 1.74481 0.214973
-2.29499 1.74342 0.207951
-2.24342 1.74205 0.22829
-2.41497 1.7399 0.138708
-2.29494 1.73855 0.193267
-2.26288 1.73697 0.204347
-2.32815 1.73566 0.166177
-2.33349 1.73438 0.157942
-2.33743 1.73224 0.152231
-2.32277 1.73098 0.153982
-2.37483 1.72973 0.122354
-2.32996 1.7285 0.13916
-2.30256 1.72729 0.147204
-2.34253 1.7261 0.121536
-2.40383 1.72493 0.0851774
-2.36458 1.72377 0.0990607
-2.35941 1.72263 0.0958781
-2.32568 1.72052 0.109096
-2.34759 1.71941 0.0923526
-2.38694 1.71831 0.0668585
-2.38652 1.71827 0.0589528
-2.45338 1.71722 0.0196149
-2.32497 1.71617 0.0779223
-2.31462 1.71513 0.0771909
-2.36563 1.71411 0.0457527
-2.32139 1.71206 0.0642083
-2.37424 1.71108 0.0317817
-2.41185 1.71011 0.00694858
-2.36376 1.70917 0.0249265
-2.40486 1.70824 -0.00171867
-2.41459 1.70837 -0.015023
-2.36125 1.70733 0.00581023
-2.3866 1.70644 -0.0130225
-2.36582 1.70557 -0.00881881
-2.38366 1.70472 -0.0239654
-2.34555 1.70388 -0.0111636
-2.4168 1.70307 -0.0530786
-2.30713 1.70227 -0.00456831
-2.32454 1.70149 -0.0196243
-2.35725 1.70175 -0.0447005
-2.43123 1.701 -0.0881135
-2.47735 1.70027 -0.117625
-2.43052 1.69956 -0.100701
-2.35753 1.69887 -0.0707231
-2.3291 1.69921 -0.0654015
-2.31565 1.69855 -0.0652602
-2.3372 1.6979 -0.0826526
-2.34093 1.69767 -0.0920908
-2.33724 1.69707 -0.0969606
-2.32177 1.6975 -0.0983179
-2.303 1.69693 -0.0957091
-2.41991 1.69684 -0.162056
-2.40037 1.69732 -0.161503
-2.3303 1.69681 -0.133368
-2.32278 1.69731 -0.138888
-2.32887 1.69682 -0.148888
-2.3214 1.69788 -0.155752
-2.3121 1.69743 -0.158144
-2.32899 1.69914 -0.17872
-2.28361 1.70032 -0.166943
-2.3934 1.69994 -0.229029
-2.33509 1.70117 -0.210929
-2.30933 1.70472 -0.214618
-2.22958 1.70671 -0.187619
-2.23811 1.71515 -0.22023
-2.03632 1.83269 0.424211
-2.07885 1.82657 0.406156
-2.15718 1.82046 0.370236
-2.16657 1.81508 0.367435
-2.14471 1.81151 0.376751
-2.14689 1.80795 0.374042
-2.22124 1.80442 0.335241
-2.20813 1.80092 0.340144
-2.18651 1.79745 0.349281
-2.23076 1.79524 0.323012
-2.22055 1.79291 0.324233
-2.18644 1.7895 0.339562
-2.33489 1.7873 0.261252
-2.2486 1.78448 0.301564
-2.25233 1.78228 0.295646
-2.23703 1.78008 0.299254
-2.26421 1.77735 0.282718
-2.20019 1.77523 0.310586
-2.20387 1.77304 0.304764
-2.26491 1.77096 0.270044
-2.19029 1.7694 0.302135
-2.23548 1.76675 0.276534
-2.28059 1.76479 0.249616
-2.28767 1.7637 0.239933
-2.32132 1.7611 0.220072
-2.22948 1.75922 0.261506
-2.30718 1.75776 0.217322
-2.30829 1.75559 0.212916
-2.2611 1.75415 0.231169
-2.31052 1.7524 0.201779
-2.29051 1.751 0.206371
-2.33245 1.74884 0.181607
-2.38132 1.74747 0.15175
-2.26265 1.74611 0.205638
-2.34579 1.74477 0.158603
-2.32605 1.74344 0.162982
-2.32171 1.74214 0.159636
-2.29801 1.73999 0.167759
-2.2534 1.73851 0.184952
-2.31539 1.73726 0.148365
-2.37751 1.73602 0.111691
-2.40307 1.73481 0.0932628
-2.25554 1.73361 0.161357
-2.39605 1.73243 0.0853987
-2.387 1.73127 0.0841965
-2.39425 1.73021 0.0746407
-2.29252 1.72907 0.119758
-2.36128 1.72695 0.081763
-2.45294 1.72583 0.0301594
-2.46255 1.72473 0.0195546
-2.40301 1.72365 0.0434897
-2.42482 1.72259 0.02672
-2.40581 1.72155 0.0303275
-2.36769 1.72053 0.0434625
-2.36367 1.71947 0.0396206
-2.41921 1.71847 0.00589631
-2.29692 1.71749 0.0610557
-2.40469 1.71652 0.00115545
-2.32599 1.71558 0.0344562
-2.43686 1.71465 -0.0270613
-2.34201 1.71374 0.0142471
-2.3866 1.71285 -0.0141924
-2.37971 1.71198 -0.0169307
-2.39502 1.71112 -0.0308014
-2.36452 1.71133 -0.0241257
-2.30774 1.71029 -0.00152257
-2.53596 1.70947 -0.121909
-2.3842 1.70867 -0.0523384
-2.36049 1.70789 -0.0468259
-2.3839 1.70713 -0.0649101
-2.45453 1.70772 -0.109656
-2.50133 1.70669 -0.138819
-2.3553 1.70598 -0.0722784
-2.31807 1.70528 -0.0601698
-2.39048 1.7046 -0.102919
-2.34997 1.70432 -0.0901053
-2.3695 1.70369 -0.106508
-2.38157 1.7041 -0.121567
-2.39035 1.7035 -0.13266
-2.41625 1.70292 -0.152347
-2.31881 1.70336 -0.112746
-2.35574 1.70281 -0.138007
-2.33376 1.70276 -0.134974
-2.34465 1.70326 -0.149667
-2.35591 1.70276 -0.162213
-2.38843 1.70381 -0.189026
-2.33354 1.70335 -0.168584
-2.28652 1.70447 -0.155798
-2.3367 1.70463 -0.189351
-2.39762 1.70522 -0.229304
-2.37215 1.70706 -0.229013
-2.3726 1.70832 -0.240338
-2.34248 1.71027 -0.238023
-2.24323 1.71395 -0.205274
-2.04446 1.84316 0.410896
-2.04175 1.83518 0.419013
-2.14947 1.82904 0.368444
-2.15145 1.82361 0.369394
-2.20392 1.82002 0.341584
-2.17579 1.81644 0.354071
-2.12417 1.81288 0.378294
-2.17888 1.80934 0.349335
-2.2019 1.80584 0.336203
-2.19978 1.80299 0.334376
-2.22434 1.80064 0.31823
-2.241 1.79782 0.307015
-2.17225 1.79501 0.338503
-2.31963 1.79274 0.260867
-2.2226 1.78996 0.306482
-2.14701 1.78776 0.340248
-2.29409 1.78502 0.263781
-2.32554 1.78281 0.244079
-2.27025 1.78068 0.267613
-2.2721 1.7786 0.262499
-2.23229 1.7764 0.278475
-2.26546 1.77437 0.257628
-2.25526 1.77218 0.25883
-2.30141 1.77064 0.230537
-2.31002 1.7687 0.221853
-2.33448 1.76651 0.205765
-2.24625 1.76501 0.244617
-2.33015 1.76316 0.198154
-2.31739 1.76172 0.199205
-2.28259 1.75954 0.212807
-2.4014 1.75811 0.148065
-2.4105 1.75638 0.138805
-2.32075 1.755 0.178265
-2.3783 1.75283 0.145745
-2.3651 1.75147 0.146923
-2.3767 1.75013 0.135677
-2.38773 1.7488 0.124691
-2.33303 1.7475 0.146546
-2.3931 1.74621 0.110991
-2.36864 1.74493 0.117676
-2.3429 1.74368 0.124973
-2.34889 1.74244 0.116382
-2.34073 1.7403 0.116818
-2.38047 1.73908 0.0913283
-2.37262 1.73789 0.0896088
-2.37804 1.73671 0.0812265
-2.39056 1.73555 0.0692614
-2.39072 1.73441 0.0634496
-2.35823 1.73329 0.0739305
-2.37501 1.73219 0.0597475
-2.38965 1.7311 0.0465996
-2.40554 1.73004 0.0327988
-2.44321 1.72898 0.00811391
-2.35359 1.72688 0.0493579
-2.3777 1.72691 0.0290763
-2.25925 1.72585 0.0824722
-2.31275 1.72485 0.0497845
-2.38079 1.72387 0.00979377
-2.35321 1.7229 0.017582
-2.38814 1.72195 -0.00591849
-2.35414 1.72102 0.00500988
-2.41777 1.72011 -0.0329077
-2.35321 1.71922 -0.00676014
-2.42024 1.71835 -0.0464415
-2.39301 1.7175 -0.0390288
-2.35632 1.71666 -0.0269171
-2.39997 1.71585 -0.0550145
-2.48459 1.71505 -0.103622
-2.44408 1.71531 -0.0920433
-2.38555 1.71427 -0.0685308
-2.34453 1.71351 -0.0543855
-2.41445 1.71276 -0.0957412
-2.3708 1.71203 -0.080348
-2.45287 1.71166 -0.128615
-2.42022 1.71202 -0.121177
-2.41782 1.71099 -0.125698
-2.45734 1.71033 -0.152021
-2.40336 1.71008 -0.132542
-2.36272 1.70947 -0.118885
-2.36306 1.7099 -0.128107
-2.42163 1.70931 -0.164116
-2.43502 1.70875 -0.177565
-2.45253 1.70969 -0.196584
-2.38903 1.70868 -0.170536
-2.33209 1.71019 -0.153655
-2.36064 1.70918 -0.173635
-2.37807 1.70923 -0.190552
-2.44298 1.70978 -0.232365
-2.27725 1.70991 -0.157866
-2.33379 1.71108 -0.196969
-2.37594 1.71229 -0.228977
-2.34314 1.71354 -0.223601
-2.27794 1.71546 -0.203651
-2.31976 1.71678 -0.235792
-2.27169 1.72117 -0.230311
-2.05201 1.85179 0.401401
-2.04475 1.84378 0.411833
-2.00146 1.8376 0.436814
-2.1187 1.83214 0.380181
-2.256 1.82851 0.309991
-2.17343 1.8249 0.349739
-2.177 1.82132 0.346407
-2.10659 1.81775 0.380056
-2.18629 1.81422 0.338625
-2.22141 1.81071 0.319458
-2.2028 1.80848 0.32468
-2.24916 1.80552 0.29887
-2.26941 1.8027 0.285878
-2.20691 1.801 0.312051
-2.3362 1.79763 0.245673
-2.15964 1.7954 0.329965
-2.29172 1.79319 0.259925
-2.28266 1.79044 0.261564
-2.29934 1.7883 0.249128
-2.30672 1.78609 0.241513
-2.34774 1.784 0.216838
-2.25222 1.78243 0.259423
-2.23158 1.78022 0.265863
-2.3554 1.77821 0.199677
-2.30676 1.77668 0.218775
-2.30439 1.77407 0.216978
-2.35865 1.77257 0.184598
-2.35765 1.77071 0.180595
-2.29707 1.76961 0.204832
-2.35652 1.76707 0.172064
-2.32168 1.76563 0.184159
-2.33919 1.76421 0.170058
-2.3499 1.76281 0.159336
-2.31616 1.76143 0.170816
-2.38386 1.75897 0.133826
-2.42786 1.75762 0.106394
-2.39433 1.75629 0.117699
-2.3663 1.75498 0.126229
-2.38987 1.75281 0.110781
-2.34387 1.75152 0.12828
-2.31448 1.75024 0.137452
-2.30367 1.74899 0.137302
-2.30378 1.74775 0.131671
-2.3321 1.74653 0.111903
-2.2949 1.74533 0.124867
-2.41608 1.74415 0.0586091
-2.4323 1.74299 0.0448059
-2.41479 1.74084 0.0499955
-2.40503 1.7397 0.0491584
-2.3949 1.73858 0.0484786
-2.39948 1.73748 0.0404145
-2.36083 1.73747 0.0516166
-2.38399 1.7364 0.0341996
-2.40811 1.73427 0.0186311
-2.37955 1.73322 0.0270434
-2.41831 1.7322 0.00176865
-2.46655 1.7312 -0.0282765
-2.38237 1.73021 0.00785343
-2.39195 1.72924 -0.00293061
-2.39769 1.72935 -0.0141592
-2.42174 1.7283 -0.0319646
-2.47903 1.72737 -0.0666641
-2.33648 1.72646 -0.00148038
-2.4381 1.72557 -0.0584088
-2.40039 1.72469 -0.0457112
-2.41151 1.72384 -0.0574578
-2.43716 1.723 -0.0765079
-2.40241 1.72219 -0.065389
-2.35908 1.72139 -0.0500133
-2.39333 1.72061 -0.0734595
-2.43839 1.71985 -0.102348
-2.44188 1.7191 -0.110479
-2.42247 1.71942 -0.109555
-2.33273 1.71838 -0.0703959
-2.43835 1.71767 -0.129655
-2.44931 1.71734 -0.14244
-2.45244 1.71668 -0.150561
-2.42026 1.71604 -0.141061
-2.503 1.71644 -0.191409
-2.38986 1.71583 -0.141495
-2.42531 1.71523 -0.165901
-2.33927 1.71568 -0.131963
-2.35913 1.71511 -0.14864
-2.49085 1.71505 -0.2224
-2.34752 1.71555 -0.159943
-2.36862 1.71504 -0.177364
-2.33188 1.71508 -0.167136
-2.32831 1.71563 -0.17468
-2.35155 1.71574 -0.194616
-2.43139 1.71632 -0.243945
-2.36889 1.7175 -0.223542
-2.24186 1.71772 -0.168595
-2.35904 1.71834 -0.236725
-2.37095 1.72027 -0.255296
-2.35344 1.72159 -0.257744
-2.34243 1.72599 -0.270782
-2.10359 1.85236 0.376744
-2.19845 1.84614 0.332692
-2.12876 1.84247 0.366027
-2.1377 1.83699 0.363596
-2.17673 1.83336 0.342581
-2.16979 1.82974 0.34455
-2.16498 1.82615 0.345439
-2.20748 1.82259 0.322656
-2.24236 1.81905 0.303657
-2.23025 1.81617 0.306894
-2.20832 1.81381 0.314044
-2.25513 1.81036 0.288993
-2.31901 1.80812 0.253048
-2.28711 1.80584 0.265099
-2.28149 1.80303 0.265067
-2.21869 1.80081 0.292481
-2.2753 1.79858 0.260241
-2.33825 1.79641 0.224728
-2.3063 1.79418 0.236801
-2.34892 1.79158 0.21236
-2.31198 1.79047 0.224712
-2.28574 1.78778 0.234928
-2.3302 1.78577 0.208435
-2.31481 1.78355 0.212301
-2.34966 1.78202 0.189684
-2.35285 1.7801 0.183696
-2.39861 1.77789 0.157037
-2.30061 1.7764 0.200792
-2.35306 1.77493 0.169306
-2.42465 1.77313 0.128926
-2.36903 1.77093 0.153009
-2.27993 1.76951 0.192237
-2.24002 1.76811 0.206848
-2.32382 1.76672 0.159581
-2.34504 1.76509 0.144117
-2.43693 1.76376 0.0927242
-2.41722 1.76267 0.0966345
-2.39153 1.76026 0.106305
-2.35795 1.75896 0.117609
-2.42995 1.75769 0.0760915
-2.31435 1.75643 0.128351
-2.44794 1.75519 0.0559826
-2.37363 1.75302 0.0895535
-2.44161 1.7518 0.0499749
-2.48063 1.7506 0.0248507
-2.35174 1.74941 0.0836491
-2.32856 1.74933 0.0872526
-2.37431 1.74717 0.060842
-2.4267 1.74603 0.0289468
-2.34936 1.74491 0.0618887
-2.37935 1.7438 0.0411355
-2.36666 1.74272 0.0416887
-2.46158 1.74165 -0.0115936
-2.43535 1.74058 -0.00427822
-2.40076 1.73954 0.00716494
-2.37702 1.73851 0.0131544
-2.46378 1.73751 -0.0361405
-2.41264 1.73652 -0.0165135
-2.38067 1.73555 -0.00650931
-2.36918 1.7346 -0.00677924
-2.33673 1.73368 0.0034025
-2.46547 1.73277 -0.0670495
-2.39473 1.73171 -0.0374164
-2.38208 1.73082 -0.0372021
-2.41249 1.72995 -0.0585464
-2.43577 1.72909 -0.0763608
-2.45628 1.72826 -0.0928228
-2.42973 1.72745 -0.0857926
-2.4092 1.7277 -0.0841608
-2.38714 1.72692 -0.0794402
-2.45227 1.72616 -0.118352
-2.49559 1.72541 -0.146389
-2.3654 1.72469 -0.0877044
-2.40244 1.72398 -0.112672
-2.47813 1.72433 -0.159359
-2.4598 1.72329 -0.155874
-2.39018 1.723 -0.12844
-2.4288 1.72235 -0.154326
-2.36473 1.72173 -0.128902
-2.42694 1.72215 -0.169019
-2.3621 1.72156 -0.14327
-2.27676 1.72098 -0.107303
-2.37949 1.72193 -0.168886
-2.3255 1.7209 -0.147551
-2.36051 1.72087 -0.173026
-2.41391 1.72139 -0.208964
-2.36054 1.7209 -0.189162
-2.32256 1.72199 -0.18076
-2.34197 1.72153 -0.19744
-2.32652 1.72269 -0.200467
-2.36033 1.72288 -0.225849
-2.35092 1.72411 -0.232097
-2.32656 1.72539 -0.230963
-2.33998 1.72735 -0.250371
-2.33808 1.7287 -0.260665
-2.28822 1.73316 -0.254398
-2.10085 1.86533 0.363996
-2.06647 1.85723 0.388139
-2.17961 1.85098 0.335015
-2.13361 1.84546 0.360105
-2.17464 1.8418 0.338126
-2.20076 1.83816 0.323604
-2.19117 1.83454 0.326928
-2.19611 1.83094 0.322973
-2.2646 1.82737 0.287215
-2.23469 1.82384 0.30063
-2.2806 1.82158 0.273653
-2.20751 1.8186 0.307616
-2.32991 1.81575 0.243615
-2.35091 1.81403 0.228082
-2.19502 1.81064 0.304354
-2.22279 1.80839 0.28654
-2.21223 1.80616 0.287863
-2.25024 1.80451 0.263786
-2.30447 1.80175 0.233832
-2.27389 1.79962 0.245031
-2.32654 1.79738 0.214858
-2.30281 1.79531 0.222558
-2.40574 1.79374 0.165941
-2.33715 1.79151 0.19643
-2.33493 1.78953 0.193256
-2.30916 1.788 0.200944
-2.43819 1.78649 0.131216
-2.3233 1.78389 0.185697
-2.30878 1.78241 0.187706
-2.32642 1.78095 0.173617
-2.32753 1.77873 0.169357
-2.24871 1.77697 0.204148
-2.31577 1.77556 0.165288
-2.38733 1.77417 0.12415
-2.43676 1.77197 0.0957786
-2.36933 1.7706 0.124128
-2.36644 1.76924 0.120179
-2.33965 1.76791 0.128153
-2.41094 1.76659 0.0870656
-2.36684 1.76529 0.103648
-2.36084 1.76384 0.101508
-2.40796 1.76275 0.0720682
-2.44075 1.76056 0.0521109
-2.44022 1.75932 0.0468333
-2.42094 1.7581 0.0509031
-2.32109 1.7569 0.0952293
-2.3991 1.75572 0.0505919
-2.42873 1.75455 0.0301187
-2.39565 1.75341 0.0409677
-2.46711 1.75228 -0.000480703
-2.41957 1.75117 0.0175347
-2.30104 1.75009 0.0710171
-2.32393 1.74793 0.056114
-2.45527 1.74794 -0.0176976
-2.42802 1.74686 -0.0098471
-2.38836 1.74582 0.00414547
-2.38076 1.74479 0.00208249
-2.51425 1.74379 -0.0705654
-2.32573 1.7428 0.0177635
-2.41913 1.74183 -0.0349036
-2.42816 1.74088 -0.0454148
-2.42048 1.73981 -0.0473073
-2.4046 1.73889 -0.0453908
-2.40004 1.73798 -0.0491706
-2.3891 1.73709 -0.0497954
-2.50714 1.73622 -0.114946
-2.48345 1.73536 -0.109261
-2.40845 1.73453 -0.0779604
-2.43132 1.73372 -0.0956227
-2.41392 1.73292 -0.0931893
-2.50871 1.73214 -0.14688
-2.52349 1.73138 -0.160604
-2.3971 1.73169 -0.106144
-2.46328 1.73097 -0.145636
-2.44388 1.73026 -0.142366
-2.42771 1.72957 -0.140752
-2.40319 1.7289 -0.134991
-2.5044 1.72928 -0.194505
-2.4453 1.72864 -0.171517
-2.41755 1.72802 -0.164243
-2.42506 1.72741 -0.174626
-2.46992 1.72786 -0.206101
-2.3651 1.72728 -0.160384
-2.43299 1.7272 -0.202175
-2.44848 1.72667 -0.216712
-2.36645 1.72718 -0.1849
-2.44567 1.7271 -0.232344
-2.36074 1.72765 -0.199167
-2.34363 1.72877 -0.201253
-2.3568 1.72763 -0.213192
-2.30795 1.72939 -0.2009
-2.41158 1.72884 -0.259471
-2.37064 1.73008 -0.24993
-2.37895 1.73135 -0.265112
-2.30836 1.73331 -0.24249
-2.37828 1.73466 -0.288677
-2.28525 1.73929 -0.261186
-2.05392 1.87646 0.3769
-2.08756 1.86576 0.371978
-2.14608 1.85947 0.346208
-2.14347 1.85392 0.349651
-2.27003 1.85023 0.284943
-2.14416 1.84656 0.346455
-2.16726 1.84223 0.33479
-2.28075 1.83928 0.275288
-2.26533 1.83568 0.281531
-2.29152 1.83211 0.266947
-2.26985 1.82984 0.27378
-2.25866 1.82683 0.276855
-2.26208 1.82335 0.273567
-2.24519 1.82163 0.276993
-2.36532 1.81879 0.214145
-2.32468 1.81652 0.23056
-2.34479 1.81372 0.21769
-2.2884 1.81147 0.242009
-2.37171 1.80929 0.196354
-2.31812 1.80765 0.218071
-2.2969 1.8049 0.225847
-2.29437 1.80283 0.222959
-2.30745 1.8017 0.210358
-2.38818 1.79901 0.167134
-2.35822 1.79702 0.177841
-2.32592 1.79478 0.190239
-2.32924 1.79325 0.183404
-2.30879 1.79135 0.189225
-2.39353 1.78987 0.141612
-2.38917 1.78764 0.140098
-2.38792 1.78618 0.135473
-2.31212 1.78473 0.168108
-2.39144 1.78299 0.123783
-2.33475 1.78189 0.146189
-2.29679 1.77938 0.162127
-2.41011 1.77801 0.100112
-2.28709 1.77665 0.156242
-2.33866 1.77531 0.125049
-2.44981 1.7731 0.0658884
-2.43505 1.77178 0.0678479
-2.40093 1.77048 0.0794547
-2.36609 1.7692 0.0914012
-2.40227 1.76794 0.067806
-2.38586 1.76669 0.0704777
-2.30882 1.76547 0.103439
-2.43721 1.76426 0.0336514
-2.42629 1.76307 0.0334911
-2.40164 1.76089 0.0423323
-2.41717 1.75973 0.0289282
-2.39278 1.75963 0.0332063
-2.43105 1.75852 0.00832993
-2.33462 1.75743 0.050756
-2.4361 1.75635 -0.00574829
-2.3953 1.75418 0.0112224
-2.42139 1.75311 -0.00761624
-2.46159 1.75207 -0.0335366
-2.47748 1.75104 -0.0473419
-2.44461 1.75003 -0.0367965
-2.41345 1.75012 -0.0294866
-2.35893 1.74904 -0.00795702
-2.4396 1.747 -0.0518861
-2.44991 1.74605 -0.0630269
-2.4131 1.74512 -0.0506392
-2.35711 1.74421 -0.0286945
-2.41552 1.74439 -0.0663492
-2.41485 1.74332 -0.0717026
-2.45752 1.74245 -0.0991551
-2.42309 1.7416 -0.0880861
-2.41129 1.74077 -0.088375
-2.47438 1.73995 -0.126139
-2.35985 1.73916 -0.0751237
-2.44403 1.73838 -0.1235
-2.42459 1.73762 -0.1201
-2.43185 1.73688 -0.130086
-2.42354 1.73616 -0.132319
-2.53058 1.7365 -0.194639
-2.47212 1.73582 -0.171866
-2.39429 1.73514 -0.139443
-2.54155 1.73449 -0.219592
-2.42601 1.7349 -0.170765
-2.40436 1.73427 -0.166529
-2.35254 1.73367 -0.147239
-2.40093 1.73458 -0.181543
-2.42274 1.73345 -0.197848
-2.46681 1.73279 -0.226372
-2.31252 1.73264 -0.156873
-2.41358 1.73315 -0.21658
-2.45879 1.73306 -0.246981
-2.43294 1.7336 -0.243319
-2.32248 1.73472 -0.1987
-2.42866 1.73357 -0.257117
-2.32419 1.73532 -0.216988
-2.34993 1.73477 -0.236576
-2.40502 1.736 -0.275028
-2.29983 1.73727 -0.233432
-2.40872 1.73924 -0.300531
-2.41188 1.74058 -0.313319
-2.34447 1.74523 -0.298637
-2.03452 1.87614 0.389316
-2.11903 1.86795 0.354174
-2.16259 1.86422 0.330993
-2.06061 1.85864 0.384171
-2.29688 1.85425 0.265998
-2.22936 1.85058 0.298352
-2.30789 1.84693 0.257666
-2.15755 1.84332 0.331398
-2.24663 1.84038 0.284127
-2.18082 1.83745 0.314311
-2.24823 1.83504 0.276887
-2.26388 1.83153 0.267537
-2.26953 1.82925 0.26079
-2.31308 1.82692 0.235212
-2.26997 1.82407 0.254022
-2.41472 1.82181 0.177759
-2.29019 1.81954 0.236171
-2.33723 1.8168 0.209748
-2.32004 1.81567 0.212264
-2.35259 1.8124 0.194193
-2.30648 1.81079 0.212165
-2.39718 1.80853 0.163038
-2.24575 1.80648 0.234585
-2.31078 1.80422 0.198327
-2.35412 1.80266 0.171539
-2.28673 1.8007 0.200939
-2.40485 1.79917 0.136704
-2.29368 1.79693 0.1886
-2.28737 1.79543 0.18657
-2.36223 1.79359 0.144651
-2.35633 1.79136 0.143957
-2.42444 1.78991 0.104657
-2.39599 1.78848 0.113616
-2.37397 1.78706 0.119333
-2.37874 1.78566 0.111635
-2.43806 1.78403 0.0771605
-2.39691 1.78292 0.0918528
-2.3482 1.78158 0.110815
-2.3348 1.77915 0.114417
-2.45523 1.77784 0.0487611
-2.43786 1.77656 0.0519822
-2.3859 1.77529 0.0724651
-2.35336 1.77404 0.0832167
-2.4438 1.77281 0.0324458
-2.37997 1.7716 0.058778
-2.40773 1.7705 0.0390888
-2.46565 1.76931 0.00452996
-2.36842 1.76712 0.0496899
-2.42783 1.76595 0.0143591
-2.33026 1.76481 0.0574908
-2.4552 1.76368 -0.0106666
-2.41175 1.76257 0.00534007
-2.47695 1.76148 -0.0330083
-2.40019 1.76039 -0.000372991
-2.42859 1.75933 -0.0203521
-2.4455 1.75828 -0.0346161
-2.36689 1.75725 -0.00115001
-2.44503 1.75624 -0.0460972
-2.5074 1.75525 -0.0831902
-2.46433 1.75417 -0.0673581
-2.49286 1.75321 -0.0875563
-2.40778 1.75226 -0.0509892
-2.43388 1.75133 -0.0700452
-2.4679 1.75042 -0.0930912
-2.42736 1.74953 -0.0788947
-2.38564 1.74866 -0.0641462
-2.47263 1.74781 -0.113784
-2.44113 1.74804 -0.106584
-2.34615 1.74697 -0.0647423
-2.3805 1.74616 -0.088122
-2.42091 1.74536 -0.114568
-2.43461 1.74459 -0.127694
-2.44825 1.74383 -0.140825
-2.42386 1.74309 -0.134972
-2.42137 1.74237 -0.140105
-2.41762 1.74166 -0.144641
-2.48786 1.74203 -0.188597
-2.35319 1.74136 -0.127739
-2.39907 1.74063 -0.157018
-2.48098 1.73991 -0.204327
-2.49523 1.74033 -0.220408
-2.39195 1.73963 -0.175161
-2.41314 1.74054 -0.195829
-2.36938 1.7394 -0.179327
-2.43891 1.73873 -0.220542
-2.45309 1.73971 -0.237878
-2.39091 1.73907 -0.213298
-2.3821 1.73897 -0.216648
-2.39892 1.73951 -0.234298
-2.41326 1.73947 -0.249361
-2.40015 1.74004 -0.252129
-2.3672 1.74122 -0.24639
-2.4379 1.74127 -0.28986
-2.4246 1.74189 -0.292661
-2.36369 1.74316 -0.273184
-2.27467 1.74512 -0.241301
-2.3154 1.74647 -0.272859
-2.35566 1.75113 -0.312007
-2.13236 1.88724 0.329834
-2.19795 1.8764 0.309166
-2.15745 1.87265 0.32804
-2.16237 1.86704 0.327819
-2.19767 1.86261 0.31018
-2.16553 1.85892 0.324884
-2.23571 1.85524 0.288416
-2.2744 1.85159 0.267678
-2.30677 1.84798 0.250076
-2.32224 1.84503 0.239641
-2.17915 1.84325 0.306251
-2.18532 1.8397 0.301692
-2.24388 1.8368 0.269708
-2.23684 1.83446 0.269443
-2.32473 1.83159 0.222777
-2.33337 1.82988 0.213476
-2.19215 1.82704 0.281357
-2.33046 1.82482 0.20827
-2.30732 1.82254 0.21604
-2.32002 1.82037 0.205698
-2.31301 1.8181 0.205435
-2.28812 1.81598 0.21381
-2.34723 1.81438 0.179183
-2.38611 1.81279 0.154654
-2.36131 1.81009 0.164232
-2.38234 1.80812 0.149434
-2.38437 1.80699 0.142446
-2.38266 1.80434 0.140442
-2.41017 1.80283 0.121514
-2.4601 1.80134 0.0913542
-2.45524 1.79987 0.0885733
-2.37713 1.79762 0.124014
-2.38805 1.79585 0.113978
-2.37071 1.79443 0.117372
-2.37916 1.79303 0.107844
-2.33607 1.79079 0.125822
-2.37788 1.78941 0.0996062
-2.37027 1.78805 0.0980685
-2.47628 1.7867 0.0396975
-2.36709 1.78537 0.0888981
-2.40032 1.78407 0.0668602
-2.40956 1.78278 0.0567946
-2.4494 1.78151 0.0313991
-2.35502 1.77929 0.0751136
-2.40039 1.77804 0.0469352
-2.40429 1.77682 0.03946
-2.32075 1.77561 0.0756743
-2.38647 1.77442 0.0372286
-2.42581 1.77325 0.0119447
-2.49255 1.7721 -0.0270728
-2.41353 1.77097 0.00675869
-2.45644 1.76986 -0.0204071
-2.42582 1.76876 -0.0108293
-2.37753 1.76767 0.00759095
-2.43291 1.76658 -0.0258258
-2.38582 1.76551 -0.0080444
-2.46172 1.76446 -0.0517918
-2.49401 1.76343 -0.0737631
-2.40147 1.76242 -0.0333556
-2.42869 1.76133 -0.0526462
-2.40829 1.76035 -0.0483388
-2.42169 1.75938 -0.0609592
-2.37761 1.75843 -0.0448771
-2.44301 1.7575 -0.0835703
-2.46435 1.75659 -0.100267
-2.39765 1.7557 -0.0729753
-2.46512 1.75483 -0.112809
-2.3941 1.75398 -0.0834289
-2.35328 1.75315 -0.0691798
-2.45749 1.75233 -0.127485
-2.41494 1.75261 -0.11483
-2.45455 1.75154 -0.140253
