ply
format ascii 1.0
comment Created by Open3D
element vertex 1772
property double x
property double y
property double z
end_header
-0.327562 -0.0123836 0.160045
-0.199389 -0.0123757 0.216539
-0.373751 -0.0123687 0.12146
-0.289101 -0.012364 0.154999
-0.39268 -0.0123562 0.0956022
-0.0887094 -0.0123524 0.238505
-0.357506 -0.0123447 0.0964915
-0.100617 -0.0123409 0.215854
-0.110669 -0.0123333 0.203204
-0.306103 -0.0123295 0.0964062
-0.242946 -0.012322 0.120352
-0.256026 -0.0123148 0.106064
-0.228458 -0.0123108 0.110873
-0.142904 -0.0123035 0.146
-0.291797 -0.0122998 0.0624714
-0.436385 -0.0122925 -0.0174834
-0.208047 -0.0122889 0.0876026
-0.118282 -0.0122817 0.124814
-0.314805 -0.0122781 0.0174686
-0.161827 -0.012271 0.0862745
-0.242385 -0.0122674 0.0369105
-0.190532 -0.0122604 0.0551428
-0.223823 -0.0122569 0.0294106
-0.222101 -0.0122499 0.0225645
-0.101421 -0.012243 0.0751873
-0.198812 -0.0122396 0.017401
3.81101 0 2.62043
3.79553 0 2.61473
3.81018 0 2.61633
3.86542 0 2.63598
3.81694 0 2.60155
3.67155 0 2.51728
3.66608 0 2.50405
3.77079 0 2.5438
3.66217 0 2.47675
3.78846 0 2.52699
3.59273 0 2.4153
3.67191 0 2.44073
3.64321 0 2.41222
3.68531 0 2.4189
3.75345 0 2.43769
3.72468 0 2.40854
3.83261 0 2.44639
3.57969 0 2.30455
3.7675 0 2.3822
3.62656 0 2.29582
4.02098 0 2.47654
3.6748 0 2.28648
3.79737 0 2.33078
3.86748 0 2.34782
3.88265 0 2.33862
3.88172 0 2.31961
3.74978 0 2.23505
3.79579 0 2.23971
3.80399 0 2.22441
3.82956 0 2.21749
3.81816 0 2.19106
3.91249 0 2.2172
3.94542 0 2.21144
4.00799 0 2.21998
3.94161 0 2.16117
4.04102 0 2.18156
0.394375 0 1.45855
0.303106 0 1.42412
0.405488 0 1.47331
0.163074 0 1.35192
0.280496 0 1.40502
0.256929 0 1.39041
0.175529 0 1.3452
0.20943 0 1.35665
0.347209 0 1.42005
0.248957 0 1.36547
0.151191 0 1.31217
0.178019 0 1.32017
0.216882 0 1.33246
0.239398 0 1.33833
0.392687 0 1.40961
0.232337 0 1.32134
0.107131 0 1.25165
0.257291 0 1.3214
0.326154 0 1.34877
0.236731 0 1.29875
0.0515 0 1.19812
0.271692 0 1.30293
0.0965658 0 1.20834
0.208045 0 1.25611
0.12304 0 1.2066
-0.0656211 0 1.107
0.173038 0 1.2184
-0.132086 0 1.05884
0.0290224 0 1.1315
-0.0719047 0 1.07404
0.135508 0 1.1725
-0.0440399 0 1.07486
0.113714 0 1.14676
-0.0130438 0 1.07553
-0.041061 0 1.05455
0.135802 0 1.13516
0.0971321 0 1.10884
-0.174715 0 0.965118
-0.0648323 0 1.01308
-0.127037 0 0.974197
0.00949426 0 1.03548
0.127797 0 1.08687
-0.201928 0 0.914253
-0.000161125 0 1.00816
0.0666619 0 1.03383
0.00133264 0 0.994186
0.0315695 0 1.00158
-0.128295 0 0.914657
-0.059994 0 0.941103
-0.0801515 0 0.923326
-0.149839 0 0.881483
-0.0278442 0 0.933071
0.0547407 0 0.966687
-0.100314 0 0.882155
0.0810509 0 0.965175
0.132141 0 0.983063
0.00355892 0 0.911755
-0.205497 0 0.799582
-0.0421843 0 0.871883
0.0533786 0 0.912635
-0.1597 0 0.798469
-0.00214315 0 0.869624
-0.0797708 0 0.823763
-0.0837334 0 0.813598
-0.160209 0 0.766617
-0.0865889 0 0.79636
-0.105296 0 0.779408
-0.11565 0 0.766636
-0.151061 0 0.739643
-0.134475 0 0.740849
-0.0674096 0 0.7668
-0.098746 0 0.743553
-0.112319 0 0.727502
0.0342759 0 0.79369
-0.138571 0 0.699698
-0.220318 0 0.651259
-0.0378022 0 0.733275
-0.0109929 0 0.73954
-0.230016 0 0.622472
-0.0812128 0 0.689318
-0.153027 0 0.64419
-0.225024 0 0.601018
-0.212794 0 0.599585
-0.234803 0 0.579373
-0.0959499 0 0.641257
-0.286472 0 0.538454
-0.16134 0 0.593109
-0.15089 0 0.589843
-0.226819 0 0.544341
-0.0900103 0 0.604882
-0.0792053 0 0.601433
-0.0631539 0 0.602206
-0.0880635 0 0.581936
-0.128948 0 0.552607
-0.107414 0 0.555841
-0.249405 0 0.477037
-0.282675 0 0.451522
-0.263144 0 0.453984
-0.268947 0 0.443052
-0.196466 0 0.470643
-0.211839 0 0.455424
-0.174212 0 0.465098
-0.237649 0 0.425848
-0.303791 0 0.385415
-0.211502 0 0.422428
-0.303327 0 0.36898
-0.269658 0 0.378275
-0.240892 0 0.383535
-0.206197 0 0.393343
-0.000787016 0 0.48693
-0.125009 0 0.417279
-0.0766482 0 0.434025
-0.282776 0 0.32185
-0.282414 0 0.314482
-0.121925 0 0.386917
-0.158592 0 0.359734
-0.162431 0 0.350259
-0.181162 0 0.331791
-0.244268 0 0.29268
-0.244501 0 0.283465
-0.172279 0 0.312014
-0.117361 0 0.331946
-0.364508 0 0.199276
-0.111364 0 0.318273
-0.325211 0 0.202257
-0.0284257 0 0.34307
-0.191751 0 0.253821
-0.151352 0 0.26493
-0.235956 0 0.215037
-0.144628 0 0.251612
-0.365983 0 0.133337
-0.370416 0 0.122034
-0.108351 0 0.245461
-0.154173 0 0.214937
-0.187243 0 0.189317
-0.146968 0 0.201834
-0.239182 0 0.146643
-0.22454 0 0.146335
-0.0186554 0 0.240194
-0.170081 0 0.156843
-0.236603 0 0.114499
-0.298529 0 0.0758906
-0.289088 0 0.0729581
-0.31541 0 0.0507135
-0.156147 0 0.122682
-0.306146 0 0.0385986
-0.140168 0 0.113913
-0.34758 0 0.00112241
-0.244298 0 0.0450784
-0.177376 0 0.0694533
-0.218194 0 0.0413473
-0.205461 0 0.0386259
-0.37829 0 -0.0554978
-0.416398 0 -0.0836414
-0.178825 0 0.0274233
3.76668 0.0189229 2.61547
3.88433 0.0188673 2.67071
3.76006 0.0188313 2.60064
3.72529 0.0188018 2.57389
3.76171 0.0187766 2.58182
3.68656 0.0187608 2.53182
3.68687 0.0187373 2.52136
3.62893 0.0187231 2.47968
3.65163 0.0187096 2.47817
3.59916 0.0187002 2.43813
3.78051 0.0186923 2.5147
3.64816 0.0186844 2.43442
3.71117 0.0186774 2.4516
3.60682 0.0186742 2.38423
3.71052 0.0186685 2.42146
3.72901 0.0186664 2.41526
3.65811 0.0186658 2.36402
3.58117 0.0186649 2.30982
3.74599 0.0186661 2.376
3.86046 0.0186684 2.41673
3.74211 0.0186705 2.3411
3.69699 0.0186769 2.30101
3.79951 0.0186825 2.33495
3.73784 0.0186886 2.28666
3.75231 0.0186957 2.27618
3.74529 0.0187062 2.25412
3.82651 0.0187153 2.27648
3.7609 0.0187287 2.22437
3.91082 0.0187432 2.2797
3.78883 0.0187615 2.19812
4.013 0.0187787 2.28984
4.03376 0.0188021 2.27828
3.81757 0.0188276 2.14768
3.97992 0.0188593 2.20473
4.00241 0.0189014 2.18916
3.98594 0.0189981 2.14007
0.34555 0.0139992 1.46525
0.357579 0.0139326 1.47699
0.457281 0.0138894 1.52645
0.329056 0.0138563 1.45933
0.141727 0.0138333 1.35999
0.242319 0.0138067 1.40564
0.23942 0.0137737 1.4013
0.351975 0.0137508 1.45201
0.231681 0.013728 1.38631
0.235126 0.0137016 1.3835
0.261677 0.0136789 1.39127
0.203843 0.0136563 1.35687
0.227694 0.0136337 1.36333
0.24473 0.0136176 1.36466
0.233926 0.0135952 1.35382
0.188874 0.0135729 1.32587
0.0891646 0.0135569 1.26887
0.194935 0.0135348 1.31635
-0.00200296 0.0135223 1.20981
0.310269 0.0135066 1.35883
0.223417 0.0134847 1.31003
0.257758 0.0134723 1.31918
0.205942 0.0134506 1.28792
-0.0330182 0.0134351 1.16136
-0.0052672 0.0134229 1.16725
0.0795499 0.0134075 1.20258
0.192176 0.0133862 1.25357
0.0628055 0.013374 1.18094
0.159643 0.0133589 1.2223
0.00931105 0.0133468 1.13922
0.0443272 0.0133318 1.14968
0.00908052 0.013311 1.12674
0.218052 0.013299 1.22335
0.216863 0.0132843 1.2157
-0.11764 0.0132724 1.0406
-0.0988001 0.0132579 1.04297
-0.0285936 0.0132461 1.07024
0.038947 0.0132317 1.09696
0.0483733 0.0132199 1.09386
-0.0790078 0.0132057 1.02312
-0.0212409 0.013194 1.04421
-0.154439 0.0131799 0.97056
0.0575296 0.0131684 1.06877
0.00941859 0.0131568 1.03695
0.00199589 0.0131429 1.02619
0.020117 0.0131315 1.0275
-0.134958 0.0131178 0.942903
-0.0847361 0.0131064 0.960281
0.10462 0.0130951 1.04723
0.0797157 0.0130816 1.02772
-0.0597703 0.0130703 0.950269
-0.0103286 0.0130571 0.967917
-0.131834 0.0130459 0.899468
0.0516513 0.0130403 0.981795
-0.09659 0.0130272 0.900595
-0.00235467 0.0130162 0.940038
0.0269812 0.0130051 0.947038
0.0148353 0.0129923 0.933872
-0.0122173 0.0129813 0.912689
-0.1921 0.0129704 0.815098
0.124983 0.0129614 0.965425
-0.240089 0.0129525 0.77464
1.25519e-06 0.0129417 0.887053
-0.0267144 0.0129293 0.866569
0.058649 0.0129186 0.901627
-0.0185287 0.0129079 0.85542
-0.245489 0.0129026 0.732621
-0.118059 0.0128906 0.789193
-0.024754 0.01288 0.828242
-0.174117 0.0128695 0.74596
-0.185567 0.0128605 0.732176
-0.148344 0.0128525 0.742389
-0.121733 0.0128421 0.748107
-0.21814 0.0128306 0.692707
0.0798877 0.0128215 0.833753
-0.151138 0.0128151 0.709361
-0.0947358 0.0128049 0.729989
-0.178009 0.0127937 0.681126
-0.0128884 0.0127857 0.755393
-0.277221 0.0127785 0.614708
-0.179491 0.0127684 0.656011
-0.138964 0.0127584 0.668715
-0.0715529 0.0127525 0.693492
-0.135767 0.0127426 0.65383
-0.225212 0.0127327 0.601554
-0.204468 0.0127237 0.604082
-0.0632525 0.0127179 0.665774
-0.113245 0.0127074 0.633482
-0.0592918 0.0126976 0.652911
-0.0821669 0.0126928 0.632278
-0.129753 0.0126831 0.600943
-0.191077 0.0126729 0.56294
-0.174198 0.0126681 0.562196
-0.182081 0.0126586 0.550715
-0.175582 0.0126491 0.546424
-0.242561 0.0126444 0.503764
-0.208142 0.012635 0.513437
-0.226035 0.0126252 0.497098
-0.203551 0.0126205 0.499179
-0.209328 0.0126112 0.488754
-0.132929 0.012602 0.519415
-0.00827901 0.0125974 0.572589
0.0170296 0.0125882 0.577707
0.082152 0.0125791 0.60273
-0.239808 0.0125743 0.432696
-0.238844 0.0125653 0.425638
-0.0956425 0.0125566 0.489616
-0.141856 0.0125519 0.457457
-0.252048 0.0125429 0.394819
-0.155283 0.0125385 0.434073
-0.22365 0.0125296 0.392374
-0.249769 0.0125208 0.371766
-0.334899 0.0125165 0.32008
-0.138732 0.0125078 0.410614
-0.526704 0.0124992 0.20906
-0.100332 0.0124948 0.413147
-0.040079 0.0124862 0.435719
-0.0328188 0.012482 0.430238
-0.237645 0.0124735 0.320268
-0.0496286 0.012465 0.406715
-0.155479 0.0124608 0.344685
-0.378655 0.0124524 0.225534
-0.256783 0.0124483 0.27737
-0.104404 0.01244 0.345994
-0.122596 0.0124318 0.329319
-0.139974 0.0124277 0.311533
-0.0783827 0.0124195 0.334751
-0.280124 0.0124154 0.224786
-0.250863 0.0124074 0.231833
-0.175522 0.0124033 0.260412
-0.227358 0.0123953 0.226905
-0.175245 0.0123874 0.245366
-0.137299 0.0123834 0.25525
-0.163851 0.0123756 0.234372
-0.138539 0.0123717 0.237941
-0.164462 0.0123639 0.217371
-0.0666918 0.01236 0.257169
-0.185427 0.0123523 0.190186
-0.273982 0.0123449 0.13819
-0.287508 0.0123411 0.122339
-0.0649992 0.0123335 0.225959
-0.124443 0.0123297 0.18715
-0.412708 0.0123223 0.0353734
-0.350449 0.0123185 0.0574164
-0.242555 0.0123111 0.10371
-0.128075 0.0123038 0.153289
-0.412279 0.0123001 0.00209855
-0.112934 0.0122929 0.144099
-0.0833749 0.0122893 0.14979
-0.209757 0.0122821 0.0789163
-0.188687 0.0122785 0.0803614
-0.114619 0.0122714 0.109702
-0.0733166 0.0122679 0.121262
-0.152856 0.0122609 0.0737866
-0.219216 0.0122574 0.0315145
-0.131478 0.0122504 0.0676653
-0.203829 0.012247 0.0223958
-0.14702 0.0122402 0.0430697
3.67622 0.0378916 2.58126
3.73003 0.0377421 2.60883
3.78562 0.0376508 2.63084
3.68877 0.03758 2.57437
3.74285 0.0375401 2.58992
3.76597 0.0374907 2.5911
3.56836 0.0374434 2.48171
3.69791 0.0374146 2.53381
3.71099 0.0373873 2.52753
3.77377 0.0373616 2.54594
3.83477 0.0373521 2.56158
3.87212 0.0373292 2.56698
3.62896 0.037315 2.43113
3.55832 0.0373087 2.38061
3.78687 0.0372977 2.48025
3.77637 0.0372937 2.45955
3.6478 0.0372927 2.37945
3.70814 0.0372911 2.39388
3.72092 0.0372937 2.38402
3.78783 0.0372973 2.40112
3.76841 0.037303 2.37479
3.66596 0.0373123 2.3065
3.73969 0.0373219 2.32625
3.83279 0.0373339 2.3554
3.72186 0.0373531 2.28163
3.74669 0.0373683 2.27622
3.74085 0.037386 2.25516
3.8572 0.0374122 2.29411
3.91071 0.0374408 2.30133
3.79549 0.0374718 2.22387
3.89992 0.0375109 2.25517
3.88602 0.0375528 2.22694
3.7769 0.0376027 2.15005
3.88231 0.0376626 2.17912
4.06504 0.0377447 2.24399
4.06094 0.03785 2.21241
0.438541 0.0280547 1.54023
0.564808 0.0279686 1.60271
0.405446 0.0278749 1.52344
0.341226 0.0278086 1.48821
0.189366 0.0277422 1.40922
0.327818 0.027676 1.47543
0.264932 0.02763 1.43831
0.265934 0.0275841 1.43317
0.218409 0.0275311 1.40475
0.238553 0.0274854 1.40923
0.278746 0.0274399 1.42375
0.197615 0.0273945 1.37763
0.180014 0.0273492 1.36329
0.27273 0.0273168 1.4024
0.352031 0.0272718 1.43655
0.20736 0.027227 1.35872
0.175752 0.0271951 1.3357
0.302568 0.0271506 1.39364
0.186218 0.0271064 1.33001
0.0664374 0.0270813 1.26203
-0.0889283 0.0270499 1.17718
0.114486 0.0270061 1.27346
0.168476 0.0269813 1.29241
0.147176 0.0269502 1.27461
0.00112921 0.026907 1.19618
0.272254 0.0268824 1.32374
0.199549 0.0268518 1.28026
0.0140084 0.0268092 1.1821
0.0107759 0.0267848 1.17252
0.0516128 0.0267547 1.18582
0.179643 0.0267304 1.2419
0.168618 0.0267006 1.22927
0.05804 0.0266765 1.16608
-0.0694275 0.0266349 1.09698
-0.00953959 0.0266057 1.1198
0.0511635 0.0265818 1.14228
0.0854954 0.0265529 1.15233
0.117343 0.0265291 1.16041
-0.000355704 0.0265005 1.09444
0.0528062 0.0264769 1.11319
0.0288523 0.0264486 1.0941
0.084065 0.0264251 1.1139
-0.14047 0.0264017 0.993827
-0.0171089 0.0263739 1.04839
0.163246 0.0263506 1.13079
-0.0550291 0.0263231 1.01453
-0.00151917 0.0263 1.03352
-0.0612334 0.0262729 0.996537
-0.115207 0.02625 0.961803
-0.121699 0.0262271 0.950817
0.0657535 0.0262005 1.03741
-0.0461729 0.0261778 0.973722
-0.198229 0.0261515 0.890546
-0.0362648 0.026129 0.963819
0.0274651 0.0261065 0.987982
0.00861425 0.0260919 0.969672
-0.0588157 0.0260696 0.928269
-0.126349 0.0260474 0.886822
-0.322244 0.026022 0.781704
-0.0819863 0.0259999 0.894164
-0.0883584 0.025978 0.883315
-0.041914 0.0259531 0.89935
-0.0313482 0.0259375 0.89601
-0.113686 0.0259204 0.846452
-0.0143553 0.025896 0.888912
0.0425403 0.0258745 0.909725
0.0746009 0.025853 0.918125
-0.129605 0.0258316 0.808397
-0.039909 0.0258185 0.844315
-0.0650585 0.0257972 0.824125
-0.0269522 0.025776 0.835568
-0.0910311 0.0257528 0.796277
-0.106324 0.0257364 0.780284
-0.26067 0.0257213 0.69456
-0.111401 0.0256985 0.761915
-0.152294 0.0256778 0.733877
0.00356525 0.025659 0.803908
-0.0615113 0.0256468 0.762409
0.0391392 0.0256247 0.805425
-0.0285252 0.0256042 0.764014
-0.208581 0.0255855 0.666145
-0.0531607 0.0255738 0.734872
0.0300497 0.0255536 0.768909
-0.327128 0.0255321 0.582976
-0.137067 0.025515 0.669962
-0.190371 0.0255022 0.63456
-0.204637 0.0254823 0.619868
-0.106233 0.0254625 0.661512
-0.167134 0.0254517 0.622019
-0.214856 0.0254321 0.590604
-0.226256 0.0254125 0.577351
-0.0767206 0.0254028 0.642917
-0.163301 0.0253827 0.5922
-0.169493 0.0253634 0.581555
-0.108301 0.0253538 0.602961
-0.0749545 0.0253347 0.612089
-0.29542 0.0253157 0.494311
-0.0562425 0.0252974 0.606246
-0.138418 0.0252869 0.556157
-0.204663 0.0252682 0.515489
-0.101997 0.0252588 0.557654
-0.261676 0.0252402 0.470273
-0.139209 0.0252216 0.523964
-0.0556759 0.0252035 0.558136
-0.142247 0.025194 0.505751
-0.0265049 0.0251757 0.556077
-0.069947 0.0251666 0.525208
-0.228357 0.0251485 0.438462
-0.0183269 0.0251304 0.535935
-0.183365 0.0251214 0.444278
-0.213387 0.0251035 0.421725
-0.401648 0.0250857 0.320049
-0.318637 0.0250769 0.352426
-0.0712899 0.0250593 0.468533
-0.0701116 0.0250505 0.459997
-0.107968 0.0250331 0.43352
-0.0392132 0.0250157 0.460344
-0.1709 0.025007 0.385383
-0.194891 0.0249898 0.365833
-0.212529 0.0249727 0.349456
-0.34607 0.0249641 0.273574
-0.233589 0.0249472 0.322254
-0.261734 0.0249392 0.298981
-0.248896 0.0249224 0.297833
-0.271104 0.0249057 0.279158
-0.184362 0.0248974 0.313424
-0.297719 0.0248809 0.24917
-0.098964 0.0248726 0.339446
-0.228109 0.0248562 0.267294
-0.179402 0.02484 0.284063
-0.146478 0.0248319 0.291427
-0.279409 0.0248157 0.217372
-0.0982541 0.0248077 0.298853
-0.167911 0.0247917 0.25643
-0.168795 0.0247847 0.246716
-0.0428792 0.0247689 0.302069
-0.321817 0.0247533 0.154988
-0.256709 0.0247454 0.178449
-0.102926 0.0247299 0.247721
-0.194491 0.0247222 0.192847
-0.177998 0.0247068 0.193467
-0.086932 0.0246916 0.231366
-0.203481 0.024684 0.164
-0.3047 0.0246689 0.105749
-0.163122 0.0246614 0.167447
-0.159591 0.0246464 0.161561
-0.259625 0.024639 0.102454
-0.193483 0.0246242 0.127864
-0.197686 0.0246169 0.116672
-0.147867 0.0246023 0.133911
0.0510742 0.0245878 0.225703
-0.18916 0.0245806 0.0964931
-0.23149 0.0245663 0.0676388
-0.120411 0.0245591 0.114085
-0.162261 0.024545 0.0854586
-0.293601 0.0245379 0.0106939
-0.205321 0.0245239 0.0471213
-0.207153 0.024517 0.0371087
-0.118768 0.0245031 0.0735764
-0.268075 0.0244962 -0.0101753
-0.14995 0.0244826 0.0411497
3.57433 0.0566056 2.54767
3.73712 0.0564572 2.6241
3.67608 0.0563502 2.58558
3.69734 0.0562625 2.5868
3.75309 0.056188 2.60432
3.66276 0.0561314 2.54748
3.79703 0.0560873 2.60201
3.65958 0.0560452 2.52054
3.74327 0.0560053 2.54951
3.64124 0.0559677 2.48545
3.47792 0.0559432 2.38976
3.85693 0.0559213 2.56505
3.65837 0.0559013 2.45141
3.62557 0.0558929 2.41974
3.58438 0.0558859 2.38379
3.67243 0.0558758 2.41269
3.68761 0.0558792 2.4041
3.60896 0.055877 2.34904
3.6447 0.0558815 2.35064
3.73908 0.0558893 2.38129
3.6782 0.055903 2.33383
3.79747 0.0559182 2.37632
3.88458 0.0559341 2.40265
3.69775 0.0559628 2.29097
3.66656 0.0559848 2.25765
3.71245 0.0560198 2.26178
3.83396 0.056049 2.30417
3.96544 0.0560913 2.35047
3.93575 0.056137 2.31586
3.81127 0.0561862 2.23354
4.00261 0.0562569 2.30731
3.80065 0.056323 2.18478
3.97136 0.0564095 2.24683
3.87953 0.0565071 2.17662
3.99201 0.0566446 2.20514
0.332348 0.0422279 1.51046
0.530738 0.0420685 1.61148
0.319438 0.0419385 1.50517
0.354018 0.0418388 1.51924
0.358635 0.041739 1.51838
0.336781 0.0416697 1.50167
0.372479 0.0415702 1.51643
0.247905 0.0415011 1.44843
0.360237 0.0414216 1.49984
0.307439 0.0413528 1.46778
0.37976 0.0412843 1.49829
0.0649967 0.0412159 1.33529
0.315289 0.0411477 1.45483
0.230536 0.041099 1.40513
0.1346 0.0410313 1.35159
0.153996 0.0409638 1.35573
0.108692 0.0408967 1.32754
0.185899 0.0408488 1.35887
0.1174 0.0407822 1.3191
0.256828 0.0407443 1.38068
0.236969 0.0406781 1.36526
0.24281 0.0406311 1.36095
0.157566 0.0405935 1.31024
0.0658581 0.0405281 1.25892
0.00737589 0.0404817 1.22247
0.126867 0.040417 1.27675
0.0036214 0.0403798 1.20711
0.187179 0.0403342 1.29169
0.315279 0.0402972 1.34775
0.244305 0.0402336 1.30682
0.195981 0.0401887 1.27547
0.344801 0.0401521 1.34193
-0.0208308 0.0401076 1.15193
0.0896352 0.0400712 1.19924
0.239778 0.0400272 1.26714
0.00802841 0.0399655 1.14582
0.107642 0.0399294 1.18774
0.144703 0.0398863 1.19908
0.117638 0.0398505 1.17768
0.00945327 0.0398147 1.11573
0.0897791 0.0397722 1.14872
0.0992385 0.0397367 1.14561
0.116987 0.0396947 1.14731
0.112669 0.0396595 1.13733
0.00378034 0.039618 1.0757
-0.0750704 0.0395829 1.02848
0.00611204 0.039542 1.06188
0.0766102 0.0395072 1.08935
-0.101316 0.0394725 0.992611
0.0563097 0.0394323 1.06423
-0.265033 0.0393978 0.895802
0.0884102 0.0393581 1.06531
-0.0332845 0.0393239 0.996728
-0.00618062 0.0392848 1.00306
0.191035 0.0392509 1.09394
-0.0225977 0.039217 0.979405
-0.104394 0.0391882 0.930291
-0.174154 0.0391618 0.886963
-0.00035978 0.0391283 0.966164
-0.206701 0.0390906 0.855745
-0.111444 0.0390574 0.895691
-0.19033 0.0390242 0.848571
-0.112513 0.0389873 0.880213
0.0966128 0.0389583 0.976708
-0.137791 0.038938 0.850534
-0.212173 0.0389018 0.806058
0.0228728 0.0388693 0.915932
-0.200209 0.0388368 0.796748
-0.0238736 0.0388015 0.877606
-0.164844 0.0387758 0.798799
-0.179431 0.0387533 0.78286
-0.104994 0.0387213 0.812456
-0.114886 0.0386868 0.800177
-0.100983 0.0386551 0.799513
-0.0787181 0.0386393 0.801337
-0.0377259 0.0386078 0.814228
-0.263201 0.0385743 0.694131
-0.0775938 0.0385431 0.779335
-0.131804 0.0385142 0.744397
-0.166965 0.0384947 0.717972
-0.258575 0.0384638 0.664578
-0.226865 0.0384331 0.672847
-0.123052 0.0384043 0.71698
-0.262392 0.038386 0.638393
-0.392255 0.0383556 0.565884
-0.150178 0.0383254 0.679347
-0.0733473 0.0383103 0.708521
-0.13329 0.0382803 0.670981
-0.13173 0.0382496 0.664292
-0.150372 0.0382207 0.64731
0.0158467 0.0382051 0.72129
-0.225657 0.0381756 0.592978
-0.0373961 0.0381458 0.679593
-0.123364 0.0381177 0.628922
-0.0328853 0.038102 0.665081
-0.0917988 0.0380731 0.628067
-0.189668 0.0380445 0.571543
-0.0398976 0.0380298 0.637269
-0.167763 0.0380012 0.565784
0.0120018 0.0379727 0.648115
-0.202649 0.0379585 0.531609
-0.180715 0.0379302 0.535028
-0.184068 0.0379021 0.525804
-0.27174 0.0378881 0.472799
-0.166448 0.0378602 0.5179
-0.202106 0.0378324 0.492524
-0.315705 0.0378189 0.426529
-0.120082 0.0377913 0.516793
-0.211438 0.037764 0.463566
-0.168919 0.0377503 0.475675
-0.172928 0.0377231 0.466123
-0.132907 0.0376961 0.478584
-0.152954 0.0376827 0.459419
-0.269307 0.0376568 0.393588
-0.286078 0.0376434 0.376066
-0.252 0.0376169 0.385552
-0.160341 0.0375905 0.423825
-0.302154 0.0375774 0.34379
-0.161457 0.0375512 0.406581
-0.115555 0.0375252 0.421973
-0.227797 0.0375122 0.356729
-0.0864695 0.0374879 0.419654
-0.109903 0.0374751 0.398818
-0.189171 0.0374496 0.351616
-0.256393 0.0374242 0.310434
-0.197965 0.0374115 0.330533
-0.180335 0.0373864 0.331774
-0.165692 0.0373739 0.329985
-0.0154756 0.037349 0.397515
-0.265366 0.0373242 0.264988
-0.108104 0.0373119 0.334512
-0.106578 0.0372895 0.327429
-0.107133 0.0372773 0.318046
-0.155611 0.037253 0.28621
-0.250903 0.0372289 0.230963
-0.23032 0.0372169 0.232152
-0.223805 0.037193 0.227802
-0.105739 0.0371812 0.277735
-0.320479 0.0371575 0.162752
-0.153735 0.037134 0.238504
-0.105892 0.0371224 0.253327
-0.0732327 0.0370991 0.26203
-0.27807 0.0370876 0.150514
-0.327206 0.0370646 0.118312
-0.361857 0.0370531 0.0918904
-0.188994 0.0370304 0.17068
-0.346951 0.0370106 0.0836859
-0.182379 0.0369994 0.156874
-0.105376 0.0369771 0.187712
-0.137247 0.036966 0.162678
-0.311535 0.0369439 0.0678616
-0.185167 0.0369329 0.121948
-0.239768 0.0369111 0.0869648
-0.119796 0.0368894 0.13926
-0.378241 0.0368787 0.000936821
-0.271135 0.0368572 0.0467882
-0.241732 0.0368466 0.0523885
-0.222067 0.0368254 0.0545082
-0.246441 0.0368149 0.033219
-0.312448 0.036794 -0.00750957
-0.147709 0.0367836 0.0657567
-0.250335 0.0367629 0.00670655
-0.287456 0.0367526 -0.0209594
-0.173637 0.0367322 0.0282004
3.6209 0.0755241 2.58428
3.60784 0.0752638 2.57624
3.73079 0.0751055 2.63056
3.63141 0.0749873 2.57152
3.76683 0.0748511 2.63095
3.66039 0.0747751 2.56608
3.70656 0.074716 2.57658
3.7499 0.0746594 2.58554
3.65225 0.0746056 2.52387
3.69532 0.0745549 2.53241
3.57692 0.0745074 2.46005
3.65607 0.0744776 2.48544
3.51292 0.0744644 2.39874
3.6075 0.0744407 2.43152
3.82041 0.074429 2.52276
3.58227 0.0744209 2.38827
3.64417 0.074419 2.40344
3.72724 0.0744155 2.42929
3.73309 0.0744206 2.41602
3.72693 0.0744355 2.39615
3.72261 0.074448 2.37733
3.92517 0.0744678 2.46152
3.87659 0.074488 2.4201
3.92309 0.0745261 2.42512
3.76916 0.0745541 2.33053
3.71036 0.0746 2.28239
3.74881 0.0746461 2.28285
3.94474 0.0746869 2.36235
3.77989 0.074758 2.25957
3.89487 0.0748209 2.29718
3.9323 0.0748994 2.29502
3.79739 0.0749972 2.20545
3.67204 0.0750995 2.12033
3.84908 0.0752257 2.18486
4.05471 0.0753937 2.26099
3.95102 0.0756422 2.17728
0.419359 0.0565003 1.57742
0.573504 0.0562876 1.65614
0.388739 0.0561544 1.56035
0.27797 0.0559809 1.50424
0.363146 0.0558476 1.54356
0.347925 0.0557547 1.53009
0.339061 0.0556218 1.52246
0.378793 0.0555293 1.53653
0.380503 0.055397 1.53426
0.466293 0.055305 1.57141
0.400258 0.0552133 1.53268
0.420975 0.0551218 1.53734
0.336927 0.0550565 1.48791
0.132564 0.0549655 1.38007
0.222113 0.0548748 1.4192
0.102726 0.0547846 1.35388
0.202722 0.0546946 1.39827
0.181435 0.0546307 1.38029
0.0783263 0.0545415 1.32314
0.271847 0.0544905 1.41174
0.177874 0.0544019 1.35919
0.224223 0.0543391 1.37506
0.00117014 0.0542514 1.25798
0.276279 0.0542009 1.38744
0.0469655 0.054139 1.26551
0.0399344 0.0540523 1.25646
-0.0139634 0.0540023 1.22146
0.149486 0.0539413 1.29593
0.0378427 0.0538559 1.23459
0.0912136 0.0538063 1.25326
0.188641 0.0537463 1.29473
0.200519 0.053697 1.29268
0.151817 0.0536131 1.26283
0.000174325 0.0535542 1.17976
0.118893 0.0535054 1.23118
-0.00873897 0.0534471 1.16012
0.11134 0.0533985 1.21223
0.0342423 0.0533409 1.16644
0.0627648 0.0532685 1.17455
0.134331 0.0532116 1.20309
0.0831929 0.0531637 1.16964
0.0346934 0.0531075 1.13815
-0.0869544 0.0530599 1.06947
-0.00269725 0.0530043 1.10434
0.223009 0.052957 1.20936
-0.112714 0.0529022 1.03424
-0.177739 0.0528552 0.993914
0.122152 0.0528083 1.13605
-0.134083 0.0527544 1.00068
-0.0211676 0.0527079 1.04934
-0.0544298 0.0526547 1.02544
0.0765819 0.0526085 1.08318
-0.146807 0.0525561 0.964197
-0.0220414 0.0525102 1.01882
-0.0171271 0.0524645 1.01353
-0.119144 0.0524189 0.954783
-0.201142 0.0523735 0.906051
-0.059133 0.052345 0.968047
-0.0168039 0.0522945 0.981906
-0.00524111 0.0522495 0.979976
-0.162104 0.0521998 0.894218
-0.172676 0.0521552 0.881233
0.047599 0.0521108 0.983678
-0.107595 0.0520621 0.898735
0.0942556 0.0520223 0.991641
-0.0635189 0.051996 0.903701
-0.263425 0.0519483 0.796383
-0.189547 0.0519046 0.825659
-0.0208531 0.0518611 0.902348
-0.0784343 0.0518145 0.866166
-0.113896 0.0517746 0.840528
-0.150673 0.0517498 0.813049
0.0365822 0.0517069 0.89904
-0.0635929 0.0516615 0.841538
-0.0197176 0.051619 0.855847
-0.136158 0.0515793 0.78979
0.00289688 0.0515556 0.850213
-0.208713 0.0515114 0.736966
-0.201088 0.0514695 0.733165
0.00464164 0.0514278 0.828422
-0.0679011 0.0513883 0.784382
-0.107178 0.0513641 0.755744
0.0355419 0.0513228 0.819506
-0.0322331 0.0512818 0.778024
-0.197182 0.0512423 0.687842
-0.00693568 0.0512196 0.77389
-0.107577 0.0511791 0.715983
-0.262467 0.0511387 0.630953
-0.184742 0.0511182 0.660592
-0.0978116 0.0510782 0.696477
-0.0873979 0.0510383 0.694106
-0.0374369 0.0509988 0.711495
-0.0848384 0.0509788 0.678579
-0.10699 0.0509393 0.659934
-0.347672 0.0509001 0.532025
-0.116809 0.0508805 0.63824
-0.206125 0.0508415 0.58602
-0.102743 0.0508028 0.63015
-0.0864718 0.0507641 0.630725
-0.0495843 0.0507449 0.63997
-0.131863 0.0507072 0.591222
-0.135378 0.0506691 0.581906
-0.23652 0.0506501 0.522146
-0.25428 0.0506123 0.505712
-0.27356 0.0505747 0.488516
-0.118656 0.0505559 0.556792
-0.153351 0.0505199 0.531776
-0.319309 0.0504828 0.44124
-0.24311 0.0504643 0.470172
-0.277043 0.0504275 0.445652
-0.0368739 0.0503909 0.558181
-0.265321 0.0503727 0.4348
-0.135607 0.0503384 0.491921
-0.232739 0.0503023 0.435795
-0.151421 0.0502843 0.467304
-0.0805274 0.0502485 0.495192
-0.296658 0.0502129 0.379565
-0.0986241 0.0501952 0.46944
-0.156019 0.0501599 0.433182
-0.340531 0.0501423 0.331789
-0.000309433 0.0501102 0.494082
-0.198776 0.0500754 0.387279
-0.248849 0.0500581 0.353111
-0.120505 0.0500236 0.409713
-0.182365 0.0499894 0.371209
-0.328638 0.0499723 0.288947
-0.270019 0.0499384 0.310681
-0.148769 0.0499215 0.362185
-0.128732 0.0498915 0.36429
-0.00147334 0.049858 0.420331
-0.262485 0.0498414 0.280707
-0.0650886 0.0498083 0.371814
-0.151444 0.0497919 0.319522
-0.144802 0.0497591 0.315248
-0.305347 0.0497265 0.227375
-0.381869 0.0497103 0.180003
-0.364272 0.049678 0.181197
-0.386524 0.0496459 0.16246
-0.206355 0.04963 0.243436
-0.240033 0.0496028 0.218552
-0.370046 0.049587 0.144437
-0.294656 0.0495556 0.174504
-0.217744 0.04954 0.203854
-0.291072 0.0495089 0.159556
-0.332392 0.0494781 0.131255
-0.103252 0.0494627 0.23672
-0.332226 0.0494322 0.114585
-0.377971 0.049417 0.0826081
-0.085644 0.0493868 0.221115
-0.268681 0.0493717 0.120494
-0.0883843 0.0493418 0.202977
-0.352496 0.0493122 0.0632489
-0.269443 0.0492974 0.0956714
-0.199098 0.049268 0.123162
-0.395461 0.0492534 0.0158769
-0.21594 0.0492244 0.0979452
-0.168813 0.04921 0.112404
-0.345419 0.0491812 0.0163998
-0.320817 0.0491528 0.0209894
-0.252779 0.0491386 0.0459018
-0.280943 0.0491104 0.0240974
-0.285125 0.0490964 0.0128985
-0.155847 0.0490686 0.0698034
-0.33353 0.0490548 -0.0281471
-0.334245 0.0490273 -0.0362511
-0.191087 0.0490136 0.0262167
-0.123897 0.0489865 0.0520528
3.85463 0.0944649 2.71461
3.60817 0.0940913 2.59196
3.57052 0.0938447 2.56814
3.70636 0.0936495 2.62883
3.68369 0.0935234 2.6072
3.6514 0.0933828 2.58147
3.64739 0.0933087 2.56689
3.61477 0.0932189 2.53875
3.67208 0.0931511 2.55459
3.72231 0.0930869 2.56675
3.47099 0.093045 2.42713
3.73348 0.0930071 2.54423
3.55928 0.0929721 2.44288
3.60325 0.0929415 2.45041
3.50332 0.0929298 2.38511
3.68975 0.0929201 2.4629
3.5611 0.0929127 2.38306
3.55236 0.0929076 2.36306
3.55163 0.0929131 2.34655
3.58455 0.0929313 2.34627
3.81586 0.0929457 2.44535
3.59172 0.09297 2.31623
3.63724 0.0929938 2.32195
3.60934 0.0930243 2.29063
3.59843 0.0930748 2.26682
3.73908 0.0931284 2.31862
3.65238 0.0931718 2.25723
3.6884 0.0932378 2.25608
3.70034 0.0933096 2.24257
3.90177 0.0933872 2.3235
3.77695 0.0934867 2.24018
3.74336 0.0935904 2.20224
3.85006 0.0937198 2.23313
4.08395 0.0938852 2.32574
3.93386 0.0940671 2.22549
3.93394 0.0943272 2.1963
0.495427 0.0710707 1.62897
0.265613 0.0706572 1.52305
0.542359 0.0704906 1.65789
0.396915 0.0702735 1.58429
0.39092 0.0701066 1.5779
0.222679 0.069957 1.48954
0.219511 0.0697905 1.48465
0.442443 0.0696572 1.59114
0.237076 0.0695085 1.48433
0.396251 0.0693929 1.5581
0.236158 0.0692609 1.47315
0.302918 0.069146 1.50076
0.415911 0.0690315 1.5515
0.312834 0.0689174 1.49424
0.105793 0.0688037 1.385
0.354406 0.0686904 1.50361
0.234833 0.0686099 1.43641
0.194847 0.0684975 1.41074
0.182198 0.0683856 1.39875
0.157682 0.0683214 1.37829
0.106947 0.0682102 1.34729
0.269616 0.0681315 1.42126
0.119345 0.0680214 1.3405
0.189431 0.0679578 1.36741
-0.014335 0.0678485 1.25993
0.0923035 0.0677714 1.30591
0.312508 0.0677084 1.40792
0.299438 0.0676006 1.39581
0.0693867 0.0675247 1.27346
-0.00576488 0.0674622 1.22784
0.110649 0.0673559 1.28047
0.162537 0.0672813 1.2991
0.119803 0.0672194 1.26973
-0.00259269 0.0671456 1.20122
0.0536284 0.067084 1.22135
0.138629 0.0669803 1.25829
0.0527956 0.0669079 1.20806
0.191087 0.0668469 1.26926
0.0456499 0.0667861 1.18862
0.202053 0.0667147 1.25952
-0.000570475 0.0666543 1.1503
-0.0706521 0.0665837 1.10795
0.146135 0.0665039 1.20961
0.0315976 0.0664338 1.14506
0.119961 0.0663645 1.18194
0.0475112 0.0662958 1.1384
0.199805 0.0662366 1.2067
0.021926 0.0661688 1.11044
0.0551467 0.0661099 1.11922
-0.072674 0.0660431 1.04798
0.0188166 0.0659847 1.08592
0.155804 0.0659188 1.14706
0.017173 0.0658607 1.06996
-0.105442 0.0658029 1.00087
-0.179343 0.0657452 0.956143
-0.0983903 0.0656877 0.988854
0.0325043 0.0656304 1.04654
0.0112836 0.0655885 1.02726
-0.0756968 0.0655316 0.976023
-0.153726 0.0654691 0.929625
-0.0982764 0.0654126 0.949621
-0.215189 0.0653563 0.883443
-0.0110545 0.065295 0.978109
-0.0478916 0.0652391 0.951981
-0.104442 0.0651835 0.916003
-0.117359 0.0651329 0.90154
-0.0981492 0.0650959 0.90232
0.00461102 0.0650407 0.946017
-0.107613 0.064982 0.882462
-0.127693 0.0649274 0.864749
-0.0816703 0.0648729 0.880092
-0.23089 0.0648186 0.79782
-0.158446 0.0647885 0.82487
-0.0196157 0.0647346 0.886633
-0.0156438 0.0646785 0.881122
-0.122082 0.0646251 0.820259
-0.0264955 0.0645741 0.860268
-0.165576 0.0645453 0.781539
0.0556956 0.0644907 0.88465
-0.229567 0.0644381 0.734392
-0.0276092 0.0643856 0.827748
0.0617038 0.0643348 0.864693
-0.127454 0.0643065 0.76096
-0.143262 0.0642547 0.745444
0.0191182 0.064203 0.819025
0.0487847 0.0641516 0.826254
-0.296826 0.0641259 0.644172
-0.344706 0.0640749 0.612632
-0.0400984 0.064024 0.757344
-0.394127 0.0639734 0.572739
-0.293338 0.0639481 0.613876
-0.103999 0.063898 0.70095
-0.110348 0.063848 0.690192
0.063155 0.0637982 0.769362
-0.0322052 0.0637733 0.712443
-0.0438449 0.0637239 0.699049
-0.166573 0.0636757 0.630041
-0.0483697 0.0636512 0.679916
-0.338967 0.0636023 0.527047
-0.282116 0.0635537 0.547903
-0.348133 0.0635295 0.505682
-0.0943328 0.0634831 0.624889
-0.15502 0.0634352 0.586977
-0.0701041 0.0633874 0.621868
-0.0974356 0.0633636 0.599005
-0.036386 0.0633162 0.621967
-0.108242 0.0632719 0.578284
-0.146301 0.0632484 0.550067
-0.16301 0.0632017 0.534148
-0.138416 0.0631551 0.538881
-0.370817 0.063132 0.413504
-0.277617 0.0630858 0.452542
-0.196697 0.0630436 0.485179
-0.191888 0.0630208 0.478416
-0.0927401 0.0629753 0.520424
-0.188073 0.0629301 0.46519
-0.167146 0.0629075 0.466495
-0.310058 0.0628626 0.387473
-0.174568 0.0628226 0.447321
-0.0566423 0.0628004 0.497131
-0.200433 0.0627562 0.417663
-0.207361 0.0627123 0.406624
-0.162407 0.0626904 0.419956
-0.167144 0.0626468 0.410012
-0.16776 0.0626251 0.400565
0.00559561 0.0625819 0.479666
-0.323659 0.0625445 0.307049
-0.229026 0.0625232 0.34523
-0.226067 0.0624806 0.339122
-0.216356 0.0624384 0.336387
-0.0816141 0.0624173 0.394628
-0.050873 0.0623754 0.402405
-0.205801 0.0623546 0.315816
-0.0451766 0.062313 0.388531
-0.12543 0.0622718 0.340803
0.00987584 0.0622513 0.399336
-0.222417 0.0622171 0.275083
-0.294874 0.0621968 0.229734
-0.234594 0.0621564 0.252259
-0.164112 0.0621162 0.279879
-0.2448 0.0620962 0.230418
-0.206562 0.0620564 0.241911
-0.238499 0.0620169 0.21831
-0.313341 0.0619972 0.171775
-0.0630601 0.0619581 0.289277
-0.296551 0.0619386 0.163419
-0.251033 0.0618999 0.178534
-0.109205 0.0618806 0.240336
-0.061699 0.0618423 0.256438
-0.232475 0.0618042 0.163391
-0.210851 0.0617853 0.165092
-0.105363 0.0617557 0.20955
-0.231901 0.061737 0.137168
-0.43608 0.0616998 0.027398
-0.290151 0.0616628 0.0926738
-0.259432 0.0616444 0.0989197
-0.222458 0.0616079 0.109709
-0.0238427 0.0615897 0.199903
-0.178182 0.0615536 0.115026
-0.142145 0.0615356 0.12393
-0.199697 0.0614999 0.0874363
-0.327739 0.0614644 0.0156886
-0.19819 0.0614468 0.0713464
-0.274529 0.0614117 0.025439
-0.385425 0.0613943 -0.0391265
-0.173881 0.0613597 0.0588956
-0.333887 0.0613424 -0.0302261
-0.419003 0.0613082 -0.0805461
-0.138922 0.0612912 0.0503733
-0.266812 0.0612574 -0.0213457
3.5384 0.112921 2.57273
3.6212 0.112566 2.61129
3.53272 0.11233 2.55986
3.58383 0.112154 2.57602
3.54624 0.112006 2.54684
3.74408 0.111864 2.63522
3.57862 0.111755 2.54069
3.54221 0.111673 2.5097
3.47325 0.111595 2.46231
3.57334 0.111522 2.49928
3.67286 0.111498 2.53408
3.65861 0.111433 2.51361
3.53498 0.111395 2.43738
3.43528 0.111381 2.37224
3.69819 0.111368 2.48832
3.70135 0.111359 2.47442
3.76892 0.111352 2.49263
3.55733 0.111357 2.37076
3.52151 0.111369 2.33653
3.61698 0.111395 2.36738
3.66133 0.111423 2.37255
3.69401 0.11145 2.37194
3.6131 0.111486 2.31417
3.81215 0.111545 2.39542
3.77212 0.11161 2.35692
3.74618 0.11166 2.32602
3.63272 0.111737 2.25021
3.79798 0.111822 2.31346
3.65109 0.111914 2.22032
3.76097 0.112012 2.25525
3.79151 0.112154 2.24869
3.83573 0.112288 2.24928
3.84388 0.112466 2.22993
3.99295 0.112679 2.27953
0.632539 0.0857996 1.71234
0.635001 0.085208 1.72629
0.445633 0.0849483 1.63045
0.541634 0.0846877 1.67742
0.229636 0.084447 1.5196
0.497334 0.0842465 1.65
0.45414 0.0840462 1.62499
0.2389 0.0839064 1.51141
0.408366 0.0837069 1.5928
0.312911 0.0835677 1.53918
0.292346 0.0834289 1.52303
0.435322 0.0832313 1.59125
0.467346 0.0830934 1.60144
0.353764 0.0830146 1.53627
0.153144 0.0828583 1.43102
0.282997 0.0827218 1.49017
0.344036 0.0825858 1.51493
0.151023 0.0824505 1.41268
0.165552 0.0823726 1.41168
0.0522925 0.082238 1.34933
0.271098 0.0821428 1.4513
0.220271 0.0820094 1.42019
0.349582 0.0818768 1.47915
0.17843 0.0817999 1.3854
0.185063 0.0816683 1.38305
0.0275875 0.0815755 1.29691
0.111031 0.0814993 1.3305
0.188501 0.0813693 1.36359
0.128097 0.081278 1.326
0.174479 0.0812024 1.34111
0.244498 0.0810743 1.37048
0.282875 0.0809846 1.38229
0.0288951 0.0809096 1.24726
0.0542754 0.0807835 1.25432
0.0638524 0.0806955 1.25173
0.206101 0.0806212 1.31485
0.0259069 0.0805341 1.21738
-0.0879728 0.0804603 1.15247
0.112987 0.0803499 1.24672
-0.0794879 0.0802641 1.14313
0.126284 0.0801791 1.23864
0.00350486 0.0801062 1.16932
0.1283 0.0800222 1.22434
-0.0713404 0.0799498 1.11661
0.102936 0.0798668 1.19637
0.184479 0.0797948 1.22926
0.0127293 0.079713 1.13599
-0.0253188 0.0796415 1.1091
0.0283905 0.0795607 1.12856
0.0298038 0.0794734 1.12221
0.026362 0.0794188 1.11186
0.182237 0.0793221 1.18325
-0.0400844 0.0792691 1.06342
0.101708 0.0791724 1.12782
0.0251587 0.079121 1.08082
-0.210997 0.079044 0.955317
-0.0787442 0.0789746 1.01366
-0.267572 0.0789054 0.911466
-0.0274075 0.07883 1.02411
-0.0668303 0.0787613 0.996633
0.0434189 0.0786871 1.04429
0.0944908 0.0786189 1.06208
-0.171587 0.078551 0.921302
-0.0168378 0.0784833 0.990943
-0.116478 0.0784158 0.933397
0.107471 0.0783485 1.03765
-0.0115865 0.078306 0.969153
-0.0528725 0.0782393 0.940802
-0.0291758 0.0781727 0.944948
0.0654034 0.0781031 0.984715
-0.00931625 0.0780372 0.939663
0.00781815 0.0779714 0.940545
-0.107838 0.077909 0.874875
-0.0501527 0.0778708 0.894626
-0.238701 0.0778058 0.792683
-0.108289 0.0777393 0.85031
0.124502 0.0776748 0.959044
-0.0914981 0.077612 0.84331
-0.15051 0.0775785 0.804532
-0.0110848 0.077514 0.866638
-0.112773 0.0774504 0.80815
0.0175437 0.0773871 0.86567
-0.198164 0.0773245 0.750156
-0.234528 0.0772926 0.722682
-0.0358576 0.0772299 0.814394
-0.0515363 0.0771675 0.798935
0.00198341 0.0771054 0.818079
-0.271354 0.0770435 0.673798
-0.129146 0.0770132 0.735583
-0.175101 0.0769518 0.704999
-0.0417846 0.0768906 0.764054
-0.0234435 0.0768297 0.765623
-0.189963 0.0768009 0.673012
-0.131905 0.0767404 0.694444
-0.0532349 0.0766803 0.726185
-0.145552 0.0766503 0.670774
-0.280958 0.076593 0.595344
-0.152721 0.0765336 0.651874
-0.294109 0.0764744 0.573593
-0.103391 0.076445 0.659716
-0.155979 0.0763862 0.625842
-0.185764 0.0763313 0.603168
-0.231672 0.0763022 0.57099
0.0900167 0.0762442 0.724256
-0.238842 0.0761865 0.552249
-0.085814 0.0761291 0.621186
-0.0309625 0.0761051 0.639142
-0.210317 0.0760482 0.541888
-0.0557159 0.0759915 0.611611
-0.190798 0.0759633 0.534873
-0.0237246 0.0759071 0.610837
-0.268997 0.0758568 0.480298
-0.0558183 0.075829 0.577699
-0.159832 0.0757735 0.518116
-0.261546 0.0757184 0.459682
-0.108783 0.0756909 0.526886
-0.135071 0.0756362 0.506168
-0.169279 0.0755885 0.481088
-0.199403 0.0755615 0.456856
-0.332094 0.0755075 0.38293
-0.169633 0.0754539 0.456579
-0.270025 0.0754272 0.397221
-0.294176 0.075374 0.377565
-0.0710112 0.0753211 0.481564
-0.359418 0.0752947 0.328208
-0.152696 0.0752503 0.423503
-0.324285 0.0752242 0.328557
-0.0449601 0.0751723 0.46063
-0.309895 0.0751207 0.320569
-0.0266622 0.0750949 0.453042
-0.298496 0.0750438 0.30953
-0.103168 0.0749929 0.399596
-0.354615 0.0749675 0.264735
-0.200145 0.0749264 0.333803
-0.0896631 0.0748763 0.381433
-0.290635 0.0748514 0.271812
-0.115926 0.0748018 0.351553
-0.243774 0.0747771 0.278497
-0.291832 0.074728 0.24685
-0.0960639 0.0746791 0.337113
-0.304019 0.0746548 0.224007
-0.261454 0.0746064 0.237663
-0.101423 0.0745584 0.310047
-0.0837606 0.0745344 0.309754
-0.357694 0.0744976 0.164479
-0.155706 0.0744739 0.256347
-0.197846 0.0744269 0.227628
-0.185839 0.0743801 0.225976
-0.154146 0.0743568 0.2327
-0.250505 0.0743106 0.176858
-0.0801471 0.0742875 0.252915
-0.0739229 0.0742417 0.248358
-0.2815 0.0741963 0.136894
-0.242482 0.0741736 0.147281
-0.178802 0.0741286 0.171438
-0.325705 0.0741062 0.0888657
-0.286401 0.0740617 0.100826
-0.108204 0.0740396 0.180804
-0.102017 0.0739955 0.176196
-0.227541 0.0739518 0.105725
-0.172844 0.07393 0.123952
-0.332103 0.0738868 0.036604
-0.219174 0.0738653 0.0839469
-0.31189 0.0738225 0.0298598
-0.181065 0.0737801 0.0875338
-0.219624 0.073759 0.0591304
-0.155284 0.0737171 0.083551
-0.266309 0.0736962 0.0189132
-0.185212 0.0736548 0.0517009
-0.207109 0.0736342 0.0316258
-0.295225 0.0735932 -0.0202055
0.0187572 0.0735729 0.127658
-0.143497 0.0735324 0.0387444
3.79554 0.131751 2.71708
3.70202 0.131268 2.6696
3.56222 0.130926 2.59464
3.6871 0.13072 2.6477
3.62082 0.130547 2.60418
3.51552 0.130352 2.54189
3.67722 0.130252 2.6101
3.54375 0.130128 2.53149
3.71482 0.130037 2.60414
3.48642 0.129977 2.47603
3.39493 0.129922 2.41622
3.61577 0.129845 2.51335
3.83294 0.1298 2.60757
3.72368 0.129782 2.53769
3.55061 0.129767 2.43582
3.44669 0.129755 2.36842
3.66766 0.12974 2.46357
3.54612 0.129752 2.38659
3.60245 0.129764 2.3985
3.48342 0.129793 2.32215
3.48089 0.1298 2.3048
3.63968 0.129856 2.36646
3.53565 0.129897 2.29719
3.63723 0.129965 2.32978
3.56421 0.130014 2.27569
3.51496 0.130095 2.23237
3.60051 0.130184 2.25616
3.79015 0.130282 2.33168
3.81837 0.130387 2.32619
3.70803 0.1305 2.25112
3.6885 0.130645 2.2203
3.85157 0.130818 2.27973
3.86485 0.131003 2.26383
0.531724 0.100016 1.68933
0.483467 0.0995284 1.67051
0.500187 0.0992945 1.67515
0.52175 0.098943 1.68651
0.35623 0.0987086 1.60017
0.329628 0.0984744 1.58334
0.526488 0.0982407 1.67828
0.38965 0.0980772 1.60385
0.237517 0.0978674 1.52352
0.416363 0.0976819 1.60784
0.330658 0.0975198 1.55906
0.406973 0.097358 1.59132
0.441053 0.0971968 1.60248
0.279937 0.0970361 1.51606
0.307508 0.0968759 1.52401
0.182785 0.0967163 1.45582
0.250249 0.0965574 1.48374
0.117847 0.0963991 1.41174
0.345249 0.0962872 1.51793
0.317369 0.0961303 1.49821
0.129567 0.0959741 1.39854
0.26107 0.0958835 1.45605
0.0987609 0.0957284 1.36916
0.165352 0.0956192 1.39498
0.221022 0.0954658 1.41708
0.115977 0.0953761 1.35639
0.210874 0.0952239 1.39813
0.144652 0.0951171 1.35756
0.114761 0.0950282 1.33449
0.17773 0.0948781 1.36028
0.115604 0.0947732 1.32177
0.248804 0.094685 1.38029
0.182825 0.0945372 1.34161
0.186705 0.0944343 1.33611
0.109415 0.0943469 1.28942
0.201794 0.094245 1.32818
0.168038 0.0941147 1.30503
0.12535 0.0940141 1.27625
0.208846 0.0939278 1.31001
0.21367 0.0938283 1.30499
0.0432784 0.0937425 1.21183
0.0118131 0.0936275 1.18934
-0.0281056 0.093529 1.16198
0.0815129 0.0934195 1.20987
0.144639 0.0933348 1.23352
0.183906 0.0932391 1.2457
0.0878239 0.093155 1.18976
0.0963007 0.0930606 1.18655
0.0902763 0.092977 1.17566
0.0695816 0.092884 1.15785
0.172721 0.0928009 1.20156
0.0710214 0.0927093 1.14323
0.102053 0.0926268 1.15091
-0.0393295 0.0925364 1.07272
-0.142091 0.0924545 1.01352
0.0864764 0.0923728 1.11999
-0.0899379 0.0922843 1.02428
-0.0725685 0.0922032 1.02517
0.00842403 0.092116 1.05814
0.0573181 0.0920355 1.07481
-0.0484664 0.0919553 1.01414
-0.0183038 0.0918753 1.02145
0.0311757 0.0917956 1.03843
-0.0374862 0.0917161 0.996351
-0.0335492 0.0916369 0.990576
-0.0900442 0.091588 0.953282
-0.0364636 0.0915059 0.972493
0.0501069 0.0914276 1.00805
-0.0342024 0.0913496 0.958174
-0.145007 0.0912719 0.895057
0.0410388 0.0911944 0.980372
-0.0526934 0.0911534 0.924197
-0.1195 0.0910749 0.883165
-0.0927715 0.0909983 0.888835
-0.0652194 0.090922 0.894923
-0.235463 0.090846 0.80212
-0.0873413 0.0907702 0.868504
-0.0521914 0.0907321 0.876722
-0.0971616 0.0906569 0.84657
-0.0697308 0.090582 0.852623
-0.0414677 0.0905073 0.859098
0.0435366 0.090433 0.893948
-0.174473 0.0903589 0.777296
-0.137204 0.090322 0.786597
-0.174099 0.0902494 0.760467
-0.087086 0.0901761 0.796338
-0.0912269 0.0901032 0.786636
-0.0434074 0.0900305 0.802918
-0.00709238 0.0899965 0.811672
-0.282377 0.0899243 0.666408
-0.105197 0.0898525 0.747379
-0.117741 0.089781 0.733492
-0.0526382 0.0897487 0.756606
0.0667718 0.0896777 0.8087
-0.0518249 0.0896071 0.741794
-0.22649 0.0895368 0.646855
-0.0563857 0.0895061 0.722434
-0.137035 0.0894364 0.674507
-0.13083 0.0893669 0.670008
-0.164825 0.0893323 0.64376
-0.0531832 0.0892689 0.691719
-0.173637 0.0892003 0.623895
-0.152619 0.089132 0.626809
-0.0514178 0.089098 0.668175
-0.176212 0.0890302 0.598189
-0.182607 0.0889696 0.58707
-0.236254 0.0889361 0.551022
-0.0997846 0.0888692 0.611668
-0.152939 0.0888026 0.577503
-0.196665 0.0887364 0.548051
-0.0624435 0.0887114 0.605558
-0.0756216 0.0886458 0.59138
-0.142528 0.0885805 0.550337
-0.20404 0.0885479 0.510382
-0.239326 0.0884831 0.485153
-0.111223 0.0884186 0.541618
-0.208774 0.0883959 0.483185
-0.309718 0.0883319 0.425122
-0.16853 0.0882684 0.488125
-0.304725 0.0882367 0.410847
-0.242224 0.0881736 0.434508
-0.193481 0.0881109 0.451288
-0.0427737 0.0880904 0.516926
-0.232352 0.0880283 0.41454
-0.170121 0.0879665 0.438057
-0.323576 0.0879357 0.352163
-0.180411 0.0878744 0.416147
-0.235151 0.0878135 0.381176
-0.00630001 0.0877832 0.486444
-0.208136 0.0877349 0.377297
-0.0957725 0.0877049 0.424321
-0.131936 0.0876451 0.39863
-0.193494 0.0875856 0.360239
-0.298246 0.087556 0.298712
-0.198372 0.0874971 0.341035
-0.121819 0.0874385 0.371693
-0.12466 0.0874093 0.361127
-0.356847 0.0873513 0.237412
-0.278266 0.0873073 0.268354
-0.11219 0.0872787 0.342249
-0.168987 0.0872216 0.306214
-0.0943075 0.0871932 0.334414
-0.15104 0.0871366 0.298407
-0.184652 0.0870804 0.273956
-0.154369 0.0870525 0.279961
-0.341518 0.0869969 0.178736
-0.167798 0.0869416 0.257941
-0.120091 0.0869141 0.272661
-0.310046 0.0868593 0.170022
-0.145377 0.0868321 0.243224
-0.143424 0.0867779 0.236533
-0.226985 0.0867396 0.186235
-0.275942 0.0867129 0.152622
-0.370042 0.0866597 0.0978842
-0.236202 0.0866333 0.155671
-0.180071 0.0865806 0.176041
-0.132647 0.0865284 0.19205
-0.163798 0.0865024 0.167342
-0.34677 0.0864507 0.0681448
-0.251479 0.086425 0.106658
-0.140805 0.0863738 0.154275
-0.264224 0.086323 0.0848371
-0.144458 0.0862978 0.135586
-0.353928 0.0862476 0.0231137
-0.0621755 0.0862226 0.159856
-0.193105 0.086173 0.086643
-0.0982656 0.0861483 0.124928
-0.0672105 0.0860992 0.132697
-0.145181 0.0860505 0.0859436
-0.416546 0.0860263 -0.0588764
-0.256429 0.0859782 0.0134026
-0.189648 0.0859543 0.0376542
-0.304719 0.0859067 -0.0276729
-0.433575 0.0858831 -0.101241
-0.191638 0.0858361 0.0119225
3.81681 0.151037 2.73094
3.65471 0.150026 2.66181
3.69199 0.149556 2.67755
3.65364 0.149319 2.64902
3.55008 0.149088 2.5878
3.57806 0.148862 2.59223
3.71183 0.148676 2.64849
3.6141 0.148565 2.58688
3.58664 0.14846 2.5603
3.48556 0.14836 2.49676
3.57907 0.148296 2.5295
3.49581 0.148206 2.47463
3.56138 0.148154 2.4931
3.38312 0.148133 2.38875
3.63535 0.148093 2.50024
3.61262 0.14808 2.47343
3.57277 0.148082 2.43762
3.49388 0.148095 2.38199
3.68206 0.148092 2.46034
3.44795 0.14811 2.32693
3.59114 0.148147 2.38162
3.64658 0.148209 2.39167
3.54473 0.14825 2.32369
3.77525 0.148302 2.42156
3.61207 0.148357 2.32244
3.67777 0.148449 2.33668
3.83033 0.148572 2.39337
3.77711 0.148678 2.34765
3.86619 0.148793 2.37279
3.65517 0.148917 2.24757
3.75297 0.149078 2.27559
0.630638 0.115231 1.74673
0.667291 0.114445 1.77718
0.524834 0.113965 1.7087
0.553505 0.113643 1.72094
0.383542 0.113294 1.63476
0.437021 0.113026 1.65785
0.45948 0.112784 1.66465
0.468287 0.112517 1.66549
0.317393 0.11233 1.58398
0.394656 0.112064 1.61911
0.55674 0.111877 1.69415
0.316773 0.111692 1.56819
0.393076 0.111428 1.60291
0.154021 0.111244 1.47744
0.330984 0.11106 1.56001
0.410745 0.11093 1.59226
0.176514 0.110748 1.46926
0.363471 0.110566 1.55687
0.215147 0.110386 1.47684
0.176622 0.110206 1.45173
0.370835 0.110101 1.54053
0.323842 0.109922 1.51122
0.224296 0.109796 1.4539
0.248293 0.109619 1.46009
0.152863 0.109516 1.40414
0.172938 0.10934 1.40839
0.148465 0.109217 1.38864
0.101058 0.109043 1.35915
0.175636 0.108941 1.38827
0.322518 0.108769 1.45595
0.185557 0.108648 1.37996
0.12038 0.108547 1.33925
0.154172 0.108377 1.35039
0.254097 0.108259 1.39285
0.201372 0.108159 1.35841
0.145297 0.108008 1.32404
0.0958047 0.107892 1.29181
0.229308 0.107776 1.35107
0.182392 0.107677 1.31959
0.155134 0.107563 1.29847
0.313198 0.107415 1.37124
0.295697 0.107302 1.35499
-0.104517 0.107191 1.14738
0.048606 0.107093 1.21597
0.223347 0.106983 1.29583
-0.0710174 0.106885 1.1407
0.0409208 0.106777 1.18915
0.164182 0.106655 1.24375
0.260146 0.106547 1.28426
-0.0763517 0.106451 1.10811
0.0242315 0.106344 1.15092
0.212663 0.106238 1.23764
-0.0633326 0.106143 1.09177
-0.170499 0.106039 1.03067
-0.158016 0.105944 1.02906
0.00918743 0.105841 1.10513
0.131515 0.105748 1.15846
-0.0084567 0.105654 1.08065
-0.00275432 0.105561 1.07568
0.0473 0.10546 1.09317
0.0833909 0.105368 1.10342
0.0579567 0.10531 1.08163
-0.130789 0.105218 0.979468
0.0803217 0.105121 1.07742
-0.0617647 0.10503 0.998598
-0.0602798 0.104936 0.991707
0.0233157 0.104845 1.02574
0.0421359 0.104755 1.0274
-0.0670956 0.104665 0.965037
-0.162818 0.104575 0.909436
0.0201705 0.104486 0.993199
-0.131107 0.104397 0.909835
-0.0597678 0.104349 0.936196
-0.0828213 0.104261 0.916952
0.026593 0.104172 0.963952
-0.033633 0.104085 0.926132
-0.0821761 0.103997 0.894162
-0.114681 0.10391 0.870218
-0.0815237 0.103867 0.877407
-0.0852226 0.103781 0.867863
-0.0962101 0.103694 0.854693
-0.175194 0.103608 0.80753
-0.0745192 0.103525 0.850137
-0.147254 0.103482 0.804411
-0.11954 0.103397 0.81061
-0.080215 0.103315 0.822507
-0.123108 0.103231 0.793407
0.148866 0.103147 0.921745
-0.124674 0.103105 0.775647
-0.222597 0.103026 0.718881
-0.137155 0.102943 0.753964
-0.105561 0.102861 0.762125
-0.187087 0.10282 0.712056
0.126335 0.102743 0.86092
-0.00926069 0.102661 0.785495
-0.208093 0.10258 0.678455
-0.151818 0.10254 0.697306
-0.0798562 0.102466 0.725394
0.0289193 0.102386 0.772163
-0.162596 0.102306 0.66879
-0.0689063 0.102266 0.706368
-0.222214 0.102195 0.621769
-0.0975161 0.102116 0.676506
-0.3193 0.102037 0.558005
-0.142452 0.101998 0.637178
-0.264359 0.10193 0.568224
-0.266742 0.101852 0.559425
-0.215277 0.101775 0.577552
-0.20761 0.101736 0.57215
-0.194766 0.10166 0.570971
