ply
format ascii 1.0
comment Created by Open3D
element vertex 1744
property double x
property double y
property double z
end_header
-0.218576 -0.176718 0.609534
-0.217207 -0.176665 0.600726
-0.215867 -0.176611 0.591922
-0.214557 -0.176557 0.583121
-0.211758 -0.17653 0.574413
-0.208612 -0.176509 0.565728
-0.207389 -0.176453 0.556936
-0.206195 -0.176397 0.548147
-0.20503 -0.17634 0.539363
-0.202307 -0.176312 0.530669
-0.201186 -0.176255 0.521892
-0.200094 -0.176197 0.513119
-0.19741 -0.176168 0.504435
-0.194503 -0.176143 0.495764
-0.193499 -0.176084 0.487001
-0.192525 -0.176024 0.478243
-0.191579 -0.175964 0.46949
-0.190664 -0.175903 0.460741
-0.18807 -0.175873 0.452075
-0.187199 -0.175812 0.443335
-0.186356 -0.17575 0.434599
-0.185544 -0.175688 0.425868
-0.181181 -0.175689 0.417295
-0.180428 -0.175626 0.408571
-0.179703 -0.175562 0.399852
-0.17721 -0.17553 0.39121
-0.17653 -0.175466 0.382501
-0.175879 -0.175401 0.373796
-0.175258 -0.175335 0.365098
-0.174666 -0.17527 0.356404
-0.174104 -0.175203 0.347716
-0.171695 -0.17517 0.339099
-0.171178 -0.175103 0.330421
-0.170689 -0.175036 0.321749
-0.16832 -0.175002 0.313143
-0.166146 -0.174965 0.304535
-0.165747 -0.174896 0.295877
-0.165377 -0.174826 0.287225
-0.163069 -0.174792 0.278635
-0.162744 -0.174722 0.269994
-0.162448 -0.174651 0.261359
-0.162181 -0.17458 0.25273
-0.161944 -0.174509 0.244107
-0.159707 -0.174473 0.23554
-0.159515 -0.174401 0.226928
-0.159352 -0.174328 0.218324
-0.159218 -0.174255 0.209725
-0.159114 -0.174182 0.201134
-0.159039 -0.174108 0.192549
-0.156888 -0.174071 0.18401
-0.156858 -0.173996 0.175437
-0.156858 -0.173921 0.166871
-0.156886 -0.173846 0.158311
-0.156945 -0.17377 0.149759
-0.154864 -0.173732 0.141245
-0.154968 -0.173655 0.132705
-0.1551 -0.173578 0.124172
-0.155262 -0.1735 0.115647
-0.155454 -0.173423 0.107129
-0.153444 -0.173383 0.0986403
-0.15368 -0.173305 0.0901351
-0.153946 -0.173226 0.0816374
-0.154241 -0.173146 0.0731472
-0.154565 -0.173066 0.0646646
-0.152627 -0.173026 0.0562028
-0.152996 -0.172945 0.0477337
-0.153395 -0.172864 0.0392724
-0.153823 -0.172783 0.0308189
-0.154281 -0.172701 0.0223733
-0.152413 -0.172659 0.0139391
-0.152915 -0.172577 0.00550751
-2.77958 -0.151621 4.19809
-2.80091 -0.15109 4.17544
-2.80323 -0.150958 4.16385
-2.8085 -0.150764 4.15059
-2.81347 -0.150577 4.13751
-2.81242 -0.150516 4.12793
-2.81408 -0.150398 4.11679
-2.81003 -0.1504 4.10894
-2.80879 -0.150344 4.09949
-2.80729 -0.150293 4.09019
-2.80563 -0.150245 4.08099
-2.80135 -0.150252 4.07328
-2.79704 -0.150259 4.06558
-2.7927 -0.150267 4.05791
-2.7906 -0.150229 4.04897
-2.78612 -0.15024 4.04137
-2.78098 -0.150264 4.03413
-2.7743 -0.150321 4.02775
-2.769 -0.150349 4.0206
-2.76431 -0.150365 4.0131
-2.75957 -0.150381 4.00564
-2.75478 -0.150398 3.99819
-2.74726 -0.150472 3.99225
-2.74238 -0.150492 3.98485
-2.73479 -0.150567 3.97892
-2.72981 -0.150588 3.97157
-2.72215 -0.150665 3.96567
-2.71445 -0.150742 3.95977
-2.70932 -0.150766 3.95248
-2.70155 -0.150845 3.94662
-2.69374 -0.150924 3.94076
-2.68845 -0.150952 3.93354
-2.68055 -0.151033 3.92771
-2.67262 -0.151114 3.92189
-2.66464 -0.151197 3.91608
-2.65663 -0.15128 3.91029
-2.65015 -0.151332 3.90366
-2.6421 -0.151415 3.89786
-2.63402 -0.1515 3.89207
-2.62589 -0.151585 3.88629
-2.61772 -0.151671 3.88052
-2.6095 -0.151758 3.87476
-2.60308 -0.151808 3.86806
-2.59483 -0.151895 3.8623
-2.58654 -0.151983 3.85655
-2.57581 -0.152121 3.85205
-2.56943 -0.15217 3.84528
-2.56107 -0.152259 3.83954
-2.55266 -0.15235 3.8338
-2.54187 -0.152488 3.82928
-2.53553 -0.152536 3.82245
-2.52704 -0.152627 3.81672
-2.51851 -0.15272 3.811
-2.50764 -0.15286 3.80645
-2.49907 -0.152952 3.80072
-2.49051 -0.153045 3.79498
-2.48194 -0.153138 3.78922
-2.47331 -0.153231 3.78349
-2.46463 -0.153326 3.77776
-2.45589 -0.153422 3.77205
-2.44552 -0.15355 3.76715
-2.43684 -0.153645 3.76138
-2.42845 -0.153733 3.75547
-2.41975 -0.153828 3.74969
-2.4105 -0.153933 3.74417
-2.40161 -0.154031 3.73846
-2.39175 -0.154149 3.73321
-2.38292 -0.154246 3.72745
-2.37404 -0.154344 3.72169
-2.36509 -0.154442 3.71596
-2.35609 -0.154542 3.71024
-2.34664 -0.154651 3.70472
-2.33771 -0.15475 3.69894
-2.32871 -0.154849 3.69318
-2.31859 -0.154971 3.68794
-2.30957 -0.155071 3.68216
-2.30151 -0.155151 3.67591
-2.29136 -0.155274 3.67065
-2.28248 -0.15537 3.66476
-2.27341 -0.15547 3.65896
-2.26427 -0.155572 3.65317
-2.25442 -0.155688 3.6477
-2.24526 -0.15579 3.64189
-2.23738 -0.155866 3.63548
-2.22631 -0.156006 3.63054
-2.21848 -0.15608 3.62407
-2.20926 -0.156183 3.61824
-2.19964 -0.156293 3.61259
-2.19041 -0.156396 3.60674
-2.18267 -0.156469 3.60018
-2.17161 -0.156608 3.59515
-2.16393 -0.156679 3.58855
-2.15463 -0.156782 3.58268
-2.14525 -0.156887 3.57683
-2.13593 -0.156991 3.57094
-2.12835 -0.15706 3.56425
-2.11729 -0.157198 3.55913
-2.10976 -0.157266 3.55239
-2.10038 -0.15737 3.54648
-2.09124 -0.15747 3.54044
-2.0838 -0.157536 3.53364
-2.07441 -0.15764 3.52769
-2.0654 -0.157737 3.52156
-2.05599 -0.157842 3.5156
-2.04865 -0.157905 3.50871
-2.03763 -0.158041 3.50343
-2.03035 -0.158103 3.49649
-2.02308 -0.158165 3.48954
-2.01211 -0.1583 3.4842
-2.00491 -0.15836 3.4772
-1.99773 -0.15842 3.47018
-1.9868 -0.158554 3.46478
-1.97968 -0.158612 3.45772
-1.97021 -0.158717 3.45165
-1.96169 -0.158803 3.44517
-1.95466 -0.158859 3.43805
-1.94519 -0.158964 3.43195
-1.9368 -0.159047 3.42538
-1.92985 -0.159101 3.41819
-1.92039 -0.159205 3.41206
-1.91213 -0.159286 3.4054
-1.90526 -0.159339 3.39816
-1.8958 -0.159442 3.39198
-1.88767 -0.15952 3.38525
-1.88088 -0.159571 3.37794
-1.87412 -0.159621 3.37061
-1.86343 -0.159748 3.36491
-1.85673 -0.159798 3.35754
-1.85006 -0.159846 3.35015
-1.84341 -0.159894 3.34275
-1.83253 -0.160025 3.33708
-1.82573 -0.160076 3.32972
-1.81894 -0.160126 3.32235
-1.81215 -0.160177 3.31498
-1.80251 -0.160283 3.30875
-1.79574 -0.160333 3.30135
-1.78897 -0.160383 3.29395
-1.78221 -0.160432 3.28653
-1.77419 -0.160506 3.27961
-1.76451 -0.160613 3.27335
-1.75777 -0.160662 3.2659
-1.75104 -0.160711 3.25844
-1.74432 -0.16076 3.25098
-1.7376 -0.160808 3.2435
-1.73089 -0.160856 3.23602
-1.71993 -0.160987 3.23019
-1.71323 -0.161035 3.22269
-1.70655 -0.161083 3.21517
-1.69987 -0.16113 3.20765
-1.69319 -0.161178 3.20012
-1.68342 -0.161285 3.19377
-1.67555 -0.161355 3.18668
-1.6689 -0.161402 3.17911
-1.66226 -0.161448 3.17154
-1.65562 -0.161495 3.16396
-1.64899 -0.161541 3.15637
-1.63918 -0.161648 3.14997
-1.63257 -0.161694 3.14237
-1.62596 -0.16174 3.13475
-1.61818 -0.161808 3.12756
-1.61159 -0.161853 3.11992
-1.605 -0.161898 3.11228
-1.59843 -0.161943 3.10462
-1.59185 -0.161987 3.09696
-1.58202 -0.162095 3.09049
-1.57432 -0.162161 3.08323
-1.56777 -0.162205 3.07554
-1.56124 -0.162248 3.06784
-1.5547 -0.162292 3.06013
-1.54818 -0.162335 3.05241
-1.54166 -0.162379 3.04469
-1.53515 -0.162422 3.03695
-1.52865 -0.162464 3.02921
-1.52215 -0.162507 3.02146
-1.51456 -0.162571 3.0141
-1.50809 -0.162613 3.00633
-1.49826 -0.162719 2.99974
-1.4918 -0.162761 2.99196
-1.48534 -0.162802 2.98416
-1.4789 -0.162844 2.97636
-1.47246 -0.162885 2.96855
-1.46495 -0.162947 2.96111
-1.45853 -0.162987 2.95328
-1.45212 -0.163028 2.94544
-1.44571 -0.163068 2.9376
-1.43931 -0.163109 2.92975
-1.43292 -0.163149 2.92189
-1.42654 -0.163189 2.91402
-1.42017 -0.163228 2.90615
-1.4138 -0.163268 2.89827
-1.40641 -0.163327 2.89073
-1.40006 -0.163366 2.88283
-1.39373 -0.163404 2.87493
-1.38739 -0.163443 2.86701
-1.38107 -0.163482 2.85909
-1.37475 -0.16352 2.85116
-1.36845 -0.163558 2.84323
-1.36215 -0.163596 2.83529
-1.35486 -0.163652 2.82766
-1.34858 -0.16369 2.8197
-1.34231 -0.163727 2.81174
-1.33605 -0.163764 2.80376
-1.32979 -0.163801 2.79578
-1.32355 -0.163837 2.78779
-1.31974 -0.163828 2.77902
-1.31447 -0.163846 2.77071
-1.30825 -0.163882 2.76271
-1.30204 -0.163918 2.7547
-1.29583 -0.163954 2.74668
-1.28964 -0.163989 2.73865
-1.28251 -0.164042 2.73091
-1.27634 -0.164077 2.72287
-1.27017 -0.164112 2.71482
-1.26401 -0.164147 2.70676
-1.25786 -0.164181 2.6987
-1.25171 -0.164216 2.69063
-1.24892 -0.164187 2.68153
-1.24279 -0.164221 2.67345
-1.23668 -0.164255 2.66537
-1.23057 -0.164288 2.65727
-1.22447 -0.164322 2.64917
-1.2175 -0.164371 2.64133
-1.21142 -0.164404 2.63322
-1.20535 -0.164437 2.6251
-1.20256 -0.164408 2.61599
-1.19651 -0.164441 2.60786
-1.19046 -0.164473 2.59973
-1.18443 -0.164505 2.59158
-1.1784 -0.164536 2.58343
-1.17239 -0.164568 2.57527
-1.16638 -0.164599 2.56711
-1.16358 -0.164571 2.55802
-1.15759 -0.164602 2.54984
-1.15161 -0.164633 2.54167
-1.14563 -0.164663 2.53348
-1.13886 -0.164709 2.52552
-1.13291 -0.164739 2.51732
-1.13089 -0.164696 2.50801
-1.12416 -0.16474 2.50003
-1.11824 -0.16477 2.49181
-1.11232 -0.164799 2.48359
-1.10642 -0.164828 2.47536
-1.10357 -0.164801 2.46629
-1.09768 -0.16483 2.45805
-1.0918 -0.164858 2.44981
-1.08594 -0.164887 2.44156
-1.08008 -0.164915 2.43331
-1.07719 -0.164888 2.42425
-1.07135 -0.164916 2.41599
-1.06552 -0.164944 2.40772
-1.0597 -0.164971 2.39945
-1.05603 -0.164959 2.39059
-1.05096 -0.164972 2.38212
-1.04517 -0.164999 2.37383
-1.03939 -0.165026 2.36554
-1.0329 -0.165065 2.35743
-1.03064 -0.165027 2.3482
-1.02418 -0.165066 2.34008
-1.01844 -0.165092 2.33177
-1.0127 -0.165117 2.32345
-1.00969 -0.165093 2.31443
-1.00397 -0.165118 2.3061
-0.99827 -0.165143 2.29777
-0.992576 -0.165168 2.28943
-0.989504 -0.165145 2.28042
-0.98383 -0.165169 2.27208
-0.978165 -0.165193 2.26373
-0.972509 -0.165217 2.25537
-0.969384 -0.165195 2.24638
-0.963748 -0.165219 2.23802
-0.958121 -0.165242 2.22965
-0.954297 -0.165233 2.22083
-0.949323 -0.165244 2.2123
-0.943726 -0.165267 2.20392
-0.938139 -0.16529 2.19553
-0.934277 -0.165281 2.18672
-0.929322 -0.165292 2.17818
-0.923764 -0.165314 2.16978
-0.918216 -0.165336 2.16137
-0.914908 -0.165317 2.15244
-0.90938 -0.165339 2.14402
-0.903861 -0.16536 2.13561
-0.899906 -0.165353 2.12682
-0.894985 -0.165363 2.11826
-0.889496 -0.165384 2.10983
-0.884017 -0.165405 2.1014
-0.880577 -0.165388 2.09249
-0.875118 -0.165408 2.08405
-0.869669 -0.165428 2.07561
-0.866157 -0.165413 2.06672
-0.860728 -0.165433 2.05827
-0.855309 -0.165452 2.04981
-0.851197 -0.165448 2.04106
-0.846324 -0.165457 2.03248
-0.840935 -0.165476 2.02401
-0.836763 -0.165473 2.01527
-0.831905 -0.165482 2.00668
-0.826046 -0.165509 1.99831
-0.822313 -0.165498 1.98947
-0.81747 -0.165507 1.98088
-0.811658 -0.165533 1.97249
-0.807847 -0.165524 1.96367
-0.803019 -0.165532 1.95507
-0.797253 -0.165558 1.94667
-0.793363 -0.165549 1.93787
-0.78855 -0.165558 1.92926
-0.78283 -0.165582 1.92084
-0.778861 -0.165575 1.91206
-0.774063 -0.165583 1.90345
-0.76839 -0.165607 1.89501
-0.764341 -0.165601 1.88624
-0.759558 -0.165609 1.87762
-0.753932 -0.165632 1.86917
-0.750218 -0.165621 1.86034
-0.745034 -0.165635 1.8518
-0.739455 -0.165657 1.84333
-0.735642 -0.165648 1.83452
-0.730095 -0.165669 1.82604
-0.725789 -0.165668 1.81732
-0.721047 -0.165675 1.80869
-0.715547 -0.165695 1.8002
-0.711531 -0.165689 1.79142
-0.706443 -0.165702 1.78285
-0.70132 -0.165716 1.77429
-0.696638 -0.165722 1.76564
-0.691649 -0.165733 1.75704
-0.687174 -0.165735 1.74835
-0.682237 -0.165746 1.73975
-0.677325 -0.165755 1.73114
-0.672813 -0.165758 1.72245
-0.667953 -0.165767 1.71383
-0.663149 -0.165775 1.7052
-0.65857 -0.165779 1.69652
-0.653787 -0.165787 1.68788
-0.649031 -0.165794 1.67924
-0.644443 -0.165798 1.67056
-0.639739 -0.165804 1.66191
-0.63506 -0.165809 1.65325
-0.630434 -0.165814 1.64458
-0.625808 -0.165819 1.63591
-0.621096 -0.165825 1.62725
-0.616543 -0.165829 1.61857
-0.612 -0.165832 1.60988
-0.607491 -0.165834 1.60119
-0.603008 -0.165837 1.59249
-0.598462 -0.16584 1.5838
-0.594031 -0.165841 1.57509
-0.589627 -0.165842 1.56638
-0.585043 -0.165846 1.5577
-0.580704 -0.165846 1.54898
-0.576392 -0.165845 1.54025
-0.571781 -0.165849 1.53157
-0.567522 -0.165847 1.52284
-0.56329 -0.165845 1.5141
-0.559003 -0.165844 1.50537
-0.55446 -0.165847 1.49668
-0.55042 -0.165842 1.48791
-0.545618 -0.165849 1.47926
-0.541657 -0.165842 1.47048
-0.537597 -0.165837 1.46171
-0.533397 -0.165834 1.45297
-0.528875 -0.165837 1.44428
-0.524895 -0.16583 1.4355
-0.520941 -0.165823 1.42672
-0.516215 -0.16583 1.41806
-0.512315 -0.165822 1.40927
-0.508441 -0.165813 1.40048
-0.504336 -0.165809 1.39173
-0.499857 -0.165811 1.38303
-0.496064 -0.165801 1.37423
-0.492298 -0.165791 1.36543
-0.487522 -0.165798 1.35677
-0.48381 -0.165787 1.34796
-0.480125 -0.165775 1.33915
-0.476114 -0.165769 1.33039
-0.471681 -0.16577 1.32168
-0.468077 -0.165757 1.31286
-0.4645 -0.165744 1.30404
-0.459677 -0.165752 1.29539
-0.456154 -0.165737 1.28657
-0.452658 -0.165722 1.27774
-0.44919 -0.165707 1.26891
-0.444358 -0.165715 1.26026
-0.440944 -0.165699 1.25142
-0.437557 -0.165682 1.24258
-0.433697 -0.165674 1.23381
-0.429358 -0.165673 1.2251
-0.426053 -0.165655 1.21625
-0.422776 -0.165636 1.20741
-0.418971 -0.165627 1.19863
-0.414679 -0.165626 1.18992
-0.411484 -0.165606 1.18107
-0.408317 -0.165585 1.17222
-0.404567 -0.165575 1.16344
-0.400324 -0.165573 1.15472
-0.397239 -0.165551 1.14586
-0.394182 -0.165529 1.13701
-0.391152 -0.165506 1.12815
-0.386294 -0.165515 1.11951
-0.38332 -0.165491 1.11065
-0.380374 -0.165467 1.10178
-0.377455 -0.165442 1.09292
-0.372594 -0.165451 1.08428
-0.36973 -0.165426 1.07542
-0.366895 -0.1654 1.06655
-0.364087 -0.165373 1.05769
-0.360521 -0.16536 1.04891
-0.356472 -0.165355 1.04018
-0.353748 -0.165327 1.03132
-0.351052 -0.165299 1.02245
-0.347542 -0.165284 1.01367
-0.343548 -0.165278 1.00495
-0.340936 -0.165249 0.996079
-0.338352 -0.165219 0.987211
-0.335796 -0.165188 0.978344
-0.332358 -0.165173 0.969569
-0.328462 -0.165165 0.960841
-0.32599 -0.165133 0.951973
-0.323547 -0.165101 0.943107
-0.321132 -0.165068 0.934241
-0.316329 -0.165076 0.925607
-0.31397 -0.165042 0.916741
-0.311639 -0.165008 0.907876
-0.309337 -0.164973 0.899012
-0.307064 -0.164938 0.89015
-0.302294 -0.164946 0.881518
-0.300076 -0.16491 0.872655
-0.297888 -0.164873 0.863794
-0.295727 -0.164836 0.854935
-0.292492 -0.164818 0.846173
-0.289263 -0.164799 0.837413
-0.285654 -0.164787 0.828687
-0.283594 -0.164748 0.819832
-0.281562 -0.164709 0.810979
-0.279559 -0.16467 0.802128
-0.277584 -0.16463 0.793278
-0.272902 -0.164636 0.784652
-0.270984 -0.164595 0.775804
-0.269096 -0.164554 0.766959
-0.267236 -0.164512 0.758115
-0.265404 -0.16447 0.749275
-0.263601 -0.164427 0.740436
-0.258988 -0.164432 0.731813
-0.257243 -0.164389 0.722977
-0.25422 -0.164367 0.71424
-0.252519 -0.164323 0.705409
-0.250846 -0.164278 0.696581
-0.249202 -0.164233 0.687755
-0.246233 -0.16421 0.679027
-0.24306 -0.164191 0.670316
-0.241502 -0.164145 0.661496
-0.239974 -0.164098 0.65268
-0.238474 -0.164051 0.643868
-0.237003 -0.164003 0.635058
-0.235561 -0.163955 0.626252
-0.23111 -0.163957 0.617641
-0.228259 -0.163933 0.60893
-0.22689 -0.163883 0.600131
-0.22555 -0.163834 0.591336
-0.22424 -0.163783 0.582544
-0.222958 -0.163733 0.573756
-0.221705 -0.163682 0.564972
-0.220481 -0.16363 0.556191
-0.216152 -0.163631 0.54759
-0.214986 -0.163578 0.538815
-0.212264 -0.163552 0.530129
-0.211143 -0.163499 0.521362
-0.210051 -0.163445 0.512598
-0.208988 -0.163391 0.503839
-0.207954 -0.163337 0.495084
-0.206949 -0.163282 0.486333
-0.205973 -0.163227 0.477587
-0.2018 -0.163225 0.469
-0.199193 -0.163197 0.46034
-0.198291 -0.16314 0.451604
-0.197418 -0.163084 0.442873
-0.196575 -0.163026 0.434146
-0.19576 -0.162969 0.425425
-0.194975 -0.162911 0.416708
-0.194219 -0.162852 0.407997
-0.191712 -0.162823 0.399363
-0.191001 -0.162763 0.390661
-0.190319 -0.162704 0.381964
-0.18635 -0.162699 0.373398
-0.185727 -0.162638 0.364709
-0.185133 -0.162577 0.356025
-0.184569 -0.162516 0.347346
-0.182162 -0.162485 0.338738
-0.181642 -0.162423 0.330069
-0.181151 -0.16236 0.321406
-0.18069 -0.162297 0.312749
-0.180258 -0.162234 0.304098
-0.179855 -0.16217 0.295453
-0.177533 -0.162138 0.28687
-0.177175 -0.162074 0.278235
-0.176846 -0.162009 0.269607
-0.176547 -0.161944 0.260984
-0.176277 -0.161878 0.252368
-0.176036 -0.161812 0.243758
-0.170403 -0.161834 0.235284
-0.170208 -0.161768 0.226682
-0.170042 -0.1617 0.218086
-0.169905 -0.161633 0.209498
-0.169798 -0.161565 0.200915
-0.16972 -0.161496 0.19234
-0.16757 -0.161462 0.18381
-0.167537 -0.161393 0.175246
-0.167533 -0.161323 0.16669
-0.167558 -0.161253 0.15814
-0.167613 -0.161183 0.149597
-0.165533 -0.161147 0.141092
-0.165633 -0.161076 0.132561
-0.165762 -0.161005 0.124038
-0.16592 -0.160933 0.115522
-0.166108 -0.160861 0.107013
-0.164099 -0.160825 0.0985336
-0.164332 -0.160752 0.0900376
-0.164593 -0.160678 0.0815491
-0.164885 -0.160605 0.0730681
-0.165205 -0.160531 0.0645948
-0.163267 -0.160493 0.0561421
-0.163632 -0.160419 0.0476822
-0.164027 -0.160343 0.03923
-0.164451 -0.160268 0.0307857
-0.164904 -0.160192 0.0223492
-0.163037 -0.160154 0.013924
-0.163535 -0.160077 0.00550157
-2.81173 -0.139489 4.1999
-2.82348 -0.139184 4.1828
-2.82575 -0.139063 4.17124
-2.83093 -0.138886 4.15802
-2.83291 -0.138771 4.14668
-2.83474 -0.138659 4.13544
-2.83354 -0.138606 4.12596
-2.83235 -0.138553 4.11648
-2.83356 -0.138453 4.10564
-2.82935 -0.138458 4.0979
-2.82761 -0.138416 4.08876
-2.82329 -0.138423 4.08109
-2.82129 -0.138386 4.07211
-2.81685 -0.138395 4.06451
-2.81236 -0.138406 4.05694
-2.80784 -0.138417 4.04938
-2.8026 -0.138442 4.04222
-2.79795 -0.138455 4.03474
-2.79325 -0.13847 4.02728
-2.7885 -0.138486 4.01984
-2.78098 -0.138554 4.01394
-2.77615 -0.138571 4.00654
-2.77026 -0.138608 3.99972
-2.76363 -0.13866 3.99331
-2.75756 -0.1387 3.98658
-2.75095 -0.138751 3.98014
-2.74468 -0.138796 3.9735
-2.7381 -0.138846 3.96704
-2.73029 -0.13892 3.96123
-2.72245 -0.138994 3.95543
-2.71716 -0.139019 3.94823
-2.70924 -0.139095 3.94246
-2.70127 -0.139171 3.9367
-2.69583 -0.139199 3.92957
-2.68777 -0.139277 3.92383
-2.67968 -0.139356 3.91811
-2.67154 -0.139435 3.9124
-2.66337 -0.139515 3.9067
-2.65515 -0.139596 3.90101
-2.64869 -0.139643 3.89437
-2.64044 -0.139724 3.88868
-2.63214 -0.139806 3.88299
-2.6238 -0.139889 3.87732
-2.61542 -0.139972 3.87166
-2.60658 -0.140064 3.86623
-2.59817 -0.140148 3.86056
-2.58972 -0.140232 3.85489
-2.58122 -0.140317 3.84925
-2.57247 -0.140407 3.84371
-2.56394 -0.140493 3.83805
-2.55537 -0.140579 3.83241
-2.54675 -0.140666 3.82677
-2.53809 -0.140754 3.82114
-2.52944 -0.140842 3.8155
-2.52074 -0.14093 3.80987
-2.51198 -0.141019 3.80425
-2.50128 -0.141145 3.7996
-2.49259 -0.141233 3.79392
-2.48385 -0.141322 3.78826
-2.47505 -0.141411 3.78261
-2.4662 -0.141502 3.77697
-2.4573 -0.141593 3.77135
-2.44711 -0.141709 3.76636
-2.43826 -0.141799 3.76068
-2.42937 -0.14189 3.75501
-2.42041 -0.141982 3.74936
-2.4114 -0.142075 3.74372
-2.40234 -0.142169 3.7381
-2.39266 -0.142274 3.73277
-2.38366 -0.142367 3.72709
-2.3746 -0.142461 3.72142
-2.36429 -0.142577 3.71635
-2.35521 -0.142671 3.71066
-2.34607 -0.142766 3.705
-2.33688 -0.142861 3.69934
-2.32672 -0.142975 3.69413
-2.31862 -0.14305 3.68793
-2.30823 -0.143167 3.6828
-2.2982 -0.143278 3.67749
-2.29017 -0.143351 3.67121
-2.28089 -0.143448 3.66551
-2.27097 -0.143556 3.66011
-2.26167 -0.143653 3.65439
-2.25374 -0.143724 3.64802
-2.24251 -0.143857 3.64319
-2.23313 -0.143955 3.63747
-2.22527 -0.144024 3.63102
-2.214 -0.144157 3.62616
-2.2062 -0.144226 3.61967
-2.19676 -0.144324 3.61392
-2.18718 -0.144425 3.60823
-2.17772 -0.144524 3.60247
-2.16823 -0.144623 3.5967
-2.15874 -0.144722 3.59092
-2.15109 -0.144787 3.58429
-2.13983 -0.144919 3.5793
-2.13223 -0.144983 3.57262
-2.12268 -0.145083 3.56682
-2.11343 -0.145177 3.56087
-2.10386 -0.145277 3.55505
-2.09636 -0.145339 3.54828
-2.0851 -0.14547 3.54319
-2.07766 -0.14553 3.53638
-2.06803 -0.145631 3.53053
-2.05902 -0.14572 3.5244
-2.05166 -0.145779 3.51752
-2.04044 -0.145909 3.51233
-2.03314 -0.145967 3.50541
-2.02348 -0.146067 3.4995
-2.01468 -0.146152 3.49322
-2.00501 -0.146253 3.4873
-1.99781 -0.146309 3.48029
-1.98913 -0.146391 3.47391
-1.97946 -0.146491 3.46795
-1.97233 -0.146545 3.46088
-1.96118 -0.146673 3.45554
-1.95411 -0.146725 3.44842
-1.94707 -0.146778 3.44129
-1.93596 -0.146904 3.43588
-1.92898 -0.146955 3.4287
-1.92202 -0.147005 3.42151
-1.91096 -0.14713 3.41604
-1.90406 -0.14718 3.4088
-1.89719 -0.147228 3.40154
-1.88618 -0.147352 3.39601
-1.87936 -0.1474 3.38871
-1.87257 -0.147447 3.38139
-1.86161 -0.147569 3.3758
-1.85488 -0.147615 3.36844
-1.84818 -0.14766 3.36106
-1.84028 -0.147727 3.35418
-1.83054 -0.147827 3.34803
-1.82373 -0.147874 3.34067
-1.81693 -0.147921 3.3333
-1.81014 -0.147968 3.32593
-1.80335 -0.148014 3.31854
-1.7922 -0.148139 3.31291
-1.78543 -0.148185 3.3055
-1.77866 -0.148231 3.29808
-1.77191 -0.148277 3.29065
-1.76199 -0.14838 3.28448
-1.75524 -0.148425 3.27703
-1.74725 -0.148493 3.27007
-1.74052 -0.148538 3.2626
-1.73055 -0.148641 3.2564
-1.72384 -0.148686 3.24891
-1.71712 -0.14873 3.24141
-1.71042 -0.148774 3.2339
-1.70372 -0.148818 3.22639
-1.69249 -0.148944 3.22062
-1.68581 -0.148988 3.21308
-1.67913 -0.149031 3.20553
-1.67246 -0.149075 3.19797
-1.6658 -0.149118 3.19041
-1.65915 -0.149161 3.18284
-1.64791 -0.149286 3.177
-1.64127 -0.149328 3.1694
-1.63464 -0.149371 3.1618
-1.62801 -0.149413 3.15418
-1.6214 -0.149455 3.14656
-1.61479 -0.149497 3.13893
-1.60818 -0.149539 3.13129
-1.59695 -0.149663 3.12537
-1.59036 -0.149705 3.1177
-1.58378 -0.149746 3.11003
-1.57721 -0.149787 3.10236
-1.57065 -0.149828 3.09467
-1.56409 -0.149869 3.08697
-1.55754 -0.149909 3.07927
-1.54986 -0.14997 3.07197
-1.53978 -0.150073 3.06554
-1.53325 -0.150113 3.0578
-1.52673 -0.150153 3.05006
-1.52022 -0.150192 3.04231
-1.51371 -0.150232 3.03455
-1.50611 -0.15029 3.02718
-1.49962 -0.150329 3.01941
-1.49315 -0.150368 3.01162
-1.48668 -0.150407 3.00383
-1.48021 -0.150445 2.99603
-1.47376 -0.150484 2.98822
-1.46731 -0.150522 2.98041
-1.46087 -0.15056 2.97258
-1.45444 -0.150598 2.96475
-1.4433 -0.150718 2.95854
-1.43689 -0.150756 2.95069
-1.43048 -0.150793 2.94283
-1.42408 -0.15083 2.93496
-1.41769 -0.150867 2.92709
-1.4113 -0.150903 2.9192
-1.40389 -0.150958 2.91167
-1.39753 -0.150994 2.90376
-1.39117 -0.15103 2.89586
-1.38482 -0.151066 2.88794
-1.37848 -0.151102 2.88002
-1.37214 -0.151138 2.87209
-1.36582 -0.151173 2.86415
-1.3595 -0.151208 2.85621
-1.35319 -0.151243 2.84826
-1.34589 -0.151296 2.84062
-1.34328 -0.151266 2.83145
-1.337 -0.151301 2.82348
-1.33072 -0.151335 2.8155
-1.32446 -0.151369 2.80751
-1.3182 -0.151403 2.79952
-1.31196 -0.151437 2.79152
-1.30572 -0.15147 2.78351
-1.29949 -0.151504 2.7755
-1.29326 -0.151537 2.76747
-1.28705 -0.15157 2.75944
-1.2799 -0.151619 2.75171
-1.2737 -0.151652 2.74366
-1.26752 -0.151684 2.73561
-1.26134 -0.151716 2.72755
-1.2588 -0.151686 2.71836
-1.25264 -0.151717 2.71029
-1.24649 -0.151749 2.70221
-1.24034 -0.151781 2.69413
-1.23421 -0.151812 2.68604
-1.22808 -0.151843 2.67794
-1.22196 -0.151874 2.66984
-1.21497 -0.151921 2.662
-1.21244 -0.15189 2.6528
-1.20635 -0.15192 2.64468
-1.20027 -0.15195 2.63656
-1.1942 -0.15198 2.62842
-1.18814 -0.15201 2.62028
-1.18209 -0.15204 2.61213
-1.17605 -0.152069 2.60398
-1.17352 -0.152038 2.59479
-1.16749 -0.152068 2.58663
-1.16148 -0.152097 2.57846
-1.15547 -0.152125 2.57028
-1.14947 -0.152154 2.5621
-1.14348 -0.152183 2.55391
-1.14094 -0.152152 2.54473
-1.13497 -0.15218 2.53653
-1.12819 -0.152222 2.52856
-1.12224 -0.152249 2.52035
-1.1163 -0.152277 2.51213
-1.11374 -0.152247 2.50296
-1.10782 -0.152274 2.49473
-1.10191 -0.152301 2.4865
-1.096 -0.152328 2.47826
-1.09011 -0.152354 2.47002
-1.08752 -0.152324 2.46086
-1.08164 -0.15235 2.45261
-1.07578 -0.152377 2.44435
-1.06992 -0.152402 2.43608
-1.06654 -0.152386 2.42714
-1.06145 -0.152399 2.41867
-1.05562 -0.152424 2.41039
-1.0498 -0.152449 2.4021
-1.04399 -0.152474 2.39381
-1.04133 -0.152446 2.38468
-1.03554 -0.152471 2.37638
-1.02976 -0.152495 2.36808
-1.02327 -0.152531 2.35996
-1.02057 -0.152503 2.35084
-1.01553 -0.152515 2.34234
-1.00909 -0.152551 2.3342
-1.00336 -0.152575 2.32586
-1.00061 -0.152547 2.31676
-0.994901 -0.152571 2.30843
-0.9892 -0.152594 2.30008
-0.985729 -0.152579 2.29117
-0.980717 -0.15259 2.28265
-0.975045 -0.152612 2.27429
-0.969382 -0.152635 2.26593
-0.965882 -0.15262 2.25702
-0.960889 -0.152631 2.24849
-0.955255 -0.152653 2.24012
-0.949632 -0.152675 2.23174
-0.946731 -0.15265 2.22269
-0.941127 -0.152671 2.2143
-0.935532 -0.152692 2.20591
-0.931954 -0.152679 2.19703
-0.926994 -0.15269 2.18848
-0.92143 -0.15271 2.18007
-0.915875 -0.15273 2.17166
-0.912857 -0.152708 2.16265
-0.907322 -0.152728 2.15423
-0.901797 -0.152748 2.14581
-0.898135 -0.152736 2.13695
-0.893208 -0.152746 2.12839
-0.887713 -0.152765 2.11995
-0.882227 -0.152784 2.11152
-0.879087 -0.152764 2.10253
-0.873622 -0.152782 2.09409
-0.868166 -0.152801 2.08564
-0.864957 -0.152782 2.07668
-0.859522 -0.1528 2.06822
-0.854097 -0.152818 2.05976
-0.850818 -0.1528 2.05082
-0.845413 -0.152818 2.04235
-0.840018 -0.152835 2.03388
-0.836667 -0.152818 2.02495
-0.831293 -0.152835 2.01647
-0.825928 -0.152852 2.00799
-0.822008 -0.152845 1.99919
-0.817161 -0.152853 1.99059
-0.811827 -0.15287 1.9821
-0.808329 -0.152855 1.97321
-0.803016 -0.152871 1.96471
-0.797713 -0.152887 1.9562
-0.794139 -0.152874 1.94733
-0.788857 -0.15289 1.93882
-0.783585 -0.152905 1.9303
-0.779935 -0.152893 1.92145
-0.774684 -0.152908 1.91292
-0.769443 -0.152923 1.9044
-0.765715 -0.152912 1.89556
-0.760495 -0.152927 1.88703
-0.756255 -0.152925 1.87829
-0.751479 -0.152932 1.86967
-0.74629 -0.152945 1.86113
-0.741987 -0.152945 1.85241
-0.737226 -0.152951 1.84378
-0.732069 -0.152964 1.83522
-0.728092 -0.152958 1.82644
-0.722956 -0.152971 1.81788
-0.718506 -0.152973 1.80918
-0.713772 -0.152979 1.80054
-0.708667 -0.152991 1.79198
-0.704197 -0.152993 1.78328
-0.699501 -0.152999 1.77464
-0.694484 -0.153009 1.76605
-0.690326 -0.153006 1.75729
-0.685361 -0.153016 1.74869
-0.680422 -0.153026 1.74009
-0.67623 -0.153023 1.73134
-0.671342 -0.153032 1.72272
-0.666846 -0.153034 1.71403
-0.662252 -0.153038 1.70536
-0.657227 -0.153049 1.69677
-0.652949 -0.153047 1.68803
-0.648205 -0.153054 1.67939
-0.643486 -0.15306 1.67073
-0.639171 -0.153059 1.66201
-0.634505 -0.153064 1.65335
-0.629865 -0.153069 1.64468
-0.625512 -0.153068 1.63596
-0.620925 -0.153072 1.62728
-0.616363 -0.153075 1.6186
-0.611972 -0.153076 1.60988
-0.607463 -0.153078 1.60119
-0.60298 -0.15308 1.59249
-0.598551 -0.153082 1.58379
-0.594121 -0.153083 1.57508
-0.589717 -0.153083 1.56637
-0.58534 -0.153084 1.55765
-0.581023 -0.153083 1.54893
-0.576724 -0.153082 1.5402
-0.572452 -0.153081 1.53146
-0.568146 -0.15308 1.52274
-0.563897 -0.153078 1.514
-0.559705 -0.153075 1.50526
-0.555539 -0.153072 1.49651
-0.551191 -0.153072 1.48779
-0.547078 -0.153068 1.47903
-0.542992 -0.153064 1.47027
-0.538606 -0.153064 1.46156
-0.534573 -0.153059 1.45279
-0.530567 -0.153053 1.44402
-0.526395 -0.15305 1.43527
-0.522188 -0.153048 1.42653
-0.518263 -0.153041 1.41775
-0.514364 -0.153033 1.40897
-0.509926 -0.153034 1.40026
-0.506081 -0.153026 1.39147
-0.502262 -0.153018 1.38268
-0.498185 -0.153013 1.37392
-0.494021 -0.15301 1.36518
-0.490284 -0.153 1.35638
-0.486573 -0.15299 1.34757
-0.482085 -0.152992 1.33887
-0.478429 -0.15298 1.33006
-0.474799 -0.152969 1.32125
-0.471197 -0.152957 1.31243
-0.466698 -0.152959 1.30374
-0.46315 -0.152946 1.29492
-0.459629 -0.152933 1.2861
-0.455701 -0.152926 1.27733
-0.451626 -0.152921 1.26858
-0.448186 -0.152907 1.25975
-0.445255 -0.152884 1.25086
-0.440228 -0.152895 1.24224
-0.43687 -0.152879 1.2334
-0.434062 -0.152854 1.2245
-0.430773 -0.152837 1.21565
-0.425682 -0.152849 1.20704
-0.422996 -0.152822 1.19813
-0.419789 -0.152804 1.18928
-0.41661 -0.152785 1.18044
-0.411457 -0.152798 1.17183
-0.408935 -0.152769 1.16291
-0.405838 -0.152749 1.15406
-0.402769 -0.152729 1.1452
-0.397555 -0.152742 1.13661
-0.394527 -0.152721 1.12775
-0.391527 -0.1527 1.1189
-0.388555 -0.152678 1.11004
-0.38561 -0.152656 1.10118
-0.38106 -0.152659 1.09251
-0.378171 -0.152636 1.08365
-0.37531 -0.152612 1.0748
-0.372477 -0.152588 1.06594
-0.368898 -0.152576 1.05716
-0.365144 -0.152567 1.04841
-0.362394 -0.152542 1.03955
-0.359672 -0.152516 1.03068
-0.356978 -0.15249 1.02182
-0.352447 -0.152493 1.01316
-0.349809 -0.152466 1.00429
-0.347199 -0.152438 0.995433
-0.344617 -0.152411 0.986571
-0.341167 -0.152397 0.9778
-0.337558 -0.152385 0.969047
-0.33506 -0.152356 0.960185
-0.33259 -0.152327 0.951324
-0.330149 -0.152297 0.942463
-0.326771 -0.152282 0.933697
-0.323258 -0.152269 0.924945
-0.320901 -0.152238 0.916085
-0.318572 -0.152206 0.907227
-0.316272 -0.152174 0.898369
-0.312966 -0.152158 0.889608
-0.309551 -0.152144 0.880858
-0.307336 -0.15211 0.872002
-0.305149 -0.152077 0.863148
-0.30299 -0.152043 0.854295
-0.30086 -0.152008 0.845444
-0.295325 -0.152027 0.83689
-0.293238 -0.151992 0.82804
-0.291179 -0.151956 0.819192
-0.289149 -0.15192 0.810346
-0.287147 -0.151884 0.801502
-0.285174 -0.151847 0.792659
-0.280804 -0.151848 0.784014
-0.278888 -0.15181 0.775174
-0.277 -0.151772 0.766336
-0.275141 -0.151734 0.7575
-0.273311 -0.151695 0.748666
-0.27151 -0.151656 0.739835
-0.267203 -0.151656 0.731196
-0.265459 -0.151616 0.722368
-0.262439 -0.151595 0.713637
-0.260739 -0.151555 0.704814
-0.259067 -0.151514 0.695993
-0.257424 -0.151472 0.687176
-0.254457 -0.151451 0.678455
-0.251584 -0.151429 0.66973
-0.250027 -0.151386 0.660919
-0.248499 -0.151343 0.65211
-0.247 -0.151299 0.643305
-0.24553 -0.151255 0.634503
-0.244089 -0.151211 0.625705
-0.241226 -0.151188 0.617002
-0.237085 -0.151186 0.60838
-0.235716 -0.15114 0.599589
-0.234377 -0.151094 0.590802
-0.233066 -0.151048 0.582018
-0.231785 -0.151002 0.573238
-0.230532 -0.150954 0.564462
-0.229308 -0.150907 0.555689
-0.228114 -0.150859 0.546921
-0.224103 -0.150855 0.538313
-0.221384 -0.15083 0.529636
-0.220262 -0.150781 0.520876
-0.21917 -0.150732 0.512121
-0.218106 -0.150682 0.50337
-0.217072 -0.150632 0.494623
-0.216067 -0.150582 0.485881
-0.215091 -0.150531 0.477143
-0.214144 -0.150479 0.468409
-0.211539 -0.150453 0.45976
-0.207693 -0.150447 0.451171
-0.206819 -0.150394 0.442448
-0.205975 -0.150342 0.43373
-0.20516 -0.150288 0.425017
-0.204374 -0.150235 0.416309
-0.203617 -0.150181 0.407606
-0.201112 -0.150154 0.39898
-0.2004 -0.150099 0.390286
-0.199717 -0.150044 0.381598
-0.199063 -0.149989 0.372914
-0.198438 -0.149933 0.364236
-0.197843 -0.149877 0.355564
-0.194238 -0.149867 0.347004
-0.191833 -0.149838 0.338404
-0.191311 -0.149781 0.329744
-0.190819 -0.149723 0.32109
-0.190356 -0.149665 0.312441
-0.189923 -0.149607 0.303799
-0.189518 -0.149548 0.295162
-0.187198 -0.149519 0.286588
-0.186838 -0.149459 0.277962
-0.186508 -0.1494 0.269341
-0.186207 -0.149339 0.260727
-0.185935 -0.149279 0.25212
-0.185692 -0.149218 0.243518
-0.183457 -0.149187 0.234971
-0.183259 -0.149126 0.226381
-0.183091 -0.149064 0.217797
-0.182951 -0.149002 0.20922
-0.182841 -0.148939 0.200649
-0.18276 -0.148876 0.192085
-0.180611 -0.148844 0.183566
-0.180575 -0.14878 0.175014
-0.17845 -0.148748 0.166505
-0.177466 -0.148699 0.15798
-0.177518 -0.148634 0.149446
-0.175439 -0.148602 0.14095
-0.175536 -0.148536 0.132428
-0.175663 -0.14847 0.123913
-0.175818 -0.148404 0.115405
-0.176003 -0.148338 0.106905
-0.173995 -0.148304 0.0984344
-0.174225 -0.148237 0.089947
-0.174484 -0.148169 0.0814671
-0.174772 -0.148101 0.0729947
-0.175089 -0.148033 0.0645298
-0.173152 -0.147999 0.0560857
-0.173514 -0.14793 0.0476343
-0.173906 -0.147861 0.0391906
-0.174326 -0.147791 0.0307547
-0.174776 -0.147721 0.0223268
-0.17291 -0.147686 0.0139101
-0.173405 -0.147615 0.00549605
-2.83447 -0.127601 4.20711
-2.84613 -0.127323 4.19003
-2.84835 -0.127213 4.17851
-2.85345 -0.127052 4.16533
-2.85537 -0.126948 4.15403
-2.85715 -0.126847 4.14282
-2.85587 -0.126799 4.1334
-2.85734 -0.126703 4.1224
-2.85575 -0.126662 4.11317
-2.85401 -0.126623 4.10405
-2.84968 -0.12663 4.0964
-2.84768 -0.126596 4.08743
-2.84323 -0.126605 4.07986
-2.83874 -0.126615 4.07231
-2.83421 -0.126625 4.06478
-2.82964 -0.126636 4.05727
-2.82503 -0.126648 4.04979
-2.8196 -0.126675 4.04276
-2.81486 -0.126689 4.03534
-2.81006 -0.126704 4.02795
-2.80522 -0.12672 4.02059
-2.7976 -0.126785 4.01477
-2.79266 -0.126802 4.00744
-2.78658 -0.12684 4.00075
-2.7788 -0.126907 3.99499
-2.77367 -0.126928 3.98777
-2.76582 -0.126997 3.98203
-2.76058 -0.12702 3.97485
-2.75264 -0.12709 3.96915
-2.74606 -0.127136 3.96269
-2.73928 -0.127185 3.95633
-2.73122 -0.127257 3.95066
-2.72468 -0.127303 3.94416
-2.71659 -0.127375 3.93848
-2.70848 -0.127448 3.93281
-2.70287 -0.127476 3.92578
-2.69466 -0.127551 3.92014
-2.6864 -0.127626 3.91451
-2.67811 -0.127701 3.9089
-2.66977 -0.127777 3.90329
-2.66138 -0.127854 3.89769
-2.65244 -0.127941 3.89238
-2.64651 -0.127975 3.88547
-2.63805 -0.128053 3.87988
-2.62954 -0.128132 3.87431
-2.61856 -0.128253 3.87002
-2.61215 -0.128295 3.86332
-2.60357 -0.128375 3.85774
-2.59495 -0.128455 3.85218
-2.58627 -0.128537 3.84662
-2.57518 -0.12866 3.84231
-2.56647 -0.128741 3.83675
-2.55777 -0.128823 3.83117
-2.55128 -0.128866 3.82445
-2.54029 -0.128986 3.82001
-2.53148 -0.12907 3.81445
-2.52261 -0.129153 3.80891
-2.51402 -0.129232 3.80321
-2.50513 -0.129317 3.79765
-2.49432 -0.129434 3.79305
-2.48541 -0.129518 3.78747
-2.47645 -0.129603 3.78191
-2.46743 -0.129689 3.77636
-2.45835 -0.129776 3.77082
-2.44922 -0.129864 3.7653
-2.43933 -0.129964 3.76015
-2.43026 -0.130051 3.75457
-2.42113 -0.130138 3.749
-2.41065 -0.130249 3.74409
-2.40151 -0.130336 3.73851
-2.39231 -0.130424 3.73294
-2.38305 -0.130514 3.72738
-2.37272 -0.130621 3.72234
-2.3645 -0.130692 3.71625
-2.35411 -0.130801 3.7112
-2.34389 -0.130906 3.70605
-2.33575 -0.130975 3.69989
-2.32641 -0.131065 3.69428
-2.31565 -0.13118 3.68936
-2.30695 -0.131259 3.68342
-2.29753 -0.13135 3.67781
-2.28653 -0.131468 3.67295
-2.2781 -0.131542 3.66684
-2.2686 -0.131634 3.66123
-2.25873 -0.131732 3.65578
-2.24921 -0.131824 3.65016
-2.23963 -0.131918 3.64454
-2.22987 -0.132014 3.639
-2.22027 -0.132107 3.63336
-2.21059 -0.132202 3.62775
-2.20096 -0.132296 3.6221
-2.19319 -0.132358 3.61558
-2.18172 -0.132482 3.61075
-2.174 -0.132543 3.60418
-2.16431 -0.132638 3.5985
-2.15486 -0.132728 3.5927
-2.14516 -0.132822 3.587
-2.13365 -0.132947 3.58211
-2.12606 -0.133005 3.57542
-2.11849 -0.133063 3.56872
-2.10703 -0.133187 3.56376
-2.09951 -0.133244 3.557
-2.08805 -0.133367 3.55201
-2.08059 -0.133423 3.54521
-2.07078 -0.133519 3.53945
-2.06174 -0.133601 3.53333
-2.05191 -0.133697 3.52755
-2.04455 -0.133751 3.52066
-2.0331 -0.133873 3.51557
-2.02579 -0.133926 3.50864
-2.01435 -0.134048 3.50351
-2.0071 -0.1341 3.49653
-1.9972 -0.134196 3.4907
-1.98848 -0.134272 3.48434
-1.98131 -0.134323 3.4773
-1.96993 -0.134443 3.47207
-1.96282 -0.134492 3.46498
-1.9529 -0.134589 3.4591
-1.9444 -0.134661 3.45258
-1.93737 -0.134708 3.44543
-1.92745 -0.134804 3.43951
-1.91907 -0.134874 3.43291
-1.91213 -0.13492 3.4257
-1.90221 -0.135015 3.41973
-1.89397 -0.135083 3.41305
-1.88404 -0.135178 3.40706
-1.87719 -0.135222 3.39977
-1.86908 -0.135287 3.393
-1.8623 -0.13533 3.38567
-1.8524 -0.135425 3.37962
-1.84441 -0.135488 3.37277
-1.83772 -0.135529 3.36538
-1.82782 -0.135623 3.35929
-1.81979 -0.135687 3.35243
-1.81298 -0.13573 3.34506
-1.80618 -0.135772 3.33768
-1.79609 -0.13587 3.33163
-1.7893 -0.135912 3.32423
-1.78252 -0.135955 3.31682
-1.77574 -0.135997 3.3094
-1.76434 -0.136116 3.30383
-1.75758 -0.136157 3.29638
-1.75082 -0.136199 3.28893
-1.74407 -0.136241 3.28147
-1.73264 -0.136359 3.27586
-1.72591 -0.136401 3.26837
-1.71918 -0.136442 3.26088
-1.71246 -0.136482 3.25337
-1.70224 -0.136581 3.24723
-1.69553 -0.136621 3.23971
-1.68883 -0.136662 3.23218
-1.68092 -0.136722 3.22511
-1.67423 -0.136762 3.21755
-1.66397 -0.136861 3.21137
-1.6573 -0.136901 3.2038
-1.65064 -0.13694 3.19621
-1.64398 -0.136979 3.18862
-1.63614 -0.137038 3.18148
-1.62584 -0.137137 3.17525
-1.61921 -0.137176 3.16763
-1.61258 -0.137215 3.16
-1.60596 -0.137253 3.15236
-1.59935 -0.137292 3.14471
-1.59274 -0.13733 3.13705
-1.58125 -0.137448 3.13121
-1.57466 -0.137486 3.12353
-1.56808 -0.137523 3.11584
-1.5615 -0.137561 3.10814
-1.55493 -0.137598 3.10044
-1.54837 -0.137635 3.09272
-1.54068 -0.137691 3.08542
-1.53034 -0.13779 3.07907
-1.5238 -0.137826 3.07132
-1.51727 -0.137863 3.06357
-1.51075 -0.137899 3.05581
-1.50424 -0.137936 3.04805
-1.49662 -0.13799 3.04067
-1.49013 -0.138025 3.03288
-1.48364 -0.138061 3.02509
-1.47715 -0.138097 3.01728
-1.47068 -0.138132 3.00947
-1.46421 -0.138167 3.00166
-1.4528 -0.138283 2.99557
-1.44635 -0.138317 2.98773
-1.4399 -0.138352 2.97988
-1.43347 -0.138387 2.97203
-1.42704 -0.138421 2.96416
-1.42063 -0.138455 2.95629
-1.41421 -0.138489 2.94842
-1.40781 -0.138523 2.94053
-1.40037 -0.138573 2.93299
-1.39399 -0.138607 2.92509
-1.38761 -0.13864 2.91718
-1.38124 -0.138673 2.90926
-1.37488 -0.138706 2.90133
-1.36853 -0.138739 2.8934
-1.36219 -0.138772 2.88546
-1.35585 -0.138805 2.87751
-1.34852 -0.138853 2.86989
-1.3422 -0.138885 2.86193
-1.33589 -0.138917 2.85395
-1.32959 -0.138949 2.84597
-1.3233 -0.138981 2.83799
-1.31701 -0.139012 2.82999
-1.31369 -0.138996 2.82103
-1.30839 -0.139012 2.81271
-1.30214 -0.139043 2.8047
-1.29588 -0.139074 2.79668
-1.28964 -0.139104 2.78866
-1.28245 -0.13915 2.78093
-1.27623 -0.13918 2.77289
-1.27002 -0.139211 2.76484
-1.26381 -0.139241 2.75678
-1.25762 -0.13927 2.74872
-1.25143 -0.1393 2.74065
-1.24821 -0.139282 2.73165
-1.24296 -0.139297 2.72328
-1.2368 -0.139326 2.71519
-1.23065 -0.139355 2.7071
-1.2245 -0.139384 2.699
-1.21746 -0.139427 2.69117
-1.21134 -0.139455 2.68305
-1.20522 -0.139484 2.67493
-1.20296 -0.139451 2.66564
-1.19686 -0.139479 2.65751
-1.19077 -0.139507 2.64937
-1.18469 -0.139534 2.64122
-1.17862 -0.139562 2.63307
-1.17256 -0.139589 2.62492
-1.16943 -0.13957 2.61588
-1.16424 -0.139583 2.60746
-1.15821 -0.13961 2.59929
-1.15218 -0.139637 2.59111
-1.14616 -0.139663 2.58292
-1.13932 -0.139703 2.57497
-1.13788 -0.139657 2.56546
-1.13107 -0.139696 2.55749
-1.12509 -0.139722 2.54928
-1.11912 -0.139748 2.54107
-1.11602 -0.139728 2.53203
-1.11088 -0.139741 2.52358
-1.10494 -0.139766 2.51535
-1.09901 -0.139791 2.50711
-1.09309 -0.139816 2.49887
-1.08999 -0.139796 2.48983
-1.08487 -0.139808 2.48136
-1.07898 -0.139832 2.47311
-1.07309 -0.139857 2.46484
-1.06721 -0.139881 2.45657
-1.06488 -0.139849 2.44733
-1.05902 -0.139873 2.43906
-1.05318 -0.139896 2.43077
-1.04734 -0.13992 2.42248
-1.04497 -0.139889 2.41326
-1.03915 -0.139912 2.40496
-1.03334 -0.139934 2.39666
-1.02682 -0.139968 2.38854
-1.02514 -0.139927 2.37914
-1.01936 -0.139949 2.37082
-1.01288 -0.139982 2.36269
-1.00712 -0.140004 2.35436
-1.00538 -0.139964 2.34498
-0.998947 -0.139996 2.33683
-0.993218 -0.140018 2.32849
-0.990053 -0.139999 2.31948
-0.985025 -0.14001 2.31096
-0.979326 -0.140031 2.3026
-0.973635 -0.140051 2.29424
-0.971111 -0.140023 2.28508
-0.96544 -0.140044 2.27671
-0.959779 -0.140064 2.26834
-0.956554 -0.140046 2.25935
-0.95156 -0.140056 2.25081
-0.945928 -0.140076 2.24243
-0.940306 -0.140096 2.23404
-0.937683 -0.140069 2.22491
-0.932081 -0.140088 2.21651
-0.926489 -0.140108 2.20811
-0.923196 -0.140091 2.19915
-0.918236 -0.140101 2.19059
-0.912673 -0.140119 2.18218
-0.909337 -0.140104 2.17323
-0.904391 -0.140113 2.16466
-0.898858 -0.140131 2.15624
-0.893335 -0.140149 2.14781
-0.890545 -0.140125 2.13873
-0.885043 -0.140143 2.13029
-0.87955 -0.14016 2.12185
-0.876697 -0.140137 2.1128
-0.871224 -0.140154 2.10435
-0.865762 -0.140171 2.09589
-0.862845 -0.140149 2.08686
-0.857403 -0.140166 2.0784
-0.851971 -0.140182 2.06993
-0.848988 -0.140161 2.06091
-0.843576 -0.140178 2.05244
-0.838175 -0.140194 2.04396
-0.83461 -0.140181 2.03508
-0.829743 -0.140189 2.02648
-0.824372 -0.140205 2.01799
-0.821253 -0.140186 2.00901
-0.815903 -0.140201 2.00052
-0.810563 -0.140216 1.99202
-0.807373 -0.140198 1.98306
-0.802054 -0.140213 1.97455
-0.796744 -0.140228 1.96605
-0.793483 -0.140211 1.9571
-0.788195 -0.140225 1.94859
-0.782917 -0.140239 1.94007
-0.779583 -0.140224 1.93114
-0.774325 -0.140237 1.92262
-0.770465 -0.14023 1.9138
-0.76567 -0.140236 1.90518
-0.760444 -0.14025 1.89664
-0.756524 -0.140243 1.88784
-0.751745 -0.140249 1.87921
-0.74655 -0.140262 1.87067
-0.74298 -0.14025 1.86179
-0.737806 -0.140262 1.85324
-0.733748 -0.140258 1.84447
-0.728995 -0.140264 1.83583
-0.723853 -0.140276 1.82727
-0.719733 -0.140272 1.81851
-0.714995 -0.140278 1.80987
-0.709884 -0.140289 1.8013
-0.706078 -0.140281 1.79248
-0.701019 -0.140292 1.78389
-0.696834 -0.140289 1.77514
-0.692155 -0.140294 1.76649
-0.687174 -0.140303 1.75789
-0.683283 -0.140296 1.74908
-0.678355 -0.140305 1.74047
-0.673453 -0.140313 1.73186
-0.669528 -0.140306 1.72306
-0.664678 -0.140314 1.71443
-0.659854 -0.140321 1.7058
-0.655895 -0.140315 1.69701
-0.651123 -0.140321 1.68836
-0.646919 -0.140319 1.67962
-0.642383 -0.140321 1.67093
-0.63769 -0.140326 1.66227
-0.633489 -0.140324 1.65352
-0.628992 -0.140326 1.64483
-0.624377 -0.14033 1.63616
-0.62018 -0.140327 1.62741
-0.615722 -0.140329 1.61871
-0.611108 -0.140333 1.61003
-0.606991 -0.140329 1.60127
-0.602521 -0.140331 1.59257
-0.598077 -0.140332 1.58387
-0.593922 -0.140329 1.57511
-0.589531 -0.140329 1.5664
-0.585174 -0.140329 1.55768
-0.580995 -0.140327 1.54893
-0.576696 -0.140326 1.5402
-0.572424 -0.140324 1.53147
-0.568207 -0.140322 1.52273
-0.563988 -0.14032 1.51399
-0.559795 -0.140318 1.50524
-0.55563 -0.140315 1.49649
-0.551491 -0.140312 1.48774
-0.547378 -0.140308 1.47898
-0.543293 -0.140304 1.47022
-0.539234 -0.140299 1.46146
-0.535202 -0.140295 1.45269
-0.531105 -0.140291 1.44394
-0.527126 -0.140285 1.43516
-0.523175 -0.140279 1.42638
-0.519039 -0.140276 1.41763
-0.515141 -0.140269 1.40885
-0.511523 -0.140258 1.40003
-0.507426 -0.140254 1.39127
-0.503558 -0.140247 1.38249
-0.499781 -0.140238 1.37369
-0.496031 -0.140229 1.36489
-0.491858 -0.140227 1.35615
-0.488162 -0.140217 1.34734
-0.484493 -0.140207 1.33854
-0.480851 -0.140196 1.32973
-0.476667 -0.140194 1.32099
-0.473079 -0.140183 1.31217
-0.469519 -0.140171 1.30336
-0.465572 -0.140165 1.29459
-0.46179 -0.140156 1.28581
-0.458311 -0.140144 1.27698
-0.454859 -0.14013 1.26815
-0.450967 -0.140124 1.25939
-0.447228 -0.140115 1.2506
-0.443858 -0.1401 1.24177
-0.440516 -0.140085 1.23293
-0.43668 -0.140078 1.22416
-0.432984 -0.140068 1.21537
-0.429724 -0.140052 1.20653
-0.426492 -0.140036 1.19769
-0.422711 -0.140028 1.18892
-0.419059 -0.140017 1.18013
-0.415909 -0.14 1.17129
-0.412787 -0.139982 1.16244
-0.409062 -0.139973 1.15367
-0.405456 -0.139962 1.14488
-0.402416 -0.139943 1.13603
-0.399404 -0.139923 1.12718
-0.39642 -0.139904 1.11833
-0.392175 -0.139902 1.10962
-0.389246 -0.139881 1.10077
-0.386345 -0.13986 1.09191
-0.383471 -0.139839 1.08306
-0.379873 -0.139828 1.07429
-0.376401 -0.139816 1.0655
-0.373611 -0.139793 1.05664
-0.370055 -0.139782 1.04787
-0.367308 -0.139758 1.03902
-0.363774 -0.139747 1.03025
-0.360371 -0.139733 1.02146
-0.357707 -0.139709 1.01261
-0.355071 -0.139684 1.00375
-0.352463 -0.139659 0.99489
-0.349 -0.139646 0.986123
-0.345688 -0.139632 0.977343
-0.343164 -0.139605 0.968485
-0.340669 -0.139579 0.959628
-0.338201 -0.139552 0.950772
-0.334003 -0.13955 0.942088
-0.331591 -0.139522 0.933232
-0.329208 -0.139494 0.924376
-0.326853 -0.139465 0.915522
-0.324527 -0.139436 0.906669
-0.321208 -0.139422 0.897911
-0.318083 -0.139404 0.889138
-0.315841 -0.139374 0.880286
-0.313628 -0.139344 0.871436
-0.311443 -0.139313 0.862588
-0.309286 -0.139282 0.853741
-0.305168 -0.139279 0.845068
-0.301951 -0.139263 0.836319
-0.299866 -0.139231 0.827475
-0.297809 -0.139198 0.818633
-0.29578 -0.139165 0.809793
-0.293781 -0.139132 0.800954
-0.289706 -0.139128 0.792289
-0.287763 -0.139094 0.783453
-0.285848 -0.13906 0.774619
-0.283962 -0.139025 0.765787
-0.282105 -0.13899 0.756957
-0.280277 -0.138954 0.74813
-0.276261 -0.13895 0.739473
-0.27449 -0.138914 0.730649
-0.272747 -0.138877 0.721827
-0.269729 -0.138858 0.713103
-0.26803 -0.138821 0.704286
-0.26636 -0.138783 0.695472
-0.264718 -0.138745 0.686661
-0.260779 -0.13874 0.678015
-0.259194 -0.138701 0.669207
-0.257638 -0.138662 0.660403
-0.256112 -0.138623 0.651601
-0.254614 -0.138583 0.642803
-0.253145 -0.138542 0.634008
-0.251704 -0.138502 0.625217
-0.248844 -0.138481 0.61652
-0.245012 -0.138474 0.607886
-0.243644 -0.138433 0.599103
-0.242305 -0.138391 0.590322
-0.240996 -0.138348 0.581545
-0.239715 -0.138306 0.572773
-0.238463 -0.138263 0.564003
-0.23724 -0.138219 0.555238
-0.236046 -0.138175 0.546477
-0.230771 -0.138189 0.537946
-0.229621 -0.138145 0.529189
-0.2285 -0.1381 0.520437
-0.227408 -0.138055 0.511689
-0.226345 -0.138009 0.502946
-0.225312 -0.137963 0.494206
-0.224307 -0.137917 0.485471
-0.223331 -0.13787 0.476741
-0.222384 -0.137823 0.468015
-0.219782 -0.1378 0.459373
-0.216232 -0.137789 0.450777
-0.215358 -0.137741 0.442062
-0.214514 -0.137693 0.433352
-0.213699 -0.137644 0.424647
-0.212913 -0.137595 0.415946
-0.212156 -0.137546 0.407251
-0.209653 -0.137521 0.398633
-0.20894 -0.137471 0.389946
-0.208257 -0.137421 0.381265
-0.207603 -0.13737 0.372589
-0.206978 -0.137319 0.363919
-0.206382 -0.137267 0.355254
-0.203964 -0.137241 0.34666
-0.200663 -0.137228 0.338099
-0.200141 -0.137176 0.329447
-0.199648 -0.137123 0.320801
-0.199185 -0.13707 0.31216
-0.19875 -0.137016 0.303525
-0.198345 -0.136963 0.294896
-0.196026 -0.136935 0.28633
-0.195666 -0.136881 0.277712
-0.195335 -0.136826 0.269099
-0.195032 -0.136771 0.260493
-0.19476 -0.136716 0.251893
-0.194516 -0.13666 0.243299
-0.192283 -0.136632 0.23476
-0.192084 -0.136576 0.226177
-0.191914 -0.136519 0.217601
-0.191773 -0.136462 0.209032
-0.191662 -0.136405 0.200468
-0.19158 -0.136347 0.191912
-0.189432 -0.136318 0.183401
-0.189395 -0.136259 0.174857
-0.189387 -0.136201 0.166319
-0.189408 -0.136142 0.157788
-0.189458 -0.136082 0.149264
-0.187381 -0.136053 0.140778
-0.185312 -0.136023 0.132296
-0.184756 -0.135972 0.123798
-0.18491 -0.135911 0.115299
-0.185093 -0.13585 0.106806
-0.183086 -0.13582 0.0983434
-0.183313 -0.135758 0.0898638
-0.183571 -0.135696 0.0813918
-0.183857 -0.135634 0.0729272
-0.184172 -0.135572 0.0644702
-0.182236 -0.13554 0.0560338
-0.182596 -0.135477 0.0475902
-0.182986 -0.135414 0.0391544
-0.183404 -0.13535 0.0307263
-0.183852 -0.135286 0.0223062
-0.181986 -0.135254 0.0138972
-0.182479 -0.135189 0.00549097
-2.85729 -0.11576 4.21418
-2.86886 -0.115508 4.19713
-2.87103 -0.115409 4.18564
-2.87604 -0.115264 4.17251
-2.87791 -0.11517 4.16124
-2.87963 -0.115079 4.15007
-2.87827 -0.115037 4.14071
-2.87703 -0.114994 4.13128
-2.87802 -0.114915 4.12058
-2.87372 -0.114921 4.11294
-2.87227 -0.114881 4.10366
-2.86741 -0.114896 4.09635
-2.86582 -0.114858 4.08716
-2.86071 -0.114877 4.07998
-2.85827 -0.114853 4.07129
-2.8536 -0.114865 4.06386
-2.84889 -0.114878 4.05646
-2.84413 -0.114891 4.04907
-2.83932 -0.114905 4.04172
-2.83171 -0.114965 4.03594
-2.82682 -0.11498 4.02863
-2.82082 -0.115013 4.02193
-2.81578 -0.115031 4.01469
-2.80797 -0.115093 4.00899
-2.80283 -0.115112 4.00179
-2.79495 -0.115175 3.99611
-2.78971 -0.115196 3.98896
-2.78175 -0.11526 3.98331
-2.7764 -0.115283 3.97621
-2.76836 -0.115348 3.97058
-2.76028 -0.115414 3.96496
-2.75478 -0.115439 3.95793
-2.74661 -0.115506 3.95234
-2.7384 -0.115574 3.94676
-2.73185 -0.115616 3.94027
-2.72362 -0.115684 3.93468
-2.71534 -0.115752 3.92911
-2.70702 -0.115822 3.92355
-2.7012 -0.115851 3.91663
-2.69278 -0.115922 3.9111
-2.68433 -0.115993 3.90558
-2.67582 -0.116065 3.90007
-2.66686 -0.116144 3.89479
-2.65834 -0.116216 3.88926
-2.64977 -0.116289 3.88375
-2.64115 -0.116363 3.87825
-2.63249 -0.116437 3.87276
-2.62378 -0.116511 3.86728
-2.61495 -0.116588 3.86185
-2.60622 -0.116663 3.85636
-2.59743 -0.116739 3.85088
-2.58867 -0.116814 3.84538
-2.57986 -0.11689 3.83989
-2.571 -0.116966 3.83441
-2.56208 -0.117044 3.82895
-2.55312 -0.117122 3.8235
-2.54242 -0.117227 3.81892
-2.53352 -0.117304 3.81341
-2.52457 -0.117382 3.80791
-2.51556 -0.11746 3.80243
-2.5065 -0.117539 3.79696
-2.4957 -0.117645 3.79235
-2.48662 -0.117725 3.78686
-2.47749 -0.117805 3.78139
-2.4683 -0.117886 3.77592
-2.45906 -0.117967 3.77047
-2.44844 -0.11807 3.76569
-2.44004 -0.118138 3.75979
-2.42986 -0.118234 3.75477
-2.42049 -0.118317 3.74932
-2.41103 -0.118402 3.74391
-2.40171 -0.118484 3.73841
-2.39118 -0.118585 3.73349
-2.38198 -0.118665 3.72791
-2.37258 -0.118748 3.7224
-2.36182 -0.118853 3.71755
-2.35288 -0.118929 3.7118
-2.34341 -0.119013 3.70629
-2.33241 -0.11912 3.7015
-2.32374 -0.119192 3.69557
-2.31419 -0.119277 3.69006
-2.30296 -0.119388 3.68533
-2.29455 -0.119455 3.67923
-2.28492 -0.119541 3.67371
-2.27328 -0.119658 3.66913
-2.26531 -0.119718 3.66279
