ply
format ascii 1.0
comment Created by Open3D
element vertex 1687
property double x
property double y
property double z
end_header
0.147747 0.0131215 0.870155
0.078333 0.0131041 0.829812
0.000168904 0.0130868 0.785101
0.134492 0.0130658 0.847867
0.126409 0.0130421 0.84034
-0.20869 0.0130251 0.667151
0.0182265 0.0130083 0.774965
0.0214926 0.0129916 0.770947
-0.0793493 0.0129815 0.712727
0.014683 0.012965 0.754073
-0.00674279 0.0129486 0.737677
-0.143222 0.0129356 0.662641
-0.103668 0.0129194 0.676723
0.0419315 0.0129034 0.743807
-0.232661 0.0128875 0.600774
0.0868705 0.0128811 0.751645
0.0693219 0.0128654 0.737117
-0.00927141 0.0128498 0.692039
-0.123941 0.0128344 0.628893
0.0700177 0.0128282 0.717004
-0.0821147 0.012813 0.635101
0.0118625 0.012798 0.676218
0.0824646 0.0127884 0.703839
-0.33668 0.0127771 0.487189
-0.0544739 0.012765 0.621513
-0.0663716 0.0127529 0.608784
-0.124514 0.0127445 0.571707
0.00914407 0.0127302 0.632547
-0.304514 0.0127207 0.468138
-0.221868 0.0127103 0.502178
-0.280413 0.0126985 0.46611
-0.034337 0.0126906 0.581039
-0.100874 0.0126771 0.54164
-0.0140346 0.0126713 0.576241
-0.177047 0.0126598 0.487924
-0.234872 0.0126484 0.452194
-0.0820601 0.012641 0.520408
-0.0621049 0.012628 0.524132
-0.108751 0.0126224 0.491998
-0.143444 0.0126098 0.468337
-0.237222 0.0126018 0.413509
-0.0990961 0.0125933 0.474844
-0.306844 0.0125823 0.364105
-0.13065 0.0125756 0.443862
-0.192689 0.0125648 0.40596
-0.0393776 0.0125583 0.474223
-0.279203 0.0125476 0.347409
-0.126486 0.0125423 0.414956
-0.126476 0.0125308 0.408404
-0.143724 0.0125256 0.390964
-0.223478 0.0125152 0.344151
-0.100282 0.0125093 0.397231
-0.193494 0.0124991 0.343667
-0.135285 0.012494 0.36395
-0.284019 0.0124832 0.282842
-0.162912 0.0124746 0.3359
-0.133345 0.0124683 0.34235
-0.148898 0.0124634 0.325743
-0.138848 0.0124531 0.323911
-0.171773 0.0124444 0.300046
-0.193288 0.0124386 0.280804
-0.214767 0.0124338 0.261222
-0.188254 0.0124243 0.267407
-0.183691 0.0124194 0.260927
-0.230476 0.01241 0.230432
-0.127859 0.0124054 0.272883
-0.103391 0.0123962 0.277989
-0.25698 0.0123916 0.19233
-0.179697 0.0123825 0.22382
-0.257218 0.012378 0.176185
-0.265468 0.0123691 0.16488
-0.146568 0.0123647 0.21545
-0.0555957 0.0123559 0.253727
-0.17057 0.0123515 0.187351
-0.247477 0.0123429 0.141659
-0.237337 0.0123386 0.13783
-0.188677 0.0123301 0.15489
-0.115282 0.0123259 0.182679
-0.257602 0.0123176 0.104216
-0.172883 0.0123134 0.137656
-0.237105 0.0123052 0.0982084
-0.13416 0.0123014 0.140671
-0.158929 0.0122974 0.119347
-0.141769 0.0122894 0.120538
-0.203581 0.0122855 0.0806796
-0.136016 0.0122776 0.107036
-0.168237 0.0122738 0.08196
-0.0839211 0.0122661 0.116654
-0.306141 0.0122623 -0.00343642
-0.25753 0.0122548 0.0133655
-0.229629 0.0122511 0.0183203
-0.189837 0.0122438 0.0306728
-0.232537 0.0122402 0.000311096
0.216677 0.026752 0.93734
0.245665 0.0266737 0.952652
0.186174 0.0266087 0.921702
0.111824 0.0265298 0.885558
0.240123 0.0264727 0.947375
0.114782 0.0264374 0.878981
0.191473 0.0263806 0.91504
0.0918887 0.0263455 0.85956
0.103949 0.0262891 0.863318
0.0970361 0.0262543 0.854191
0.257808 0.026212 0.93013
0.109488 0.0261776 0.850301
0.0563634 0.02613 0.820222
-0.0833711 0.026096 0.744682
-0.00738827 0.0260622 0.776995
-0.00669475 0.0260287 0.771657
0.00576991 0.0259954 0.772195
-0.0907295 0.0259691 0.717125
0.0464946 0.0259425 0.778998
0.0470887 0.0259099 0.773563
0.0167277 0.0258775 0.752633
-0.0281236 0.0258517 0.723411
0.046661 0.0258198 0.755036
-0.176418 0.0257882 0.637705
-0.0986851 0.0257755 0.667672
-0.0172469 0.0257443 0.70258
-0.0739747 0.0257134 0.668377
0.140497 0.0256828 0.769742
0.0388498 0.0256704 0.710044
-0.020305 0.0256402 0.674568
0.0222888 0.0256105 0.68993
-0.0644371 0.0255909 0.638941
0.0160359 0.0255689 0.671975
-0.157666 0.0255446 0.57834
-0.214286 0.0255204 0.543244
-0.266373 0.0255038 0.509127
0.0348133 0.0254756 0.653661
-0.279862 0.025456 0.488803
-0.118222 0.025436 0.562204
-0.288639 0.0254124 0.470195
-0.186728 0.025397 0.512969
-0.101225 0.0253702 0.549516
-0.0739159 0.0253505 0.555754
-0.110766 0.0253356 0.529104
-0.171153 0.0253127 0.492088
-0.0930527 0.0252981 0.522869
-0.0837334 0.0252726 0.521199
-0.306193 0.0252614 0.401151
-0.153907 0.0252365 0.470901
-0.0750356 0.0252169 0.503029
-0.184164 0.0252033 0.440095
-0.0636142 0.0251814 0.4935
-0.170387 0.0251683 0.431692
-0.0997742 0.0251447 0.460455
-0.285357 0.025134 0.358844
-0.252474 0.0251126 0.368381
-0.175416 0.025102 0.398092
-0.0761624 0.0250793 0.441079
-0.24913 0.0250689 0.345774
-0.135625 0.0250468 0.395809
-0.290577 0.0250288 0.310904
-0.193912 0.025016 0.350878
-0.102687 0.0249968 0.389316
-0.193139 0.0249847 0.335611
-0.219609 0.0249655 0.315234
0.0499842 0.0249547 0.441337
-0.193096 0.024935 0.312779
-0.170051 0.0249247 0.315541
-0.323683 0.0249052 0.231678
-0.100655 0.0248956 0.334346
-0.101076 0.0248764 0.327068
-0.194217 0.0248668 0.27165
-0.131032 0.0248479 0.29615
-0.247231 0.0248385 0.229195
-0.143183 0.0248199 0.274107
-0.418414 0.0248106 0.12763
-0.212024 0.0247922 0.223688
-0.0801346 0.0247831 0.280764
-0.336262 0.0247653 0.145491
0.030978 0.0247563 0.32023
-0.259807 0.0247386 0.167639
-0.244854 0.0247297 0.166227
-0.148554 0.0247123 0.20715
-0.304911 0.0247036 0.120074
-0.390597 0.0246864 0.0699749
-0.31347 0.0246779 0.0996309
-0.0677518 0.0246618 0.215049
-0.0544637 0.0246535 0.212771
-0.203013 0.0246452 0.129571
-0.025577 0.0246287 0.210952
-0.129977 0.0246206 0.149816
-0.177498 0.0246044 0.118685
-0.0346472 0.0245964 0.181161
-0.271767 0.0245806 0.0551951
-0.254517 0.0245727 0.0548591
-0.279732 0.0245572 0.0348087
-0.0681975 0.0245495 0.131601
-0.131667 0.0245342 0.0923853
-0.15693 0.0245267 0.0707646
-0.253298 0.0245118 0.0150607
-0.234628 0.0245044 0.0153914
-0.201963 0.0244898 0.0241637
-0.0795467 0.0244826 0.0763514
0.292842 0.040231 0.987635
0.180522 0.0401136 0.932183
0.264062 0.0399837 0.976034
0.0957196 0.0398979 0.889425
0.157732 0.039812 0.918038
0.175007 0.0397264 0.924314
0.159809 0.039641 0.914374
0.19007 0.0395882 0.923779
0.124301 0.0395035 0.888567
0.153763 0.0394512 0.897591
0.158557 0.0393878 0.895485
-0.00243068 0.0393361 0.809285
-0.0813394 0.0392846 0.764126
-0.00304314 0.0392133 0.799721
0.107745 0.0391625 0.849402
-0.0201333 0.0391121 0.779744
-0.200509 0.0390619 0.683828
-0.0358829 0.0390223 0.759309
0.0421508 0.0389825 0.791527
-0.00836143 0.0389335 0.760506
-0.0543894 0.0388848 0.731709
0.0084266 0.0388366 0.757315
0.186163 0.0387978 0.83938
0.0194648 0.0387503 0.750208
-0.0783849 0.0387118 0.694487
-0.107477 0.038684 0.671983
-0.131174 0.0386376 0.654266
-0.03925 0.0385916 0.694328
-0.111473 0.0385539 0.651427
-0.128384 0.0385274 0.634947
-0.212585 0.0384827 0.586884
-0.0618206 0.0384455 0.655478
-0.132963 0.03842 0.611827
-0.150568 0.0383765 0.596988
-0.0662886 0.0383399 0.632335
-0.217113 0.0383101 0.549389
-0.0202558 0.0382792 0.640416
-0.0884615 0.0382373 0.600183
-0.0843832 0.0382194 0.593379
0.0292538 0.0381783 0.644021
-0.192557 0.0381429 0.526307
-0.189287 0.0381202 0.519687
-0.113102 0.0380805 0.551499
-0.105342 0.0380631 0.546547
0.0163798 0.0380243 0.601072
-0.103262 0.0379941 0.533933
-0.129725 0.0379728 0.512355
-0.110584 0.0379351 0.515517
-0.222135 0.0379182 0.450916
-0.281317 0.0378813 0.414853
-0.1738 0.0378512 0.461369
-0.140685 0.0378315 0.469475
-0.189653 0.0377985 0.438115
-0.189724 0.0377794 0.429576
-0.0703861 0.0377446 0.482619
-0.114246 0.0377284 0.451863
-0.0449338 0.0376963 0.479607
-0.0426256 0.0376665 0.473594
-0.167417 0.0376469 0.402817
-0.240185 0.0376171 0.359301
-0.198682 0.0375987 0.371554
-0.0148601 0.0375688 0.456368
-0.183835 0.0375523 0.363178
-0.168023 0.0375217 0.364105
-0.209493 0.0375059 0.334603
-0.164015 0.0374757 0.350337
-0.114244 0.0374608 0.366381
-0.286113 0.037431 0.273425
-0.12116 0.0374162 0.347058
-0.299033 0.0373868 0.251081
-0.321846 0.0373722 0.230827
-0.263765 0.0373432 0.252808
-0.0437985 0.0373288 0.35394
-0.197956 0.0373006 0.269735
-0.124187 0.0372865 0.297759
-0.0181583 0.0372584 0.343661
-0.215072 0.0372444 0.236338
-0.212389 0.0372167 0.230543
-0.207538 0.037204 0.223968
-0.245624 0.0371768 0.197755
-0.251406 0.0371633 0.185979
-0.231438 0.0371365 0.188767
-0.380962 0.0371232 0.105113
-0.0684887 0.0370969 0.254125
-0.255615 0.0370855 0.151439
-0.0929225 0.0370597 0.225522
-0.141014 0.0370469 0.192562
-0.272431 0.0370214 0.119561
-0.335413 0.0370088 0.0791458
-0.365399 0.0369839 0.056829
-0.29481 0.0369715 0.0831886
-0.0791665 0.0369469 0.183654
-0.258063 0.0369348 0.0852596
-0.158602 0.0369107 0.1276
-0.204991 0.0369015 0.0950965
-0.176333 0.0368779 0.101991
-0.259218 0.0368662 0.0515721
-0.220952 0.0368431 0.063234
-0.147359 0.0368317 0.0910405
-0.268602 0.036809 0.0229109
-0.32059 0.0367978 -0.0120873
-0.28455 0.0367756 -0.00161475
-0.230537 0.0367646 0.0163725
-0.276938 0.0367429 -0.014415
-0.262905 0.0367322 -0.0164338
0.224808 0.0538217 0.962621
0.100964 0.0536075 0.905767
0.281994 0.0534499 0.997049
0.0953287 0.0532919 0.904585
0.198606 0.0531773 0.953774
0.0563783 0.0531063 0.876855
0.212915 0.0529921 0.952729
0.15006 0.0528785 0.91892
0.181025 0.0527928 0.929857
0.098487 0.0527228 0.882843
0.175085 0.052611 0.918744
0.148715 0.0525419 0.899816
0.150299 0.0524731 0.894866
0.221187 0.0524047 0.924566
0.0973592 0.0523367 0.856905
0.0530863 0.0522691 0.829016
0.0280281 0.052202 0.810726
0.0239954 0.0521354 0.802939
0.0227997 0.0520693 0.796557
0.103941 0.0520037 0.831328
-0.163875 0.0519387 0.691604
-0.0547805 0.0518743 0.740315
0.123813 0.0518221 0.822797
0.0144599 0.0517586 0.762266
-0.0537493 0.0517069 0.721354
-0.125727 0.0516555 0.678563
-0.147885 0.0516078 0.660393
-0.0972589 0.0515463 0.679775
-0.0652053 0.0514856 0.68984
0.00826925 0.0514452 0.718948
0.00937528 0.0514005 0.712243
-0.00257439 0.0513414 0.700239
-0.123127 0.0513008 0.632404
-0.0648044 0.0512584 0.654181
-0.0282828 0.051201 0.666335
-0.113903 0.0511602 0.616038
-0.031421 0.0511201 0.649752
0.0200942 0.0510717 0.668705
-0.163842 0.0510236 0.569932
-0.12977 0.0509926 0.578719
0.0149051 0.0509384 0.644806
-0.258599 0.0508975 0.500683
-0.132564 0.0508616 0.555923
-0.111236 0.0508148 0.559761
-0.156504 0.0507861 0.528754
-0.123001 0.050735 0.539091
-0.362023 0.0506939 0.41232
-0.15054 0.0506663 0.509638
-0.16123 0.0506167 0.497804
-0.116972 0.0505941 0.511099
-0.113804 0.0505457 0.506129
-0.220468 0.0505046 0.445618
-0.162271 0.0504761 0.466441
-0.134869 0.050435 0.473001
-0.223155 0.0504103 0.420272
-0.282291 0.0503668 0.383802
-0.165956 0.0503431 0.433326
-0.177054 0.0503001 0.420857
-0.0813254 0.0502594 0.461623
-0.16069 0.050235 0.413398
-0.0104926 0.0501942 0.481434
-0.223165 0.0501714 0.366435
-0.238109 0.0501305 0.351937
-0.200972 0.0501093 0.361717
-0.173298 0.0500684 0.368568
-0.239397 0.0500481 0.326676
-0.185123 0.0500076 0.346811
-0.158985 0.0499875 0.351037
-0.16578 0.0499476 0.340622
-0.409548 0.0499282 0.209849
-0.146155 0.0498889 0.334501
-0.22231 0.0498499 0.289364
-0.183487 0.0498306 0.299918
-0.169703 0.0498126 0.297832
-0.0735801 0.0497745 0.3388
-0.17493 0.0497367 0.281014
-0.122691 0.0497179 0.298262
-0.274546 0.0496828 0.214997
-0.192658 0.0496644 0.247059
-0.18429 0.0496278 0.244076
-0.442876 0.0496096 0.105895
-0.31312 0.0495735 0.163582
-0.0791698 0.0495557 0.271662
-0.205004 0.0495233 0.201225
-0.225911 0.0495058 0.181863
-0.0611194 0.0494709 0.257004
-0.105279 0.0494537 0.226007
-0.259864 0.0494194 0.141431
-0.182446 0.0494024 0.171215
-0.353408 0.0493687 0.0784208
-0.177776 0.0493563 0.156892
-0.388189 0.0493232 0.0443312
-0.422025 0.0493069 0.0184617
-0.285022 0.0492745 0.0795759
-0.201847 0.0492584 0.112201
-0.304082 0.0492266 0.0536628
-0.213591 0.0492108 0.0899335
-0.0988015 0.0491796 0.139873
-0.226816 0.0491641 0.0668786
-0.351759 0.0491335 -0.00308397
-0.0613445 0.0491183 0.133122
-0.0115522 0.0490883 0.15049
-0.136187 0.0490734 0.0791577
-0.288529 0.049044 -0.00458038
-0.338791 0.0490295 -0.0387417
-0.0899128 0.0490007 0.0780907
-0.21164 0.0489865 0.00818139
0.354623 0.0675027 1.03669
0.304648 0.067183 1.01983
0.139197 0.0669861 0.937768
0.122874 0.0667885 0.930382
0.081631 0.0666451 0.907245
0.116234 0.0665019 0.922069
0.244702 0.0663936 0.981689
0.233514 0.0662513 0.973654
0.0830014 0.0661286 0.894771
0.0979179 0.066022 0.897631
-0.0276829 0.0659347 0.829054
0.115708 0.0657954 0.898289
0.0553156 0.0657093 0.862312
0.0511305 0.0656236 0.854438
0.0141079 0.0655384 0.830142
0.0420063 0.0654538 0.838302
0.106433 0.0653697 0.864717
0.057145 0.0652863 0.834266
-0.0238259 0.0652035 0.78796
-0.0318706 0.0651213 0.778103
-0.0438256 0.0650398 0.766274
-0.0502488 0.0649591 0.757192
0.00578289 0.0648791 0.779316
-0.0286098 0.0648138 0.755294
-0.00606609 0.0647488 0.759747
-0.0766863 0.0646841 0.717622
-0.16801 0.0646118 0.665662
0.101347 0.0645477 0.793529
-0.216404 0.0644715 0.62866
0.00995457 0.0644203 0.734221
0.0816829 0.0643647 0.762771
0.11657 0.0642906 0.774156
-0.0677871 0.064228 0.675172
-0.142897 0.0641863 0.629437
0.154364 0.0641144 0.771932
0.0274448 0.0640528 0.701664
-0.203913 0.0640128 0.57774
-0.010652 0.0639431 0.66815
0.0953227 0.0638825 0.714321
-0.196276 0.0638307 0.56113
-0.0925892 0.0637843 0.605226
0.0134829 0.0637247 0.651441
-0.138416 0.0636878 0.56713
0.0333597 0.0636223 0.646637
-0.110799 0.0635701 0.567281
0.0882927 0.0635288 0.658816
-0.153324 0.0634708 0.531162
-0.164692 0.063437 0.516981
-0.0797673 0.0633797 0.552586
-0.225481 0.0633228 0.472868
-0.250897 0.0632904 0.451607
-0.209929 0.0632341 0.465217
-0.0759028 0.0632028 0.523624
-0.22015 0.0631447 0.444796
-0.0155063 0.0630921 0.540038
-0.113738 0.0630623 0.482253
-0.28637 0.0630078 0.389025
-0.190112 0.0629791 0.428427
-0.280416 0.0629253 0.376344
-0.202159 0.0628733 0.40844
0.0208785 0.0628448 0.511254
-0.26557 0.0627926 0.361035
-0.0858221 0.062766 0.442097
-0.382724 0.0627139 0.286675
-0.240374 0.0626881 0.349004
-0.185539 0.0626366 0.369437
-0.0186068 0.0626117 0.444011
-0.21081 0.062561 0.3409
-0.101275 0.0625358 0.386816
-0.231588 0.0624874 0.314517
-0.011766 0.0624626 0.415569
-0.258399 0.0624133 0.2852
-0.177242 0.0623645 0.318712
-0.259567 0.0623429 0.268488
-0.341836 0.0622948 0.220257
-0.224469 0.0622709 0.270067
-0.138753 0.0622235 0.305809
-0.224189 0.0622037 0.253934
-0.192058 0.0621571 0.262851
-0.0715073 0.062134 0.314238
0.0659112 0.062088 0.375776
-0.248266 0.0620652 0.209793
-0.100998 0.0620249 0.27586
0.00170068 0.0620026 0.318302
-0.10852 0.0619581 0.255961
-0.095513 0.0619361 0.253551
-0.274122 0.0618923 0.15699
-0.175207 0.0618706 0.197525
-0.358212 0.0618338 0.0982629
-0.225566 0.0618125 0.155649
-0.0769054 0.0617703 0.222655
-0.0341907 0.0617494 0.235067
0.000442624 0.0617079 0.24503
-0.104441 0.0616669 0.185211
-0.302838 0.0616466 0.0770485
-0.288002 0.0616063 0.0770577
-0.172397 0.0615864 0.125885
-0.264789 0.0615547 0.0716372
-0.294396 0.0615351 0.0478407
-0.273124 0.0614965 0.0509887
-0.24785 0.0614773 0.05462
-0.180305 0.0614394 0.0808687
-0.223424 0.0614206 0.05029
-0.218765 0.0613835 0.0450591
-0.128354 0.0613651 0.0812315
-0.272903 0.0613287 0.00135809
-0.218207 0.0613107 0.0196583
-0.270945 0.061275 -0.0143491
-0.199939 0.0612574 0.0120905
0.198002 0.0808929 0.975532
0.423643 0.0805926 1.09218
0.0837009 0.0804207 0.919552
0.224465 0.0801832 0.990688
0.0823454 0.0799878 0.918284
0.221405 0.0798161 0.9853
0.245449 0.0797096 0.991477
0.159944 0.0795391 0.946238
0.118762 0.0793696 0.923153
0.137374 0.0792646 0.926642
0.242563 0.0791601 0.973426
0.0422435 0.0790562 0.867459
-0.00589714 0.0788907 0.840847
0.107194 0.0787883 0.891569
-0.048765 0.0786866 0.807762
-0.0871528 0.0785855 0.782732
0.0797831 0.0784851 0.860355
-0.0277598 0.0783855 0.800726
-0.0172809 0.0782867 0.800094
-0.0688553 0.0781887 0.768419
-0.00506461 0.0780916 0.794408
0.0232468 0.0780124 0.801718
-0.165552 0.0779335 0.70048
0.081633 0.0778609 0.816916
0.0748163 0.0777668 0.80754
-0.0991902 0.0776737 0.714541
-0.131005 0.0775963 0.691808
0.0190452 0.0775046 0.760807
-0.0358853 0.0774423 0.725731
-0.112547 0.0773627 0.680762
-0.0097691 0.0772867 0.725331
-0.188295 0.0772111 0.629251
-0.148389 0.0771359 0.642391
-0.0968952 0.0770744 0.660574
0.00853495 0.076989 0.707082
-0.00637001 0.0769258 0.692203
-0.17673 0.0768681 0.599312
-0.100878 0.0767948 0.630414
0.0110952 0.0767219 0.679578
-0.0843225 0.0766679 0.623997
0.0127375 0.0765958 0.665693
-0.172072 0.0765324 0.565986
-0.161394 0.076481 0.563355
-0.0894195 0.0764101 0.592501
-0.117639 0.0763682 0.569911
-0.144411 0.0762922 0.550008
-0.261 0.0762283 0.484531
-0.156426 0.0761831 0.528565
-0.109382 0.0761144 0.545216
-0.2317 0.0760505 0.47692
-0.237006 0.0760082 0.465896
-0.137337 0.0759406 0.508843
-0.26486 0.0759042 0.436394
-0.238025 0.0758375 0.44291
-0.0406866 0.0758024 0.532836
-0.187897 0.0757356 0.452369
-0.150718 0.0756725 0.463891
0.086969 0.0756378 0.57401
-0.135248 0.0755732 0.455959
-0.241859 0.0755411 0.3938
-0.25269 0.0754772 0.381433
-0.162038 0.0754137 0.419798
0.115947 0.075383 0.549893
-0.0187964 0.0753204 0.475539
-0.0761649 0.0752893 0.437999
-0.0773632 0.0752294 0.430287
-0.0551243 0.0751987 0.432545
-0.156336 0.0751378 0.37492
-0.107881 0.0751075 0.390286
-0.365624 0.0750505 0.254184
-0.264885 0.074991 0.297495
-0.296502 0.0749614 0.272816
-0.172471 0.0749071 0.327484
-0.177368 0.074878 0.316156
-0.256677 0.0748202 0.269397
-0.158277 0.0747914 0.309715
-0.221672 0.0747401 0.270539
-0.146941 0.0747119 0.299012
-0.167136 0.0746558 0.28176
-0.0447768 0.0746279 0.334042
-0.212729 0.0745796 0.24245
-0.0817689 0.0745523 0.299022
-0.160441 0.0744979 0.252474
-0.335623 0.0744442 0.157654
-0.150688 0.0744175 0.241201
-0.211796 0.074373 0.202855
-0.31511 0.0743468 0.142265
-0.18966 0.0742948 0.197698
0.0322107 0.074269 0.299691
-0.156799 0.0742179 0.197867
-0.241589 0.0741925 0.146523
-0.293314 0.0741422 0.113312
-0.174065 0.0741274 0.163327
-0.145175 0.0740782 0.170382
-0.145827 0.0740537 0.16108
0.00518351 0.0740053 0.229165
-0.0186298 0.0739813 0.208272
-0.0689871 0.0739338 0.175641
-0.276575 0.0739102 0.0628491
-0.229601 0.0738635 0.0788503
-0.172611 0.0738404 0.0983357
-0.146735 0.0737946 0.103753
-0.150685 0.0737719 0.0927559
0.00868913 0.073727 0.164886
-0.274572 0.0737048 0.0142197
-0.195789 0.0736608 0.0460178
-0.290555 0.0736174 -0.00898664
-0.365582 0.0735959 -0.0555613
-0.168495 0.0735534 0.0353219
-0.116439 0.0735324 0.0522737
0.371119 0.0947682 1.06804
0.404477 0.0944206 1.08831
0.329926 0.0940692 1.05486
0.288861 0.0938412 1.03283
0.242396 0.093564 1.01033
0.1123 0.0933632 0.942709
-0.161075 0.0931631 0.803468
0.190128 0.0930389 0.973198
0.110358 0.0928404 0.930776
0.252363 0.0927174 0.995928
0.0656407 0.0925212 0.900015
0.0143262 0.0923997 0.868509
0.0693322 0.0922788 0.890166
-0.184779 0.0921585 0.757263
-0.0212618 0.092015 0.834255
0.0778955 0.0918727 0.87905
-0.0352046 0.0917549 0.816635
-0.00645591 0.0916379 0.825135
0.138924 0.0915219 0.891938
-0.00303818 0.0914068 0.815056
-0.00955445 0.0913133 0.804929
-0.0339807 0.0911996 0.786804
-0.0299911 0.0911137 0.781633
0.0359987 0.0910025 0.808651
-0.0478143 0.0908924 0.760741
0.022035 0.0907836 0.789635
0.00557495 0.0906927 0.774563
-0.00843349 0.0906021 0.760723
-0.00183088 0.0905119 0.757194
0.0318427 0.0904196 0.767322
-0.0149505 0.0903304 0.737091
-0.0486584 0.0902416 0.713408
0.0459603 0.0901532 0.753891
-0.114846 0.0900819 0.665871
0.0297151 0.0899943 0.731323
-0.151866 0.0899072 0.633706
0.0693161 0.0898401 0.736534
0.021848 0.0897434 0.706477
-0.120919 0.0896683 0.627752
0.00449166 0.0896056 0.682535
0.0432775 0.0895209 0.695086
-0.13059 0.0894366 0.60131
-0.317574 0.0893786 0.499723
0.106053 0.0892953 0.704681
-0.185267 0.0892198 0.551809
-0.0923268 0.0891649 0.590076
-0.165866 0.089083 0.546442
-0.20086 0.0890369 0.52034
-0.115488 0.0889516 0.556367
-0.192478 0.0888754 0.510781
-0.134704 0.0888281 0.531166
-0.0831867 0.0887487 0.550026
-0.130251 0.0886727 0.519452
-0.274597 0.0886287 0.438649
-0.0856107 0.0885525 0.526142
-0.185719 0.0885113 0.467346
-0.0449996 0.0884343 0.530773
-0.0930659 0.088396 0.497876
-0.0751491 0.0883199 0.499896
-0.133316 0.0882442 0.463866
-0.238523 0.0882075 0.402354
-0.243557 0.0881329 0.392872
-0.165512 0.0880957 0.423032
-0.156329 0.0880242 0.420528
-0.163553 0.0879876 0.408051
-0.0809491 0.0879148 0.442356
-0.0789182 0.0878463 0.43617
-0.113173 0.0878104 0.410171
-0.299149 0.0877392 0.310152
-0.0721986 0.0877089 0.414492
-0.172249 0.0876387 0.35741
-0.0223618 0.0876039 0.423475
-0.148907 0.087541 0.352791
-0.174635 0.0874725 0.33283
-0.0423367 0.0874385 0.39009
-0.369618 0.0873788 0.218919
-0.101796 0.0873453 0.343931
-0.254142 0.0872788 0.260614
-0.181286 0.0872457 0.28814
-0.0333827 0.0871801 0.354927
-0.186227 0.0871571 0.269091
-0.297544 0.0870926 0.206235
-0.146697 0.0870287 0.274445
-0.278697 0.086997 0.199522
-0.129009 0.0869452 0.266528
-0.195797 0.0869141 0.224199
-0.219027 0.0868523 0.205311
-0.204506 0.0868216 0.20363
-0.108745 0.0867607 0.244212
-0.276678 0.0867305 0.151297
-0.198707 0.0866837 0.182249
-0.0792626 0.0866541 0.233007
-0.269875 0.0865953 0.130336
-0.135257 0.0865662 0.188672
-0.227422 0.0865084 0.135197
-0.247058 0.0864513 0.117964
-0.122321 0.086423 0.171342
-0.161846 0.0863669 0.144134
-0.328976 0.0863543 0.050729
-0.17125 0.0862994 0.122102
-0.163073 0.0862722 0.117171
-0.224562 0.0862183 0.0789034
-0.323132 0.0861916 0.0205879
-0.0445364 0.0861387 0.152328
-0.192113 0.0861126 0.0694963
-0.27809 0.0860607 0.0189145
-0.200098 0.0860351 0.0488541
-0.192259 0.0859843 0.0451434
-0.119908 0.0859591 0.0722482
-0.153907 0.0859094 0.047581
-0.300494 0.0858604 -0.033409
-0.268305 0.0858361 -0.0264111
0.50501 0.109002 1.13184
0.317893 0.108275 1.05419
0.136685 0.107845 0.968378
0.3291 0.107528 1.06514
0.111334 0.107211 0.956895
-0.00369782 0.106981 0.896744
0.0970758 0.106752 0.94452
0.156903 0.10661 0.968521
0.0798084 0.106382 0.927389
0.137682 0.106241 0.950439
0.141652 0.106016 0.949834
0.0287749 0.105876 0.887517
-0.00547417 0.10571 0.865574
0.0277463 0.105516 0.878487
0.0112434 0.105379 0.864345
0.14191 0.105243 0.923783
0.075867 0.105108 0.884859
0.0241368 0.104974 0.853082
0.0408828 0.104841 0.855532
0.144408 0.104709 0.901357
0.0799659 0.104578 0.863184
-0.00722761 0.104449 0.813616
-0.107615 0.10432 0.75743
0.241707 0.104193 0.926077
-0.159223 0.104067 0.719573
-0.00559483 0.103962 0.789524
-0.0986867 0.103857 0.736123
0.0554983 0.103767 0.805801
-0.195025 0.103645 0.67442
-0.027403 0.103525 0.752078
-0.168309 0.103422 0.674775
-0.0736934 0.103355 0.713798
-0.187559 0.103238 0.650642
-0.0733588 0.103137 0.700896
-0.0312524 0.103036 0.715107
0.00564173 0.102936 0.726715
-0.0426172 0.10286 0.694772
0.11094 0.102761 0.764706
-0.175474 0.102662 0.614656
-0.0518529 0.102591 0.668495
-0.0918952 0.102493 0.641622
-0.0412454 0.102396 0.660096
0.00904223 0.10233 0.677096
-0.232223 0.102234 0.549599
-0.189223 0.102179 0.562516
0.0208743 0.102078 0.660955
-0.0430407 0.10199 0.621868
-0.136306 0.101896 0.568363
-0.0774483 0.10184 0.589348
-0.046134 0.101747 0.598114
0.0182224 0.101698 0.621558
-0.205382 0.101606 0.502854
-0.105196 0.101515 0.546041
-0.175109 0.101467 0.502326
-0.0326046 0.101378 0.566623
-0.246926 0.101333 0.45061
-0.0888185 0.101244 0.522731
-0.111538 0.101156 0.504433
-0.166297 0.101112 0.468183
-0.357163 0.101026 0.365745
-0.338899 0.100983 0.366005
-0.189917 0.100899 0.433414
-0.237086 0.100814 0.402848
-0.107196 0.100771 0.458919
-0.0421613 0.100691 0.484253
-0.274249 0.100649 0.35933
-0.224639 0.100572 0.376869
-0.245468 0.10053 0.357571
-0.262933 0.100448 0.341804
-0.133664 0.100407 0.397556
-0.309165 0.100334 0.302421
-0.0659419 0.100253 0.416962
-0.263971 0.100222 0.308655
-0.205104 0.100143 0.330991
-0.148725 0.100104 0.350282
-0.148997 0.100026 0.343034
-0.257738 0.099959 0.281044
-0.221622 0.0999207 0.290192
-0.0447955 0.0998445 0.371449
-0.342317 0.0998189 0.213209
-0.161345 0.099744 0.296507
-0.173553 0.0997068 0.281479
-0.0451783 0.0996329 0.338459
-0.162791 0.0995962 0.270725
-0.130089 0.0995377 0.27918
-0.216993 0.0994658 0.228469
-0.263437 0.0994301 0.196302
-0.240856 0.0993592 0.200311
-0.311912 0.0993401 0.155075
-0.212822 0.0992706 0.197301
-0.158205 0.0992361 0.215644
-0.137511 0.0991676 0.218647
-0.234556 0.0990999 0.162761
-0.2304 0.0990663 0.155859
-0.342898 0.0990179 0.0913446
-0.263781 0.098985 0.121908
-0.319005 0.0989197 0.0868626
-0.0347555 0.0988873 0.219983
-0.0414194 0.0988232 0.209188
-0.010872 0.0987914 0.215447
-0.199833 0.0987283 0.113473
-0.153187 0.098666 0.129279
-0.0737938 0.0986352 0.159942
-0.430013 0.098595 -0.0267385
-0.150171 0.0985648 0.104129
-0.208995 0.0985051 0.0671199
-0.158568 0.0984755 0.0832674
-0.330343 0.0984169 -0.0102519
-0.140969 0.0983879 0.0753557
-0.220949 0.0983305 0.0276973
-0.274679 0.0983021 -0.00826083
-0.268548 0.0982458 -0.0129013
-0.224822 0.098218 -0.000146191
-0.113033 0.098163 0.0480034
0.551123 0.122284 1.17803
0.326597 0.12174 1.07245
0.397215 0.121384 1.10818
0.193188 0.121028 1.0067
0.256528 0.120769 1.03566
0.104133 0.12051 0.95679
0.110823 0.120252 0.957488
0.125551 0.119995 0.962217
0.0874844 0.119835 0.937257
0.0487933 0.119581 0.915281
0.1637 0.119423 0.966822
-0.043731 0.119172 0.860448
0.164761 0.119016 0.958778
0.19934 0.118861 0.970151
0.130892 0.118675 0.931119
0.107678 0.118493 0.91463
-0.062438 0.118341 0.82364
0.0540476 0.11819 0.875941
0.0807072 0.118014 0.884261
0.0618101 0.117892 0.867899
0.00830895 0.117745 0.835164
0.143467 0.1176 0.89674
0.0943086 0.11748 0.865272
-0.130667 0.117336 0.746765
0.100423 0.11723 0.85495
-0.0100047 0.11709 0.793642
-0.0497835 0.116951 0.767629
0.0670547 0.116834 0.819178
-0.0627645 0.116717 0.747406
-0.0445632 0.116581 0.750353
0.00618728 0.116487 0.768084
-0.098586 0.116355 0.709442
-0.131523 0.116241 0.68611
0.0846595 0.116127 0.787343
-0.0635072 0.116041 0.705405
-0.0557948 0.115928 0.702399
-0.00980976 0.115816 0.718532
0.0919324 0.115704 0.762548
0.0238804 0.115624 0.720501
-0.171061 0.115514 0.616166
-0.247447 0.115404 0.571111
0.0651618 0.11533 0.719224
-0.197721 0.115221 0.580908
-0.230543 0.115159 0.555884
-0.0557364 0.115045 0.636653
-0.195935 0.114945 0.55943
-0.133545 0.11488 0.582153
-0.168465 0.114775 0.557796
-0.0383352 0.11467 0.615963
-0.0426057 0.114612 0.605155
-0.110509 0.114508 0.564284
-0.0429479 0.114407 0.591077
-0.193853 0.114353 0.506823
-0.257445 0.114252 0.468094
0.0158622 0.114201 0.595859
-0.0649167 0.1141 0.548535
-0.301025 0.114002 0.423481
-0.0647804 0.113952 0.532717
-0.225804 0.113856 0.445132
-0.168391 0.113807 0.464951
-0.0184848 0.113709 0.532932
-0.10907 0.113617 0.480469
-0.0527185 0.113569 0.499757
-0.213979 0.113479 0.411876
-0.234193 0.113432 0.392877
-0.131527 0.113337 0.437191
-0.0330862 0.113252 0.479056
0.0942201 0.113205 0.533812
-0.143467 0.113123 0.407528
-0.175758 0.113077 0.38248
-0.156666 0.112986 0.38495
-0.11595 0.11294 0.396406
-0.223332 0.112862 0.335153
-0.217278 0.112773 0.331067
-0.251218 0.112729 0.305185
-0.259694 0.112654 0.293266
-0.306308 0.112611 0.261039
-0.114593 0.112524 0.349741
-0.125469 0.112497 0.334754
-0.119055 0.112412 0.330774
-0.0798803 0.112327 0.34316
-0.192048 0.112285 0.27814
-0.122102 0.112219 0.305171
-0.208477 0.112178 0.253037
-0.113626 0.112096 0.293209
-0.287686 0.112056 0.197227
-0.189027 0.111995 0.23847
-0.195606 0.111915 0.227874
-0.222138 0.111875 0.205639
-0.311677 0.111797 0.15354
-0.0939542 0.111758 0.253426
-0.127006 0.111703 0.22863
-0.116038 0.111626 0.226727
-0.171636 0.111589 0.189931
-0.259754 0.111514 0.13846
-0.157319 0.111477 0.180673
-0.294796 0.111403 0.104494
-0.127291 0.11139 0.178202
-0.18121 0.111318 0.14376
-0.172709 0.111247 0.140506
-0.145997 0.111211 0.144822
-0.156015 0.111141 0.132279
-0.103948 0.111107 0.149263
-0.0359376 0.111038 0.175701
-0.248666 0.111004 0.0602767
-0.244768 0.110936 0.0546263
0.0611981 0.110869 0.199985
-0.225526 0.110836 0.0475409
-0.100059 0.110799 0.101406
0.0419998 0.110766 0.163332
-0.22014 0.110703 0.0245531
-0.182867 0.110671 0.0340724
-0.266217 0.110608 -0.0153483
-0.191335 0.110578 0.0129611
-0.295874 0.110516 -0.0470927
0.418461 0.13594 1.12123
0.360109 0.135441 1.0955
0.239808 0.134937 1.03901
0.435383 0.134649 1.13401
0.249617 0.134253 1.04168
0.237435 0.133965 1.03288
0.27508 0.133679 1.04901
0.164641 0.133501 0.987826
0.0837597 0.133217 0.944709
0.214941 0.133041 1.00435
0.118811 0.132761 0.953592
-0.0631414 0.132587 0.85667
-0.0332231 0.132379 0.866778
0.126903 0.13214 0.942988
0.169915 0.131969 0.958528
0.128581 0.1318 0.931888
-0.0148732 0.131632 0.85418
0.109756 0.131466 0.910502
-0.0229917 0.1313 0.838121
-0.0468325 0.131136 0.820179
0.138282 0.130974 0.906697
0.097779 0.130813 0.880386
0.0646011 0.130654 0.857716
-0.108574 0.130496 0.765023
-0.0843667 0.130363 0.770229
0.142653 0.130208 0.87761
0.127464 0.130077 0.86313
0.147237 0.129967 0.865447
-0.24844 0.129817 0.661391
-0.11187 0.129687 0.722796
-0.0975795 0.129539 0.723688
0.0196814 0.129411 0.775444
0.0178017 0.129313 0.766675
-0.181164 0.129186 0.660315
-0.0136664 0.12906 0.737193
-0.0914496 0.128968 0.690323
-0.175679 0.12883 0.641757
-0.0635927 0.128706 0.690918
-0.220182 0.128582 0.605744
-0.043564 0.1285 0.68583
0.0370034 0.128378 0.719224
-0.0976836 0.128256 0.644993
-0.0702383 0.12818 0.650313
-0.106187 0.12806 0.625437
-0.0585185 0.127947 0.642151
-0.0229635 0.127872 0.651555
-0.131618 0.127758 0.590179
-0.133351 0.12764 0.582405
-0.119662 0.127576 0.580535
-0.0474885 0.12746 0.609694
-0.123646 0.127402 0.56273
-0.101153 0.127287 0.567039
-0.1284 0.127173 0.546476
-0.189651 0.127117 0.506949
-0.0698808 0.127005 0.559834
-0.116557 0.126893 0.52954
-0.142107 0.126841 0.507748
-0.123062 0.12673 0.5103
-0.0159584 0.126675 0.554954
0.0750906 0.126571 0.593313
-0.102442 0.126517 0.495647
-0.0897257 0.126416 0.494762
-0.0321592 0.126309 0.516535
-0.0976398 0.126264 0.474579
-0.127002 0.126158 0.452868
-0.290867 0.126106 0.362031
-0.253019 0.126012 0.373526
-0.121856 0.125909 0.432048
-0.120927 0.12587 0.423149
-0.155567 0.125768 0.398746
-0.00547419 0.125717 0.464877
-0.100745 0.125631 0.409615
-0.109388 0.125531 0.398175
-0.157022 0.125481 0.365434
-0.0771175 0.1254 0.397644
-0.192417 0.125302 0.332837
-0.292837 0.125254 0.273693
-0.0792262 0.125176 0.372634
-0.103547 0.125129 0.351531
-0.332024 0.125034 0.23009
-0.150384 0.125008 0.311199
-0.0598838 0.124915 0.349214
-0.284203 0.124822 0.229806
-0.155367 0.124776 0.285265
-0.123606 0.124708 0.293015
-0.25589 0.124663 0.217901
-0.0955608 0.124574 0.290763
-0.216194 0.12451 0.222182
-0.132842 0.124467 0.254869
-0.303898 0.12438 0.161985
-0.147307 0.124336 0.231285
-0.323534 0.124251 0.135793
-0.183286 0.124194 0.197468
-0.160587 0.124152 0.199801
-0.167417 0.124069 0.188949
-0.222376 0.124027 0.152446
-0.16533 0.123945 0.173505
-0.0782576 0.123865 0.209558
-0.123112 0.123824 0.178091
-0.0610657 0.123775 0.20042
-0.108392 0.123736 0.1677
-0.111555 0.123658 0.158562
-0.138024 0.12362 0.136261
-0.125761 0.123543 0.134806
-0.116393 0.123468 0.13188
-0.143263 0.12343 0.109359
-0.308933 0.123356 0.0188818
-0.182185 0.123319 0.073158
-0.403249 0.123246 -0.0450503
-0.164168 0.123175 0.0667895
-0.300944 0.123139 -0.010719
-0.100619 0.123103 0.0803333
-0.342857 0.123069 -0.0499281
-0.311537 0.123 -0.0420557
-0.279766 0.122966 -0.0353268
-0.256193 0.122899 -0.0313661
0.535344 0.14961 1.18923
0.253036 0.149059 1.05152
0.275441 0.148623 1.06309
0.199612 0.148187 1.02563
0.125863 0.14787 0.98598
0.210671 0.147554 1.02564
0.150899 0.147239 0.993024
0.0764841 0.146926 0.953092
0.138088 0.146692 0.979007
0.00432998 0.146421 0.908295
0.124328 0.146229 0.962314
0.111859 0.145999 0.951194
0.00374443 0.145734 0.893262
0.108389 0.145545 0.939592
0.0202875 0.145324 0.89053
0.108086 0.145138 0.928406
0.131411 0.144946 0.93428
0.0434506 0.144762 0.884297
0.115551 0.14458 0.914332
-0.00924144 0.144399 0.845906
0.0872926 0.144219 0.888126
0.0355245 0.144042 0.856176
0.0435668 0.143866 0.85411
0.0291239 0.143712 0.840189
0.0600751 0.143541 0.849471
0.0600372 0.143396 0.842538
0.127941 0.143252 0.869584
-0.15056 0.143084 0.724114
-0.116276 0.142941 0.734361
-0.0077176 0.142808 0.781482
0.0149015 0.142666 0.78589
-0.127928 0.142525 0.707581
-0.10687 0.142384 0.711221
0.0770534 0.142265 0.795697
-0.114381 0.142126 0.693079
0.00633778 0.141988 0.746543
-0.130956 0.14185 0.671005
-0.030024 0.141756 0.713287
0.0239965 0.14162 0.733398
-0.13048 0.141484 0.649264
-0.0797433 0.141398 0.666276
0.0975584 0.141264 0.748019
-0.187177 0.141131 0.598747
-0.089039 0.141052 0.639275
-0.17943 0.14092 0.587159
-0.173905 0.140789 0.583002
-0.0506476 0.140718 0.635895
-0.18342 0.140589 0.562571
-0.0197077 0.140524 0.635522
-0.178299 0.140396 0.54928
0.0359542 0.140269 0.649461
0.0279547 0.140143 0.638513
-0.138534 0.140082 0.546293
-0.219682 0.139957 0.498759
0.0191056 0.139898 0.609121
-0.104827 0.139775 0.540183
-0.144476 0.139658 0.513199
-0.0169789 0.139597 0.56803
-0.192748 0.139483 0.472912
-0.0216188 0.139363 0.551467
-0.355644 0.139313 0.375234
-0.118338 0.139195 0.486861
-0.207914 0.139136 0.433155
-0.0332503 0.13903 0.513075
-0.255596 0.138914 0.394851
-0.167513 0.13887 0.429528
-0.137786 0.138755 0.437319
-0.12403 0.138698 0.435272
-0.247148 0.138601 0.366111
-0.111728 0.138488 0.426717
-0.0462998 0.13845 0.449915
-0.251131 0.13834 0.340371
-0.151514 0.138285 0.381241
-0.225931 0.138196 0.336228
-0.0738947 0.138088 0.405082
-0.203118 0.138056 0.330793
-0.0789538 0.13795 0.385682
-0.089517 0.137844 0.373195
-0.127262 0.137816 0.344553
-0.117217 0.137712 0.342341
-0.223483 0.13766 0.280239
-0.256032 0.137585 0.255821
-0.296701 0.137534 0.226507
-0.0216531 0.137433 0.356747
-0.124688 0.137333 0.297932
-0.171348 0.137313 0.264631
-0.16905 0.137214 0.258447
0.0079143 0.137117 0.339581
-0.214531 0.137069 0.219355
-0.32043 0.137005 0.157954
-0.0724358 0.136957 0.272934
-0.209043 0.136863 0.197223
-0.074447 0.13677 0.257096
-0.0834237 0.136724 0.243579
-0.105549 0.136667 0.223877
-0.0823998 0.136621 0.226407
-0.123708 0.136531 0.198263
-0.161095 0.136442 0.17206
0.00570408 0.136398 0.246401
-0.180933 0.136348 0.144247
-0.215092 0.136305 0.118091
0.00977677 0.136219 0.222945
-0.130555 0.136135 0.145178
-0.240928 0.136093 0.0808975
-0.165057 0.136009 0.111201
-0.227614 0.135968 0.0708182
-0.141451 0.135887 0.106237
-0.225567 0.135806 0.0564916
-0.158262 0.135766 0.0810195
-0.320998 0.135687 -0.0080686
-0.149084 0.135689 0.0672728
-0.0668539 0.135612 0.100618
-0.117975 0.135536 0.0672625
-0.122934 0.135498 0.0556144
-0.227764 0.135424 -0.00463208
-0.236801 0.135387 -0.0183337
-0.182885 0.135314 0.000755924
0.439367 0.1641 1.14238
0.184274 0.163249 1.02435
0.441966 0.162645 1.15667
0.386219 0.162169 1.12915
0.422352 0.161823 1.14436
0.207552 0.161478 1.03415
0.276582 0.161133 1.06587
0.254588 0.16079 1.0521
0.0596607 0.160449 0.951853
0.159944 0.160237 0.995969
0.248833 0.1599 1.03762
0.033819 0.15969 0.924117
0.0949129 0.159399 0.950764
0.0476675 0.159154 0.922131
0.00730388 0.158949 0.89591
0.21808 0.158738 0.995441
-0.00033386 0.158498 0.881186
0.273209 0.158296 1.01191
0.125847 0.158062 0.93308
0.140441 0.157865 0.934284
-0.0266672 0.15767 0.844619
-0.040425 0.157477 0.831609
-0.116821 0.157315 0.786462
-0.125335 0.157125 0.776059
-0.00647036 0.156936 0.82932
0.144801 0.156802 0.897352
-0.072393 0.156618 0.782501
-0.0174207 0.156436 0.803702
-0.135082 0.156279 0.737945
0.0113621 0.156123 0.804249
0.21444 0.155945 0.899471
-0.013253 0.155827 0.77771
-0.0942211 0.155673 0.730308
-0.210274 0.155502 0.665853
-0.133871 0.15535 0.697142
-0.0822693 0.155243 0.714806
0.0670978 0.155092 0.782572
0.0483774 0.154942 0.766299
-0.0308257 0.154842 0.718397
-0.0497309 0.154684 0.702296
-0.0632638 0.154537 0.688601
-0.127702 0.15439 0.649458
0.0176744 0.154303 0.713581
-0.0781591 0.154158 0.658726
0.0350249 0.154019 0.708228
-0.139795 0.153934 0.612215
0.0425826 0.153794 0.696386
0.0375557 0.153652 0.686934
0.135907 0.153579 0.72723
0.0119067 0.153439 0.658274
-0.164729 0.153299 0.562995
-0.171109 0.15323 0.550871
-0.241884 0.153094 0.508458
-0.237861 0.153025 0.501538
-0.293814 0.152893 0.466466
-0.0653258 0.152763 0.573549
-0.192851 0.152629 0.50279
-0.2537 0.15257 0.463194
-0.192967 0.152437 0.48655
-0.127451 0.152381 0.510076
-0.144562 0.15225 0.494495
-0.0588693 0.152197 0.528048
-0.134743 0.152067 0.483068
-0.147105 0.151953 0.469408
-0.192665 0.151889 0.437688
-0.26678 0.151779 0.393071
-0.213835 0.151653 0.412455
-0.252531 0.151591 0.384164
-0.349097 0.151485 0.328214
-0.157081 0.151362 0.417105
-0.237712 0.151322 0.367206
-0.116151 0.151201 0.420845
-0.20243 0.15114 0.368752
-0.0820903 0.151044 0.421056
-0.126666 0.150925 0.391593
-0.159735 0.150892 0.365316
-0.217192 0.150775 0.329385
-0.0873943 0.150717 0.385313
-0.203017 0.150629 0.319426
-0.0280469 0.150515 0.399668
-0.0686866 0.150458 0.370367
-0.0764678 0.150376 0.358276
-0.0410782 0.150265 0.368685
-0.325641 0.150209 0.217409
-0.224163 0.150133 0.259821
-0.219793 0.150078 0.253
-0.313063 0.14997 0.19903
-0.00584494 0.149899 0.344181
-0.197028 0.149846 0.239567
-0.18763 0.14974 0.236881
-0.209312 0.149688 0.217013
-0.0678162 0.149623 0.279155
-0.0430553 0.14952 0.284098
-0.122157 0.149469 0.235501
-0.292887 0.149369 0.142675
-0.096033 0.14931 0.232325
-0.0195661 0.14926 0.261491
-0.184637 0.149163 0.171437
-0.25032 0.149066 0.131058
-0.112996 0.149018 0.19064
-0.0387736 0.148966 0.21878
-0.21842 0.148919 0.119859
-0.0720626 0.148826 0.185431
-0.156026 0.148734 0.135822
0.0405063 0.148688 0.224973
-0.146137 0.148598 0.123995
-0.0701784 0.148508 0.154296
-0.220717 0.148464 0.0698941
-0.234216 0.14842 0.0540091
-0.142161 0.14838 0.090753
-0.188668 0.148294 0.0597419
-0.252156 0.14821 0.0202169
-0.178912 0.148168 0.0476647
-0.224446 0.148085 0.0170829
-0.140039 0.148003 0.0514457
-0.20625 0.147962 0.00914359
-0.186385 0.147882 0.0112002
-0.136175 0.147842 0.0270947
0.0362053 0.147763 0.105372
0.288332 0.178005 1.07329
0.505868 0.177082 1.19152
0.254375 0.176427 1.06919
0.358795 0.175911 1.12171
0.288357 0.175537 1.08361
0.252639 0.175162 1.06289
0.228185 0.174789 1.04784
0.373381 0.174418 1.11762
0.210199 0.174048 1.0332
0.191456 0.173727 1.01992
0.176166 0.173454 1.00729
0.0919474 0.173181 0.96023
0.132405 0.172868 0.976467
0.241082 0.172645 1.02474
0.18354 0.172424 0.989896
0.162799 0.172154 0.974632
0.0678529 0.171895 0.922031
0.0268799 0.171678 0.895447
0.0120962 0.171463 0.881945
0.172678 0.171215 0.956956
0.153487 0.171039 0.940373
0.146964 0.170829 0.93095
0.0763936 0.170622 0.889481
0.0660804 0.170417 0.878118
-0.163971 0.170213 0.756859
0.108087 0.170041 0.885937
-0.0177211 0.169841 0.816775
-0.0755536 0.169703 0.780095
0.0118456 0.169508 0.817445
0.0334334 0.169339 0.821297
0.124589 0.169148 0.86049
-0.000690452 0.16898 0.790916
-0.056831 0.168857 0.754816
-0.0671688 0.168673 0.743149
-0.055983 0.168508 0.741804
-0.0149582 0.168344 0.755386
-0.218216 0.168232 0.645497
-0.0458234 0.16807 0.724756
-0.00998466 0.167908 0.735744
-0.14937 0.167735 0.659409
-0.0102671 0.167636 0.720445
-0.180622 0.167477 0.628318
-0.135197 0.167319 0.644086
-0.231242 0.16723 0.587363
0.00896141 0.167073 0.700505
-0.18675 0.166917 0.595692
-0.00940971 0.166837 0.675466
0.081441 0.166684 0.713916
-0.00588584 0.166531 0.66328
-0.0129691 0.166454 0.650783
0.0945566 0.166305 0.69751
-0.00979276 0.16623 0.636383
-0.0616047 0.166084 0.603376
-0.0630377 0.165942 0.595492
-0.214865 0.165795 0.512574
-0.118534 0.16573 0.551556
6.79532e-05 0.165584 0.60384
-0.039233 0.165522 0.574946
-0.163737 0.165378 0.505664
0.0211986 0.165248 0.590736
-0.197838 0.165177 0.472264
-0.139751 0.165051 0.493835
-0.101222 0.164911 0.506031
-0.291359 0.164859 0.401524
-0.128799 0.164721 0.475718
0.0217679 0.164672 0.541497
-0.146877 0.164536 0.450069
-0.156854 0.164423 0.43735
-0.11712 0.164356 0.44825
-0.293831 0.164247 0.352079
-0.16823 0.164114 0.407722
0.00899309 0.164075 0.486616
-0.122706 0.163945 0.413585
-0.0556653 0.16388 0.438127
0.0067677 0.163781 0.461327
-0.100534 0.163653 0.400461
-0.187578 0.163622 0.347061
-0.30229 0.163496 0.282462
-0.100421 0.163434 0.374402
-0.171274 0.163344 0.330748
-0.29769 0.163221 0.260258
-0.0355895 0.16316 0.382301
-0.207122 0.163076 0.288184
0.0034033 0.162957 0.386122
-0.184316 0.162897 0.283243
-0.164231 0.162819 0.284808
-0.0457909 0.162702 0.336657
-0.0347289 0.162644 0.333153
-0.172665 0.162571 0.255577
0.0336114 0.162458 0.351295
-0.22712 0.162401 0.211878
-0.181623 0.162334 0.225886
-0.227446 0.162279 0.193908
-0.203728 0.162169 0.198291
-0.257943 0.16206 0.16369
-0.089239 0.162054 0.237573
-0.118567 0.161947 0.215377
-0.438183 0.161841 0.0480191
-0.0460764 0.161789 0.234974
-0.125218 0.161735 0.186338
-0.167864 0.161633 0.157405
-0.200178 0.161582 0.132127
-0.204328 0.161481 0.122416
-0.145532 0.161381 0.144159
-0.0728566 0.161332 0.171359
-0.145664 0.161283 0.125817
-0.199662 0.161192 0.0909359
-0.38294 0.161144 -0.00986679
-0.0455615 0.161049 0.151071
-0.148159 0.160956 0.0919991
-0.292145 0.160909 0.010824
0.00341326 0.160817 0.150798
-0.0293693 0.160727 0.126578
-0.104843 0.160682 0.0796382
-0.0499715 0.160593 0.099212
-0.262669 0.160549 -0.0163524
-0.211894 0.160462 0.00113839
-0.189515 0.160376 0.0044057
-0.0981621 0.160334 0.0408429
-0.188058 0.16025 -0.0120638
0.601559 0.191896 1.23739
0.302512 0.190951 1.09624
0.245048 0.190245 1.07087
0.278391 0.189689 1.08781
0.238413 0.189286 1.06489
0.264088 0.188883 1.07484
0.175438 0.188481 1.02764
0.326812 0.188081 1.10047
0.305911 0.187683 1.08715
0.297583 0.187338 1.07905
0.288579 0.187044 1.06952
-0.0163778 0.186701 0.913097
0.256041 0.186413 1.04423
0.0855017 0.186173 0.952862
-0.0524894 0.185881 0.878935
0.112517 0.1856 0.956296
0.0498015 0.185365 0.91882
0.0943569 0.185092 0.935852
0.0732087 0.184862 0.919111
0.132243 0.184634 0.942445
-0.0118802 0.184408 0.864182
0.118998 0.184184 0.923399
-0.0156168 0.183962 0.849847
-0.0444536 0.183774 0.828441
0.0163671 0.183555 0.852587
0.00748837 0.183339 0.841855
-0.0348328 0.183154 0.813728
-0.0475926 0.182941 0.801029
-0.044475 0.182797 0.794718
0.00148673 0.18259 0.811282
0.0901169 0.182409 0.848638
0.150672 0.182206 0.872461
0.0292044 0.182026 0.804776
-0.0870414 0.181898 0.738506
-0.0409717 0.181703 0.754969
-0.0324826 0.181526 0.752256
-0.016522 0.18141 0.751865
-0.0656413 0.181235 0.720341
0.0400583 0.18106 0.766233
-0.032234 0.180876 0.723373
0.0702561 0.180704 0.76766
0.0033897 0.180603 0.725578
0.0969799 0.180433 0.765403
0.0824266 0.180263 0.75116
-0.0438616 0.180172 0.679178
-0.0307051 0.180004 0.678774
-0.157285 0.179837 0.608505
0.0316575 0.179755 0.693989
-0.0906472 0.179592 0.625789
0.0282316 0.179428 0.678232
-0.05631 0.179351 0.626871
0.0475983 0.179189 0.671821
-0.150226 0.179115 0.563765
-0.104081 0.178964 0.579596
-0.10053 0.178805 0.574344
-0.0666354 0.178738 0.582036
-0.0864191 0.17858 0.565104
-0.133559 0.178438 0.534139
-0.10377 0.178361 0.540062
-0.11175 0.178223 0.528602
-0.22439 0.178146 0.463311
-0.0480859 0.178013 0.543916
0.000824822 0.177883 0.560752
-0.142722 0.177808 0.48
-0.0567944 0.177682 0.515264
-0.237219 0.177534 0.417925
-0.0974151 0.177487 0.478191
-0.0202447 0.177341 0.509629
-0.0059959 0.177269 0.507769
0.0346379 0.177153 0.5202
-0.240999 0.177041 0.374417
-0.191952 0.17697 0.389943
-0.154882 0.17683 0.401279
-0.174633 0.176724 0.383328
0.00777362 0.176654 0.465527
-0.175732 0.176553 0.365609
-0.0862549 0.176417 0.403091
-0.0405671 0.176387 0.415924
-0.0895562 0.176253 0.384145
-0.0186309 0.176187 0.410586
-0.162262 0.176095 0.330394
-0.0499662 0.175964 0.379219
-0.0720673 0.175943 0.357991
-0.127904 0.175814 0.322718
-0.260173 0.175732 0.248002
-0.167681 0.175669 0.285192
-0.0471788 0.175543 0.338044
-0.164775 0.175468 0.270537
-0.155005 0.175406 0.26635
-0.210634 0.175284 0.23109
-0.12472 0.175214 0.265208
-0.101569 0.175154 0.267695
-0.170986 0.175035 0.22549
-0.13327 0.174917 0.236836
-0.142766 0.174913 0.221521
-0.109116 0.174797 0.230797
-0.226448 0.174682 0.164565
-0.0968116 0.174626 0.220265
-0.0271419 0.17457 0.245944
-0.201829 0.174459 0.150977
-0.131077 0.174404 0.177213
-0.290805 0.174294 0.0897011
-0.047684 0.174247 0.201931
-0.0783884 0.174193 0.177415
-0.204273 0.174087 0.106763
-0.143388 0.173982 0.129475
-0.140568 0.173878 0.123135
-0.176213 0.173827 0.0961264
-0.200193 0.173789 0.0745704
-0.239493 0.173689 0.0471032
0.0538575 0.17364 0.184564
-0.180779 0.173541 0.059398
-0.137455 0.173444 0.0731902
-0.124128 0.173396 0.0706196
-0.0658844 0.173301 0.091839
-0.0381168 0.173207 0.0977967
-0.240545 0.17316 -0.0126728
-0.177248 0.173068 0.0110152
-0.0251503 0.172978 0.079079
-0.125509 0.172933 0.019621
-0.20057 0.172844 -0.0259305
0.318423 0.20571 1.10543
0.301492 0.204799 1.10324
0.287096 0.204099 1.09827
0.345559 0.203503 1.12772
0.319429 0.20307 1.11169
0.257897 0.202638 1.07799
0.234795 0.202208 1.06352
0.309306 0.20178 1.09788
0.251216 0.201354 1.06592
0.266712 0.200983 1.06969
0.361372 0.200669 1.11195
0.202647 0.200302 1.02861
0.238574 0.199994 1.04146
0.137465 0.199737 0.984774
0.28293 0.199424 1.05255
0.246908 0.199123 1.02935
0.068506 0.198828 0.934897
0.137007 0.19858 0.962962
0.242823 0.198333 1.00967
0.0273356 0.198089 0.895711
0.208972 0.197847 0.980295
-0.16954 0.197607 0.784783
-0.0227058 0.197369 0.851923
0.129928 0.197134 0.921937
0.10573 0.196902 0.903509
0.0917451 0.196702 0.889518
-0.0980858 0.196473 0.788249
0.121724 0.196319 0.890248
0.142178 0.196097 0.894025
0.0928897 0.195901 0.862392
0.0901391 0.195683 0.854531
0.0141341 0.195489 0.809551
-0.0756176 0.195275 0.75815
0.0126655 0.195142 0.794036
0.00450585 0.194951 0.782974
-0.136725 0.194746 0.705711
-0.0417735 0.194557 0.746209
0.0628089 0.194438 0.790003
-0.125876 0.194251 0.688675
0.0579756 0.194065 0.773621
0.0536566 0.193957 0.762788
-0.0853713 0.193773 0.686284
-0.156826 0.193585 0.643664
0.120854 0.193403 0.77551
-0.151578 0.19331 0.630341
-0.146522 0.19313 0.625866
-0.0481451 0.192952 0.668041
-0.041221 0.192866 0.662446
-0.0186548 0.192688 0.666718
-0.198679 0.192518 0.569571
-0.0257061 0.192438 0.646898
-0.213707 0.192264 0.545868
-0.0751864 0.192187 0.605913
0.0437376 0.192015 0.658337
-0.139998 0.191857 0.559138
-0.0246508 0.191787 0.607486
0.00363744 0.191618 0.614566
-0.220145 0.191468 0.495204
-0.0678279 0.191385 0.562372
-0.133199 0.19124 0.522142
-0.128252 0.191158 0.515624
0.0295443 0.191017 0.586902
-0.0447231 0.190879 0.542077
-0.122615 0.190799 0.494132
-0.107241 0.190667 0.494048
-0.0928232 0.190538 0.493412
0.103395 0.190459 0.582512
-0.0775761 0.190335 0.4841
-0.175468 0.19018 0.427963
-0.128701 0.190103 0.442336
-0.162028 0.189985 0.417639
-0.0603272 0.189909 0.459473
-0.176472 0.189796 0.393281
-0.108557 0.189687 0.419042
-0.179395 0.189539 0.376356
-0.0341623 0.189465 0.439941
-0.166894 0.189362 0.365264
-0.0495299 0.18929 0.414906
-0.101535 0.189191 0.380502
-0.173042 0.189049 0.337421
-0.236471 0.189026 0.295494
0.0101779 0.188886 0.411462
-0.168395 0.188797 0.313574
-0.0374477 0.188728 0.369976
-0.0574664 0.188644 0.351272
-0.192561 0.188509 0.276298
-0.101096 0.188442 0.312946
-0.052258 0.188364 0.328546
-0.0395978 0.188233 0.327404
-0.177822 0.188167 0.249192
-0.127428 0.188096 0.265443
-0.160785 0.187968 0.241245
-0.122822 0.187904 0.251109
-0.219135 0.187839 0.193877
-0.24773 0.187714 0.172009
-0.191856 0.187652 0.190811
-0.106519 0.187593 0.224272
-0.195245 0.187472 0.172284
-0.0915919 0.187412 0.214955
0.0761482 0.187359 0.289484
-0.222794 0.187242 0.132332
-0.0831125 0.187125 0.194473
-0.183702 0.187067 0.134995
-0.0528318 0.187023 0.190918
0.020278 0.18691 0.219713
-0.1022 0.186798 0.150696
-0.0988086 0.186743 0.143177
-0.213764 0.186688 0.0764829
0.00682572 0.186598 0.178464
0.21115 0.186545 0.271385
-0.187998 0.186439 0.0639398
-0.0898477 0.186334 0.105123
-0.152514 0.186231 0.0658752
-0.140222 0.186179 0.0627542
-0.0660162 0.186078 0.0919121
-0.097431 0.185978 0.0682367
-0.0290959 0.186006 0.0910704
-0.188198 0.185908 0.00350201
-0.129645 0.185812 0.0247374
-0.140944 0.185717 0.0110224
-0.222523 0.18567 -0.039097
-0.162806 0.185577 -0.0173392
0.324848 0.219876 1.11202
0.31157 0.218735 1.11472
0.451906 0.218101 1.18496
0.436174 0.217466 1.17725
