ply
format ascii 1.0
comment Created by Open3D
element vertex 1800
property double x
property double y
property double z
end_header
1.0429 -0.333764 2.1516
1.07234 -0.333363 2.15743
0.962223 -0.332962 2.0935
0.915039 -0.332529 2.0614
1.11345 -0.331985 2.15327
1.00639 -0.331586 2.09096
1.12304 -0.331297 2.13939
1.12253 -0.330754 2.13189
0.854317 -0.330356 1.98909
0.96945 -0.329959 2.03797
1.08239 -0.329562 2.08579
0.934714 -0.329273 2.0022
1.04058 -0.328733 2.04805
1.03853 -0.328337 2.03846
0.820818 -0.327942 1.92106
1.18487 -0.327691 2.09302
0.671416 -0.327297 1.8278
0.914029 -0.327047 1.93908
1.00045 -0.326943 1.97072
0.972775 -0.326591 1.948
0.750093 -0.326632 1.82353
0.730375 -0.326715 1.80007
2.57864 -0.386321 4.29335
2.37997 -0.385365 4.18328
2.47822 -0.3847 4.22021
2.50778 -0.384179 4.2221
2.5514 -0.38355 4.23164
2.27065 -0.383172 4.07769
2.35554 -0.38269 4.10715
2.50473 -0.382327 4.16816
2.49247 -0.38197 4.14844
2.39467 -0.38162 4.08593
2.29663 -0.381276 4.0233
2.43295 -0.38094 4.07784
2.4825 -0.38069 4.08853
2.5037 -0.380365 4.08549
2.48466 -0.380048 4.06232
2.39452 -0.379803 4.0032
2.31654 -0.379496 3.95055
2.50561 -0.379249 4.03109
2.42936 -0.378949 3.9793
2.25356 -0.37866 3.87771
2.395 -0.378396 3.9346
2.42402 -0.378113 3.93542
2.42564 -0.377838 3.92252
2.41232 -0.377555 3.90221
2.22578 -0.377276 3.7953
2.29715 -0.377006 3.8173
2.30713 -0.376711 3.80879
2.34928 -0.376449 3.81618
2.4233 -0.376144 3.8398
2.17549 -0.375889 3.70221
2.41815 -0.375575 3.81026
2.36274 -0.375328 3.76886
2.28413 -0.375005 3.71637
2.2939 -0.374677 3.70814
2.53558 -0.374345 3.81591
2.3209 -0.374013 3.69553
2.39511 -0.373765 3.71906
2.34448 -0.373431 3.68077
2.43713 -0.372992 3.71485
2.19976 -0.372741 3.58268
2.2991 -0.372402 3.6195
2.41584 -0.371946 3.66584
2.33828 -0.371601 3.6143
2.38415 -0.371228 3.62469
2.18203 -0.370878 3.51096
2.18164 -0.370402 3.49902
2.12751 -0.369919 3.46028
2.38848 -0.369562 3.57824
2.36811 -0.36907 3.55653
2.30581 -0.368573 3.51392
2.25319 -0.36807 3.47623
2.26735 -0.367563 3.47201
2.08357 -0.367052 3.36889
2.08149 -0.366393 3.35774
2.15995 -0.365768 3.38667
2.33282 -0.365243 3.46211
2.19271 -0.36446 3.38302
2.07179 -0.363777 3.31286
2.14708 -0.36298 3.3417
2.19409 -0.362286 3.35569
2.07692 -0.361369 3.28934
1.88683 -0.360564 3.18575
2.09314 -0.3597 3.28088
2.05084 -0.358792 3.25211
2.07557 -0.357931 3.25657
2.04173 -0.357208 3.23075
1.85552 -0.356308 3.13017
1.93662 -0.355587 3.16191
1.86962 -0.354868 3.11965
1.90425 -0.35405 3.12905
1.7901 -0.353296 3.06362
1.62939 -0.352547 2.97493
1.89968 -0.351833 3.10151
1.88912 -0.351151 3.08746
1.68172 -0.350438 2.9753
1.67426 -0.349727 2.96316
1.69327 -0.349017 2.9643
1.84067 -0.348334 3.02947
1.82016 -0.347625 3.01096
1.61484 -0.347031 2.89914
1.57752 -0.346348 2.87211
1.52263 -0.345664 2.83636
1.84752 -0.344959 2.99074
1.73418 -0.344392 2.92489
1.6186 -0.343689 2.85912
1.65775 -0.343125 2.86958
1.60872 -0.342547 2.83611
1.41114 -0.341863 2.72934
1.52619 -0.341178 2.77894
1.57829 -0.340618 2.79604
1.70832 -0.340059 2.85213
1.54419 -0.339501 2.76118
1.51962 -0.338944 2.74004
1.38002 -0.33826 2.66258
1.62939 -0.337704 2.7785
1.47603 -0.337151 2.69308
1.52111 -0.336598 2.70692
1.6169 -0.335913 2.74736
1.4975 -0.335362 2.67904
1.47818 -0.334812 2.6608
1.46673 -0.334263 2.64651
1.33104 -0.333715 2.57016
1.30452 -0.333167 2.54842
1.31729 -0.332621 2.54636
1.37513 -0.331935 2.5682
1.38886 -0.331528 2.5654
1.44382 -0.330984 2.58455
1.3397 -0.330435 2.52425
1.26806 -0.329893 2.48017
1.30717 -0.329352 2.4915
1.16802 -0.328803 2.41382
1.23707 -0.328263 2.4402
1.21017 -0.327862 2.41729
1.26697 -0.327175 2.43906
1.21722 -0.326775 2.4048
1.24649 -0.326362 2.4102
0.997428 -0.325688 2.27906
1.1604 -0.325291 2.35124
1.25324 -0.324741 2.38991
1.17017 -0.324207 2.34051
1.29712 -0.323811 2.39477
1.05981 -0.323123 2.26988
1.17409 -0.322729 2.31787
1.08527 -0.322316 2.26453
0.95372 -0.321785 2.19106
0.873028 -0.321393 2.14165
1.07711 -0.320704 2.2377
0.980085 -0.320313 2.18018
0.992234 -0.3199 2.17751
0.883723 -0.319372 2.11574
0.924609 -0.318983 2.12726
1.23821 -0.318294 2.27832
0.96539 -0.317905 2.13305
1.06154 -0.317492 2.17256
1.07568 -0.316967 2.1723
0.854131 -0.31658 2.05275
1.07564 -0.316028 2.15653
1.11049 -0.315643 2.16524
0.728621 -0.315091 1.96741
0.994322 -0.314706 2.09161
1.015 -0.314292 2.09364
0.986345 -0.31377 2.07222
0.997611 -0.313386 2.06929
0.924206 -0.312834 2.0259
0.992309 -0.312451 2.05145
0.827107 -0.311899 1.96224
0.849501 -0.311655 1.96346
0.994108 -0.31124 2.02771
0.784088 -0.310721 1.91585
0.965928 -0.31034 1.99841
0.902065 -0.309787 1.96008
0.818413 -0.309545 1.90839
0.711518 -0.308992 1.84862
0.705354 -0.308612 1.8373
0.858655 -0.308233 1.90573
0.704402 -0.30768 1.82241
0.786833 -0.307439 1.85388
0.849737 -0.307024 1.87762
0.739595 -0.306507 1.81605
0.761901 -0.306267 1.81753
0.627998 -0.305847 1.74302
0.779332 -0.305457 1.81082
0.734404 -0.305069 1.78048
0.601126 -0.304785 1.70478
0.60456 -0.304402 1.69864
0.66954 -0.304162 1.7216
0.714395 -0.303924 1.73449
0.766044 -0.303687 1.75078
0.638519 -0.303592 1.6758
0.695581 -0.30405 1.68647
2.55639 -0.368159 4.31241
2.5754 -0.367253 4.31106
2.54405 -0.366627 4.2831
2.63415 -0.366179 4.31494
2.53214 -0.365701 4.25093
2.66437 -0.365235 4.304
2.45046 -0.364784 4.18398
2.4428 -0.364446 4.16647
2.56617 -0.36416 4.21421
2.46703 -0.363836 4.15094
2.39706 -0.363518 4.10225
2.30201 -0.363206 4.041
2.58029 -0.362979 4.16596
2.35615 -0.362677 4.04016
2.46674 -0.362384 4.08171
2.59064 -0.362107 4.12983
2.60251 -0.361878 4.12168
2.39738 -0.361601 4.00534
2.34416 -0.361329 3.96495
2.39226 -0.361097 3.97499
2.59308 -0.36085 4.0615
2.45838 -0.360609 3.98024
2.39375 -0.360356 3.93411
2.4599 -0.360105 3.95338
2.63283 -0.359857 4.02604
2.46486 -0.359596 3.92835
2.50702 -0.359374 3.9355
2.42517 -0.359084 3.88111
2.35955 -0.358862 3.83441
2.26865 -0.358569 3.77556
2.14228 -0.358341 3.69857
2.4708 -0.358052 3.84945
2.42981 -0.35783 3.81515
2.31984 -0.357533 3.74689
2.43262 -0.35731 3.78951
2.51163 -0.357012 3.8158
2.46243 -0.356711 3.77801
2.30254 -0.356474 3.68447
2.37672 -0.356088 3.70902
2.27742 -0.355862 3.64574
2.4359 -0.355555 3.71195
2.24791 -0.355246 3.60496
2.27918 -0.354908 3.60783
2.323 -0.354594 3.61683
2.30101 -0.354162 3.59381
2.2366 -0.353842 3.5488
2.43053 -0.353487 3.63324
2.46129 -0.353163 3.6359
2.4229 -0.352711 3.60497
2.35371 -0.352253 3.55871
2.28636 -0.351921 3.51247
2.14257 -0.351454 3.42905
2.20093 -0.350982 3.44679
2.28627 -0.350506 3.47808
2.36873 -0.350025 3.50802
2.36084 -0.349443 3.49359
2.26621 -0.348813 3.43623
2.24901 -0.348319 3.41656
2.29836 -0.347578 3.43215
2.18368 -0.346932 3.36505
2.10175 -0.346179 3.31521
2.21366 -0.345421 3.3624
2.20803 -0.344555 3.35175
2.26087 -0.343711 3.37022
1.94886 -0.342885 3.20621
2.24222 -0.342013 3.34532
2.04433 -0.341189 3.23849
2.0398 -0.340322 3.22876
2.09819 -0.33963 3.24912
1.87027 -0.33881 3.12745
1.76796 -0.338081 3.06789
2.0001 -0.337263 3.17637
1.9146 -0.336576 3.12499
1.79773 -0.335832 3.05848
1.90677 -0.335076 3.10508
1.78935 -0.334392 3.03789
1.81371 -0.33371 3.04165
2.00426 -0.333029 3.12855
1.62274 -0.332348 2.92946
1.61836 -0.331669 2.91899
1.73171 -0.331018 2.96721
1.76706 -0.33034 2.97671
1.95046 -0.329688 3.06006
1.66873 -0.329011 2.91113
1.75805 -0.328444 2.9468
1.62269 -0.327791 2.87094
1.77042 -0.327229 2.93587
1.58296 -0.326577 2.83407
1.53915 -0.326019 2.80329
1.74319 -0.325367 2.89734
1.58163 -0.324714 2.80866
1.50151 -0.324176 2.7597
1.54892 -0.323627 2.77464
1.41589 -0.322974 2.70038
1.46211 -0.32244 2.71469
1.40196 -0.321787 2.67698
1.47616 -0.321254 2.70536
1.63377 -0.320723 2.77548
1.55142 -0.320193 2.72566
1.42297 -0.319539 2.65401
1.52337 -0.31901 2.69564
1.47145 -0.318483 2.66115
1.36716 -0.317957 2.60051
1.24369 -0.317303 2.53156
1.17248 -0.316908 2.48625
1.37546 -0.316385 2.57935
1.38221 -0.31573 2.57567
1.31463 -0.315208 2.53357
1.27481 -0.314815 2.5041
1.37551 -0.314163 2.54753
1.23657 -0.313643 2.46986
1.16347 -0.313119 2.42519
1.24298 -0.3126 2.45682
1.19274 -0.312213 2.42228
1.23362 -0.311558 2.43608
1.18293 -0.311172 2.40138
1.19548 -0.310648 2.39976
1.18253 -0.310133 2.38534
1.26633 -0.309619 2.41933
1.04208 -0.309094 2.29945
1.16861 -0.308581 2.35488
1.10537 -0.308187 2.31421
1.15694 -0.307544 2.33362
1.06809 -0.307164 2.28008
1.19781 -0.306639 2.3374
0.855424 -0.306261 2.15715
0.957495 -0.305604 2.20215
0.994409 -0.305227 2.21161
0.923855 -0.304702 2.16897
1.1595 -0.304194 2.27929
1.05475 -0.3038 2.21821
0.955988 -0.303293 2.1614
0.921791 -0.302899 2.13567
1.06225 -0.302393 2.19854
0.860952 -0.301998 2.08933
1.08985 -0.301362 2.19795
1.09829 -0.30099 2.19345
0.919635 -0.300464 2.09715
0.941455 -0.300092 2.0994
0.896993 -0.299566 2.07029
0.856179 -0.299171 2.04155
0.895624 -0.298669 2.0542
0.892059 -0.298274 2.04416
0.803347 -0.297773 1.99281
0.854412 -0.297378 2.01016
0.793091 -0.296877 1.97257
0.830042 -0.29635 1.98446
0.756366 -0.295982 1.93924
0.742784 -0.295455 1.92595
0.801142 -0.295088 1.94681
0.867426 -0.294561 1.97353
0.881524 -0.294194 1.97233
0.787872 -0.293667 1.91917
0.752265 -0.293272 1.89352
0.631794 -0.292774 1.82669
0.796892 -0.292247 1.90304
0.599329 -0.292013 1.79458
0.787001 -0.291354 1.88388
0.73065 -0.29109 1.84645
0.86265 -0.290566 1.90637
0.58433 -0.290013 1.76153
0.607885 -0.289771 1.76388
0.673798 -0.289221 1.7912
0.663913 -0.288809 1.77897
0.615334 -0.288572 1.74527
0.685019 -0.288026 1.77455
0.666625 -0.287793 1.75595
0.532499 -0.28725 1.68336
0.568399 -0.286844 1.69412
0.728347 -0.286616 1.76471
0.602034 -0.286078 1.69608
0.545288 -0.285854 1.65833
0.694695 -0.285453 1.72591
0.666393 -0.285053 1.70465
0.515628 -0.284834 1.6199
0.592572 -0.284436 1.6513
0.345082 -0.284171 1.5188
0.593345 -0.283693 1.63696
0.519526 -0.283431 1.59133
0.570261 -0.283089 1.60903
0.611319 -0.282828 1.62087
0.566006 -0.282491 1.59054
0.648585 -0.282102 1.62486
0.416806 -0.281899 1.4996
0.459693 -0.281513 1.51409
0.539644 -0.281441 1.543
0.498176 -0.281057 1.51534
0.405836 -0.28086 1.45979
0.483327 -0.280605 1.48994
0.404319 -0.280285 1.44275
0.385516 -0.280093 1.42395
0.449702 -0.279903 1.44664
0.538002 -0.279715 1.48138
0.388202 -0.279654 1.39537
0.411732 -0.279717 1.39433
2.66 -0.350629 4.39081
2.54606 -0.349378 4.32505
2.44235 -0.348662 4.26151
2.52619 -0.348202 4.29036
2.275 -0.347674 4.15212
2.49106 -0.34724 4.24702
2.43106 -0.34692 4.20326
2.42179 -0.346605 4.18487
2.29407 -0.346239 4.10757
2.49529 -0.345939 4.1944
2.60074 -0.345645 4.23333
2.57959 -0.345357 4.20895
2.44437 -0.345076 4.12752
2.57249 -0.344871 4.17731
2.57635 -0.344599 4.16541
2.4185 -0.344382 4.07234
2.48774 -0.344134 4.09303
2.54613 -0.34388 4.10834
2.50452 -0.343681 4.07334
2.35726 -0.343439 3.98581
2.35679 -0.343229 3.97147
2.50721 -0.343011 4.03266
2.38592 -0.342794 3.95801
2.44558 -0.342568 3.9739
2.3945 -0.342341 3.93447
2.33272 -0.342142 3.88951
2.53261 -0.341925 3.97552
2.38544 -0.341683 3.8882
2.35742 -0.341472 3.86025
2.36703 -0.341221 3.85142
2.33758 -0.341016 3.82276
2.36755 -0.340756 3.82422
2.3485 -0.340555 3.80077
2.35268 -0.340355 3.78895
2.34608 -0.340087 3.77224
2.33131 -0.339816 3.75148
2.26714 -0.339615 3.70556
2.33855 -0.339343 3.72795
2.2956 -0.339068 3.6932
2.35029 -0.338867 3.70677
2.36718 -0.33859 3.70201
2.54369 -0.338312 3.77709
2.29972 -0.338005 3.64217
2.23894 -0.337721 3.5987
2.3945 -0.337435 3.66344
2.32626 -0.337196 3.61595
2.45367 -0.336825 3.66732
2.2952 -0.336533 3.57517
2.20967 -0.336201 3.51982
2.40081 -0.335905 3.60257
2.21936 -0.335481 3.50004
2.34879 -0.335052 3.55303
2.23564 -0.334746 3.48379
2.28275 -0.334308 3.49577
2.26179 -0.333865 3.47378
2.33534 -0.333418 3.49912
2.30409 -0.332966 3.47214
2.10534 -0.332511 3.36148
2.3431 -0.331959 3.46989
2.40184 -0.331358 3.48926
2.23192 -0.330797 3.39401
2.11431 -0.330186 3.32539
2.17013 -0.329476 3.34436
2.29916 -0.328762 3.40004
2.08425 -0.327803 3.28586
2.02766 -0.327079 3.24895
2.17858 -0.326171 3.31741
2.1096 -0.325214 3.27644
2.01856 -0.324427 3.22305
2.13429 -0.323597 3.27349
2.04981 -0.322812 3.22351
2.06481 -0.321988 3.22369
1.93524 -0.321329 3.1502
1.95971 -0.320548 3.15487
2.01282 -0.319854 3.17316
1.65849 -0.319075 2.98854
1.82972 -0.318422 3.06566
1.80764 -0.317769 3.04618
1.7471 -0.317117 3.00751
1.9067 -0.316374 3.0798
1.97016 -0.315692 3.10353
1.74718 -0.315044 2.98379
1.6851 -0.314424 2.9443
1.97791 -0.313776 3.08256
1.61372 -0.313129 2.89238
1.73457 -0.312509 2.94453
1.62248 -0.311941 2.87977
1.74615 -0.31132 2.93344
1.61664 -0.3107 2.86057
1.65948 -0.310057 2.87415
1.66431 -0.309522 2.86775
1.41164 -0.308901 2.73347
1.40954 -0.308279 2.72454
1.48664 -0.307749 2.75438
1.39227 -0.307237 2.69836
1.38074 -0.306615 2.68487
1.50872 -0.306105 2.7401
1.63382 -0.305483 2.79503
1.46862 -0.304962 2.70387
1.43578 -0.304455 2.6788
1.51113 -0.303833 2.70902
1.35182 -0.303327 2.6208
1.46058 -0.302705 2.66784
1.35305 -0.3022 2.60559
1.33505 -0.301697 2.58814
1.31117 -0.301199 2.56774
1.35035 -0.300697 2.57896
1.24022 -0.300074 2.51682
1.27917 -0.299573 2.528
1.27822 -0.299073 2.51927
1.3741 -0.298575 2.55898
1.14465 -0.298076 2.43608
1.25247 -0.297578 2.48185
1.10955 -0.29708 2.4023
1.17709 -0.296583 2.428
1.2439 -0.296085 2.45341
1.24431 -0.295589 2.44562
1.25574 -0.295095 2.44337
1.33277 -0.294596 2.47403
1.24226 -0.294104 2.42089
1.07779 -0.29348 2.33225
1.22663 -0.293113 2.3975
1.03507 -0.292613 2.29404
0.875789 -0.292123 2.20667
1.17003 -0.291748 2.34481
0.972981 -0.291134 2.24002
1.18879 -0.29077 2.33891
0.968515 -0.29027 2.22131
1.07025 -0.289783 2.26463
1.03714 -0.289283 2.24071
0.994294 -0.288922 2.21039
1.21774 -0.288297 2.31626
0.850017 -0.287937 2.12356
0.997994 -0.287437 2.19036
1.02242 -0.287077 2.1938
0.992425 -0.286452 2.17315
0.841372 -0.286094 2.08892
0.908214 -0.285594 2.11532
1.02842 -0.285218 2.16698
0.841317 -0.284736 2.06629
0.919774 -0.284235 2.09864
0.955042 -0.283754 2.10921
0.885001 -0.283253 2.06739
0.838783 -0.282898 2.0358
0.903566 -0.282397 2.06148
0.86843 -0.282042 2.03549
0.823972 -0.281541 2.00664
0.818381 -0.281041 1.99726
0.9599 -0.280687 2.0597
0.771822 -0.280186 1.95917
0.688208 -0.279833 1.90909
0.901253 -0.279332 2.00921
0.687449 -0.278831 1.89594
0.731096 -0.278479 1.9096
0.758239 -0.277977 1.91689
0.644734 -0.277476 1.85391
0.702231 -0.277125 1.87459
0.622368 -0.276623 1.82851
0.596834 -0.276105 1.80985
0.667368 -0.275865 1.83574
0.805705 -0.275334 1.89927
0.720817 -0.274803 1.85121
0.557585 -0.274569 1.76025
0.522449 -0.274041 1.73712
0.697686 -0.273647 1.81751
0.626922 -0.273286 1.77449
0.771077 -0.272894 1.83938
0.736544 -0.272502 1.81494
0.590761 -0.271982 1.73661
0.564062 -0.271759 1.71396
0.539847 -0.271371 1.69475
0.559077 -0.270983 1.69728
0.28225 -0.270636 1.55129
0.529788 -0.270252 1.668
0.545807 -0.269868 1.66899
0.561421 -0.269485 1.66979
0.584481 -0.269273 1.67205
0.55725 -0.268893 1.65146
0.519543 -0.268513 1.62565
0.536508 -0.268261 1.62549
0.539304 -0.267929 1.61935
0.481381 -0.267553 1.58348
0.503351 -0.267178 1.58757
0.491667 -0.266977 1.57248
0.37062 -0.266605 1.5051
0.391634 -0.266233 1.50876
0.448839 -0.265863 1.53053
0.341816 -0.265791 1.46607
0.310704 -0.265423 1.44371
0.347686 -0.265056 1.45541
0.376442 -0.264691 1.46302
0.319713 -0.264502 1.42542
0.468431 -0.26426 1.49131
0.253061 -0.263897 1.3769
0.344883 -0.263656 1.41438
0.268119 -0.263354 1.36847
0.275779 -0.263115 1.36389
0.332323 -0.262757 1.38547
0.290423 -0.262519 1.35614
0.27378 -0.262342 1.33857
0.293871 -0.261988 1.34197
0.319254 -0.261753 1.34631
0.342127 -0.261518 1.3494
0.358435 -0.26123 1.35002
0.213894 -0.260997 1.26942
0.290564 -0.260649 1.30116
0.317091 -0.260483 1.30516
0.307584 -0.260253 1.29211
0.239048 -0.259909 1.25127
0.241151 -0.25968 1.24405
0.253081 -0.259519 1.24074
0.239302 -0.259292 1.22559
0.124724 -0.258953 1.16176
0.355911 -0.25884 1.26741
0.0789787 -0.258573 1.12136
0.160121 -0.258349 1.1537
0.146526 -0.258125 1.13869
0.122597 -0.257975 1.11742
0.302843 -0.257753 1.19934
0.334074 -0.257422 1.20846
0.300847 -0.257386 1.18082
0.152725 -0.257058 1.10027
0.20304 -0.256839 1.11726
0.384289 -0.256698 1.19853
0.327845 -0.256482 1.16215
0.0666524 -0.256266 1.0234
0.226323 -0.256129 1.09386
0.0823882 -0.255914 1.01375
0.0310569 -0.255701 0.979944
0.172254 -0.255568 1.04115
0.147857 -0.255356 1.02082
0.218035 -0.255226 1.0465
0.160516 -0.255016 1.00961
0.0819629 -0.254889 0.960904
0.128733 -0.254764 0.974841
0.126037 -0.254847 0.960704
2.68127 -0.331403 4.42168
2.45886 -0.33075 4.29856
2.64852 -0.33009 4.38158
2.46514 -0.329701 4.27653
2.5043 -0.329293 4.2829
2.44439 -0.328896 4.23971
2.46454 -0.328638 4.23574
2.58494 -0.328263 4.28264
2.50608 -0.327987 4.22933
2.44539 -0.327798 4.1846
2.46882 -0.327488 4.18269
2.42516 -0.32723 4.14695
2.41033 -0.326979 4.1256
2.53351 -0.326797 4.17284
2.50776 -0.326554 4.14602
2.51573 -0.326373 4.13568
2.34484 -0.326141 4.03627
2.40925 -0.325961 4.05418
2.34699 -0.325739 4.00906
2.39859 -0.325525 4.02083
2.40665 -0.325336 4.01068
2.28327 -0.325147 3.93483
2.51856 -0.324951 4.03839
2.42258 -0.324748 3.97637
2.39179 -0.324568 3.94681
2.35248 -0.324369 3.91314
2.52437 -0.324178 3.98503
2.58569 -0.323958 4.00185
2.35537 -0.32378 3.87259
2.37751 -0.323598 3.8696
2.3057 -0.323423 3.8196
2.27517 -0.323188 3.79069
2.37578 -0.323007 3.82697
2.39167 -0.322775 3.8213
2.47238 -0.322598 3.84764
2.5386 -0.322357 3.86723
2.3869 -0.32218 3.77741
2.42954 -0.321937 3.78528
2.43567 -0.321759 3.77441
2.42462 -0.321513 3.7555
2.1722 -0.321307 3.61561
2.52343 -0.321056 3.77791
2.42428 -0.320803 3.71507
2.42328 -0.320548 3.70134
2.48965 -0.320291 3.72134
2.48268 -0.320107 3.70411
2.39398 -0.319734 3.64754
2.47299 -0.31947 3.67399
2.41445 -0.319281 3.63108
2.35098 -0.318894 3.58733
2.38325 -0.318623 3.59055
2.23246 -0.318306 3.50263
2.26187 -0.318029 3.50451
2.34431 -0.317625 3.534
2.3677 -0.317215 3.53404
2.48689 -0.316884 3.58137
2.25946 -0.316511 3.45576
2.20724 -0.316089 3.41821
2.29155 -0.315663 3.449
2.07564 -0.315014 3.33165
2.19835 -0.314579 3.3818
2.13374 -0.313919 3.3403
2.12447 -0.313477 3.32462
2.12279 -0.312809 3.31477
2.25745 -0.312046 3.37399
2.26568 -0.311232 3.37052
2.04188 -0.310459 3.25074
2.03599 -0.309585 3.24091
1.9571 -0.308671 3.19501
2.14866 -0.30776 3.2844
1.9316 -0.306968 3.16848
1.88346 -0.306062 3.13814
1.79347 -0.305434 3.0844
2.07086 -0.304689 3.21549
1.85923 -0.303906 3.1025
1.98876 -0.303164 3.15978
1.90232 -0.30254 3.10804
1.85356 -0.301764 3.07663
1.7755 -0.301142 3.02918
1.94406 -0.300521 3.10509
1.87072 -0.299784 3.06122
1.70891 -0.299165 2.97205
1.65908 -0.298547 2.93892
1.74793 -0.29793 2.97518
1.77444 -0.297314 2.98031
1.56698 -0.2967 2.86851
1.62833 -0.296086 2.89116
1.74966 -0.295473 2.94385
1.58046 -0.294861 2.85133
1.57123 -0.294272 2.83862
1.72798 -0.293683 2.90895
1.7463 -0.29315 2.90956
1.45624 -0.292561 2.7566
1.51822 -0.291972 2.77972
1.40648 -0.291382 2.71604
1.37058 -0.290876 2.68947
1.45696 -0.290286 2.72496
1.38197 -0.289799 2.67875
1.41212 -0.289209 2.68623
1.40823 -0.28871 2.6758
1.4259 -0.28812 2.67715
1.67261 -0.287636 2.79194
1.30293 -0.287046 2.59973
1.35892 -0.286563 2.61925
1.33086 -0.286081 2.59679
1.37889 -0.285491 2.61359
1.34868 -0.28501 2.59014
1.26947 -0.284531 2.54221
1.17679 -0.28394 2.48882
1.24722 -0.283576 2.51455
1.39789 -0.283103 2.58163
1.31753 -0.282512 2.53455
1.24011 -0.282036 2.48772
1.33376 -0.281561 2.52645
1.16473 -0.281088 2.43387
1.2471 -0.280615 2.46704
1.24917 -0.280023 2.46144
1.26528 -0.279669 2.46022
1.08586 -0.279077 2.36398
1.232 -0.278606 2.42919
1.15251 -0.278251 2.3803
1.05464 -0.277663 2.32495
1.06541 -0.277312 2.32122
1.17569 -0.27672 2.37008
1.05585 -0.27637 2.30111
0.997915 -0.275778 2.26597
0.936644 -0.27543 2.22634
1.21509 -0.274837 2.3595
1.05116 -0.27449 2.26861
0.986862 -0.274016 2.22908
1.029 -0.273551 2.2427
1.12181 -0.273077 2.28182
0.992176 -0.272732 2.2082
0.809063 -0.272139 2.11087
0.94463 -0.271795 2.16992
1.11802 -0.27132 2.2495
0.988326 -0.270858 2.17743
0.829485 -0.270384 2.09099
0.920003 -0.269909 2.12928
0.866666 -0.269567 2.09403
0.815186 -0.268974 2.06288
0.8266 -0.268633 2.06008
0.809473 -0.268158 2.04471
0.871276 -0.267801 2.06737
0.74515 -0.267343 1.99739
0.763809 -0.266868 2.00005
0.756003 -0.266529 1.98779
0.788326 -0.266053 1.99737
0.86795 -0.265459 2.03217
0.746639 -0.265121 1.96326
0.662582 -0.264646 1.91479
0.694495 -0.26417 1.92435
0.829192 -0.263833 1.98354
0.745846 -0.263357 1.93555
0.812062 -0.262882 1.96239
0.7001 -0.262546 1.89836
0.791804 -0.26207 1.93802
0.562594 -0.261585 1.81739
0.67259 -0.26133 1.86337
0.558458 -0.260844 1.80038
0.531521 -0.260337 1.78132
0.708902 -0.259958 1.86275
0.760959 -0.259605 1.8812
0.61429 -0.259228 1.80064
0.631329 -0.258726 1.80367
0.523216 -0.25835 1.74245
0.52212 -0.258129 1.73266
0.514303 -0.257631 1.72333
0.695279 -0.257259 1.80672
0.583248 -0.256887 1.74362
0.730943 -0.256672 1.80826
0.427009 -0.25618 1.65096
0.609571 -0.255812 1.73522
0.32972 -0.255444 1.5883
0.431941 -0.255235 1.63022
0.438316 -0.25487 1.62644
0.578891 -0.254505 1.68979
0.319778 -0.254142 1.55331
0.392841 -0.2539 1.58122
0.517238 -0.253578 1.63598
0.504924 -0.253218 1.62295
0.566973 -0.252858 1.64712
0.398518 -0.2525 1.55606
0.461132 -0.252304 1.57821
0.309245 -0.251949 1.49546
0.419634 -0.251594 1.54387
0.447946 -0.251358 1.54953
0.229686 -0.251005 1.43365
0.540072 -0.250816 1.57971
0.437701 -0.250466 1.52179
0.283847 -0.250233 1.43643
0.294387 -0.249884 1.435
0.357862 -0.249536 1.46006
0.384179 -0.249355 1.46409
0.226735 -0.249125 1.37698
0.399679 -0.24878 1.45681
0.35162 -0.248552 1.42442
0.220047 -0.248209 1.35202
0.2214 -0.248035 1.34357
0.295069 -0.247808 1.37209
0.492922 -0.247469 1.46443
0.336224 -0.247244 1.37779
0.40651 -0.246907 1.40637
0.173973 -0.246684 1.28184
0.396387 -0.246517 1.38392
0.14216 -0.246184 1.25028
0.23576 -0.245962 1.28884
0.124775 -0.245631 1.22684
0.138827 -0.245411 1.22566
0.177275 -0.245251 1.23574
0.195814 -0.245033 1.23681
0.206304 -0.244815 1.23387
0.309003 -0.24449 1.27876
0.229557 -0.244273 1.23087
0.10576 -0.24395 1.16254
0.258359 -0.243842 1.22898
0.145653 -0.243585 1.16519
0.243383 -0.243371 1.20592
0.243432 -0.243159 1.19782
0.22686 -0.242947 1.18143
0.0535075 -0.24263 1.08836
0.05223 -0.24242 1.07963
0.253618 -0.242277 1.17115
0.215911 -0.242069 1.14421
0.169075 -0.24186 1.11272
0.0389073 -0.241653 1.03958
0.166418 -0.241343 1.09698
0.191897 -0.241137 1.10167
0.0462046 -0.241035 1.01909
0.273183 -0.240799 1.12507
0.119491 -0.240595 1.04019
0.0539305 -0.240392 0.999392
0.193072 -0.24019 1.06095
-0.0839591 -0.239989 0.914426
0.319598 -0.239788 1.10821
-0.0945213 -0.239588 0.893156
0.09873 -0.239463 0.980533
0.120365 -0.239265 0.983364
0.212606 -0.239067 1.0215
0.0907268 -0.23887 0.952593
0.257887 -0.238674 1.02821
0.191502 -0.238381 0.988735
0.0840563 -0.238187 0.927057
0.0122773 -0.23809 0.881543
0.115852 -0.237974 0.924031
0.073421 -0.237782 0.89487
0.0192585 -0.237591 0.85985
0.0413502 -0.2374 0.862962
0.216646 -0.237115 0.944347
0.14899 -0.236926 0.902594
0.0436549 -0.236737 0.842007
0.0634534 -0.23655 0.843992
0.1266 -0.236538 0.864544
0.0698118 -0.236352 0.828236
0.168946 -0.236167 0.869893
0.0622847 -0.235982 0.808658
0.089525 -0.235798 0.814377
0.157069 -0.235615 0.840252
-0.0280078 -0.235432 0.739821
0.0333525 -0.235251 0.762611
0.126283 -0.23507 0.80119
0.22462 -0.23489 0.842477
0.0966668 -0.234797 0.769048
0.0269139 -0.234708 0.724658
-0.0108954 -0.23453 0.697872
0.0273351 -0.234353 0.709108
0.058945 -0.234176 0.717037
0.0147828 -0.234001 0.687082
-0.0673728 -0.233826 0.638132
-0.158344 -0.233652 0.584777
-0.0809907 -0.233479 0.615586
-0.0390774 -0.233307 0.628677
0.0413731 -0.233135 0.661038
0.0164777 -0.232964 0.640727
0.112774 -0.23297 0.677711
0.0100236 -0.232801 0.618468
0.160838 -0.232632 0.686008
-0.120788 -0.232464 0.537328
0.248991 -0.232298 0.714352
0.0698873 -0.232132 0.616934
-0.0304429 -0.232049 0.55733
0.017252 -0.231884 0.573316
-0.208295 -0.23172 0.452681
-0.00618118 -0.231557 0.545876
-0.0250988 -0.231395 0.528556
0.115179 -0.231233 0.590832
0.0558219 -0.231153 0.551737
-0.0658213 -0.230992 0.483055
-0.135921 -0.230833 0.440144
-0.0337276 -0.230674 0.483379
-0.0177644 -0.230517 0.483497
-0.147904 -0.23036 0.410563
-0.0417641 -0.230282 0.454234
0.0474148 -0.230223 0.489046
-0.156695 -0.230069 0.379115
-0.0333952 -0.229915 0.432886
0.00797947 -0.229838 0.444178
0.0111107 -0.229686 0.437865
-0.0295152 -0.229535 0.409671
0.0624584 -0.229384 0.447773
-0.0635307 -0.229234 0.376892
0.0505197 -0.22916 0.424534
0.110066 -0.229011 0.446419
-0.0988258 -0.228863 0.334081
-0.143712 -0.228717 0.303743
-0.0225219 -0.228644 0.354962
0.136936 -0.228498 0.426794
-0.02421 -0.228354 0.338319
0.00945518 -0.22821 0.347246
-0.0996819 -0.228139 0.283308
-0.00415286 -0.227996 0.323164
0.0596914 -0.227855 0.347172
-0.171065 -0.227714 0.223875
-0.138734 -0.227644 0.230677
-0.150363 -0.227505 0.216939
0.122785 -0.227367 0.345584
-0.123701 -0.227229 0.214407
-0.018144 -0.227161 0.257826
0.0977682 -0.227025 0.307842
0.0581195 -0.22689 0.280072
-0.0667028 -0.226755 0.20971
-0.0140767 -0.226584 0.22886
-0.110383 -0.226451 0.17276
-0.0284911 -0.226319 0.205752
0.087644 -0.226187 0.255858
0.0390971 -0.226122 0.222236
-0.166607 -0.225992 0.111415
-0.0476888 -0.225863 0.162899
-0.0370285 -0.225799 0.15888
0.0406277 -0.225671 0.189724
-0.074262 -0.225544 0.124288
-0.264496 -0.225481 0.0198206
-0.155223 -0.225356 0.0664565
-0.14713 -0.225231 0.0624943
-0.160827 -0.225108 0.0476285
0.0197862 -0.225047 0.128582
-0.142117 -0.224924 0.0396034
-0.0813378 -0.224803 0.0619566
0.0168581 -0.224743 0.1017
-0.0923781 -0.224623 0.0390344
-0.0999952 -0.224505 0.0271693
-0.0885933 -0.224446 0.0235121
-0.143778 -0.22422 -0.00976161
0.0384569 -0.224103 0.0732884
0.113588 -0.224045 0.1015
-0.161486 -0.22393 -0.0441176
2.52292 -0.313504 4.37087
2.43568 -0.312633 4.3168
2.60774 -0.312144 4.39012
2.43952 -0.311644 4.29341
2.51216 -0.311287 4.31629
2.62307 -0.310915 4.35844
2.45428 -0.310582 4.26053
2.564 -0.310321 4.30145
2.42435 -0.310065 4.21767
2.5328 -0.309843 4.25775
2.39848 -0.309524 4.17711
2.53508 -0.309357 4.23095
2.5729 -0.309122 4.23587
2.47255 -0.308928 4.17146
2.37975 -0.308707 4.11102
2.2331 -0.308493 4.02363
2.40151 -0.308334 4.09343
2.4287 -0.308129 4.09294
2.22497 -0.307971 3.97669
2.32366 -0.307775 4.01192
2.5512 -0.307611 4.11138
2.30741 -0.307434 3.97528
2.29808 -0.307262 3.95639
2.51453 -0.307103 4.05031
2.5396 -0.306925 4.04871
2.61801 -0.306739 4.07384
2.32781 -0.306579 3.9145
2.48394 -0.306409 3.97842
2.38134 -0.306246 3.91293
2.31575 -0.306043 3.86627
2.41961 -0.305885 3.90401
2.40262 -0.305727 3.88134
2.41605 -0.305574 3.87386
2.34542 -0.305363 3.82481
2.5161 -0.305206 3.89602
2.4114 -0.304993 3.83
2.36941 -0.304835 3.79491
2.36725 -0.304618 3.78022
2.33826 -0.304459 3.75168
2.52749 -0.304239 3.83275
2.38393 -0.30408 3.74696
2.42337 -0.303857 3.75321
2.47324 -0.303696 3.76418
2.39934 -0.303469 3.71383
2.41773 -0.303307 3.70911
2.4464 -0.303077 3.7101
2.27343 -0.302914 3.60975
2.39736 -0.302641 3.65879
2.32437 -0.302404 3.60908
2.45781 -0.302165 3.66264
2.51078 -0.301924 3.676
2.28639 -0.301636 3.5511
2.5247 -0.301389 3.65724
2.29012 -0.301139 3.52697
2.19281 -0.300841 3.46579
2.38295 -0.300586 3.54798
2.42177 -0.300204 3.55567
2.36781 -0.299817 3.51704
2.3389 -0.299553 3.48988
2.42762 -0.299158 3.52274
2.19319 -0.29876 3.39409
2.29145 -0.298357 3.43187
2.33926 -0.297741 3.44642
2.40628 -0.297331 3.46874
2.24852 -0.296705 3.3807
2.35078 -0.296075 3.42278
2.10283 -0.295441 3.28985
2.37264 -0.294804 3.4159
2.14986 -0.293948 3.29777
2.24007 -0.293089 3.33627
2.1435 -0.292187 3.28187
2.01665 -0.291321 3.21207
1.98502 -0.290457 3.18995
2.11566 -0.289595 3.24904
1.80708 -0.288735 3.08857
2.04862 -0.288139 3.20067
2.05357 -0.287283 3.1971
1.96134 -0.286579 3.14352
1.83433 -0.285838 3.07299
1.87665 -0.285246 3.0857
1.89124 -0.284545 3.08571
1.88697 -0.283955 3.07524
1.73665 -0.283222 2.99324
1.76598 -0.282635 2.99967
1.9709 -0.282048 3.09394
1.91686 -0.281462 3.05878
1.51607 -0.280766 2.85144
1.61967 -0.280182 2.89521
1.63118 -0.2796 2.89298
1.69122 -0.279018 2.91506
1.63445 -0.278461 2.87853
1.76973 -0.27788 2.93833
1.7593 -0.277322 2.92509
1.54461 -0.276765 2.80978
1.57251 -0.276254 2.81531
1.47437 -0.275697 2.75839
1.56408 -0.275139 2.79544
1.56794 -0.274637 2.78901
1.47576 -0.27408 2.73522
1.4618 -0.273522 2.72061
1.5624 -0.27306 2.76228
1.65378 -0.272502 2.80044
1.48103 -0.272027 2.70568
1.37281 -0.271468 2.64415
1.26015 -0.271009 2.57934
1.34273 -0.270451 2.61333
1.458 -0.269993 2.66257
1.4385 -0.269434 2.64563
1.33991 -0.268977 2.58803
1.41513 -0.268521 2.61737
1.22163 -0.267962 2.51359
1.46318 -0.267508 2.62617
1.18482 -0.267054 2.47884
1.21297 -0.266495 2.48604
1.32439 -0.26615 2.53242
1.12869 -0.265595 2.42775
1.1586 -0.265143 2.43471
1.07996 -0.264693 2.38743
1.13064 -0.264244 2.40484
1.09881 -0.263796 2.38102
1.17219 -0.263236 2.41121
1.06681 -0.2629 2.34936
1.10637 -0.26234 2.36273
1.3072 -0.261893 2.45542
1.15402 -0.261557 2.3698
0.775884 -0.260999 2.17445
1.07208 -0.260663 2.31359
1.19382 -0.260106 2.36828
1.04708 -0.25977 2.28602
1.10727 -0.259214 2.31002
1.11838 -0.258878 2.30678
0.917406 -0.258323 2.20028
1.0943 -0.257874 2.28142
0.903251 -0.257544 2.17713
1.01796 -0.256984 2.2287
1.1098 -0.256655 2.26592
0.969174 -0.256094 2.18992
0.905152 -0.255767 2.14927
0.840506 -0.255318 2.10992
0.946922 -0.254981 2.15468
0.846128 -0.25443 2.09866
0.955208 -0.253981 2.14631
0.971301 -0.253656 2.14588
0.979066 -0.253206 2.14295
0.90124 -0.252757 2.09727
0.919268 -0.252321 2.0994
0.692347 -0.251871 1.97926
0.743581 -0.251548 1.99656
0.820431 -0.251098 2.0284
1.03511 -0.250649 2.12919
0.807608 -0.250326 2.00722
0.675193 -0.249765 1.93609
0.6859 -0.249315 1.93504
0.843339 -0.248993 2.00564
0.717144 -0.248544 1.93622
0.509761 -0.248094 1.82625
0.634313 -0.247644 1.8823
0.620458 -0.247324 1.86739
0.689716 -0.246856 1.89612
0.474861 -0.246493 1.78138
0.562346 -0.24613 1.81784
0.532058 -0.245668 1.79685
0.428642 -0.245308 1.7379
0.553905 -0.244828 1.79503
0.705406 -0.24447 1.86359
0.556394 -0.244254 1.77989
0.628699 -0.243778 1.81061
0.53405 -0.243422 1.75617
0.387677 -0.242949 1.6776
0.447393 -0.242738 1.6983
0.485842 -0.242385 1.71047
0.535779 -0.242033 1.72841
0.577785 -0.241682 1.7424
0.386124 -0.241331 1.63959
0.456074 -0.241011 1.66716
0.79473 -0.240663 1.82954
0.478589 -0.240316 1.66454
0.368665 -0.239969 1.60268
0.35088 -0.239739 1.58518
0.25799 -0.239427 1.53137
0.439102 -0.239084 1.61507
0.534104 -0.238741 1.65574
0.539504 -0.2384 1.65162
0.22485 -0.238173 1.48577
0.39425 -0.237982 1.56141
0.436786 -0.237644 1.57591
0.363176 -0.237306 1.53236
0.599496 -0.236969 1.64378
0.536923 -0.236634 1.60578
0.521717 -0.236562 1.58741
0.197695 -0.236228 1.41871
0.228971 -0.235895 1.42767
0.480548 -0.235674 1.54507
0.271417 -0.235343 1.43386
0.313958 -0.235014 1.44851
0.447508 -0.234838 1.50626
0.400995 -0.23462 1.47467
0.122941 -0.234293 1.32905
0.361759 -0.234076 1.44015
0.197622 -0.233752 1.35153
0.268544 -0.233536 1.37871
0.257296 -0.233368 1.36406
0.130821 -0.233046 1.2943
0.206802 -0.232833 1.32404
0.323764 -0.232513 1.37602
0.221788 -0.232301 1.31682
0.416298 -0.232089 1.40587
0.106327 -0.231773 1.24442
0.302787 -0.231613 1.33363
0.247345 -0.231404 1.29773
0.284297 -0.231195 1.30804
0.273427 -0.230883 1.29618
0.0880603 -0.230676 1.19536
0.320608 -0.230469 1.3035
0.115544 -0.230159 1.19458
0.205915 -0.230057 1.22993
0.187721 -0.229804 1.21353
0.189187 -0.2296 1.20617
0.274636 -0.229397 1.24081
0.417546 -0.229093 1.30591
0.162024 -0.228891 1.17008
0.227552 -0.22869 1.19479
0.0894771 -0.228489 1.11771
0.0769156 -0.228348 1.10238
0.245571 -0.228149 1.17868
0.153685 -0.227951 1.12471
0.0234192 -0.227654 1.05328
0.0341064 -0.227457 1.05061
0.275685 -0.227261 1.1634
0.123611 -0.227065 1.07938
0.207776 -0.22687 1.11348
0.227325 -0.226676 1.11528
0.103971 -0.226545 1.04452
0.126776 -0.226353 1.04796
0.0299738 -0.226161 0.991601
0.254473 -0.225969 1.0959
0.103119 -0.225778 1.01228
0.234586 -0.225493 1.07178
-0.10328 -0.225304 0.894919
0.0128411 -0.225116 0.945059
0.0820733 -0.224928 0.97176
0.136755 -0.224741 0.991193
0.145861 -0.224715 0.98492
0.123288 -0.224529 0.96573
-0.0252353 -0.224252 0.88526
0.113582 -0.224068 0.946776
0.105957 -0.223884 0.935078
-0.0553929 -0.223701 0.846522
0.02133 -0.223519 0.877009
0.117989 -0.223338 0.917468
0.110164 -0.223157 0.905692
0.0223653 -0.222977 0.853933
0.0076554 -0.222798 0.838724
0.0487482 -0.222619 0.851421
-0.0247926 -0.222603 0.803771
0.0090209 -0.222426 0.81283
0.00148182 -0.222249 0.801217
0.0808457 -0.222074 0.833059
0.0447306 -0.221899 0.807166
0.0162161 -0.221724 0.785077
0.0271486 -0.221551 0.782715
-0.0460637 -0.221378 0.738284
-0.0587723 -0.221206 0.724109
-0.0871013 -0.221035 0.702126
0.00238714 -0.220949 0.737411
-0.053925 -0.220779 0.701445
-0.163728 -0.220609 0.638737
0.134837 -0.220441 0.780216
0.130581 -0.220273 0.770286
0.0694348 -0.220184 0.730384
0.00635534 -0.2201 0.689409
-0.0462349 -0.219934 0.655312
0.224551 -0.219769 0.782904
0.00821117 -0.219605 0.666935
0.0184089 -0.219442 0.664236
0.0668793 -0.219279 0.680675
0.0300142 -0.219117 0.654447
0.0518681 -0.218955 0.65758
-0.144244 -0.218875 0.550127
-0.0311477 -0.218715 0.598886
0.0352415 -0.218556 0.624292
0.126395 -0.218397 0.66208
0.0292835 -0.218239 0.605736
0.0849601 -0.218161 0.624198
-0.165245 -0.218004 0.49131
-0.0349032 -0.217849 0.548696
-0.0339266 -0.217694 0.541399
0.00975677 -0.217539 0.555455
-0.0543602 -0.217386 0.515609
-0.0454542 -0.21731 0.510707
0.0374801 -0.217157 0.54439
-0.068334 -0.217006 0.483696
-0.11007 -0.216855 0.45504
-0.109514 -0.21678 0.445977
-0.0833028 -0.216631 0.451296
-0.167461 -0.216483 0.401428
-0.0807506 -0.216335 0.436992
0.0146089 -0.216348 0.473525
-0.0410231 -0.216202 0.437908
-0.138885 -0.216056 0.381173
-0.158921 -0.215912 0.363349
0.037747 -0.21584 0.452355
-0.0828169 -0.215696 0.384266
-0.0293117 -0.215554 0.403208
0.0716799 -0.215412 0.44589
-0.201742 -0.215342 0.29986
0.0271345 -0.215201 0.406482
-0.0605668 -0.215062 0.354812
0.00612741 -0.214923 0.380335
-0.109559 -0.214854 0.313179
-0.149169 -0.214717 0.285548
-0.0303078 -0.21458 0.337146
-0.196651 -0.214512 0.244667
-0.00710431 -0.214377 0.331605
0.0795963 -0.214242 0.367115
-0.0962028 -0.214109 0.27137
0.0526795 -0.214042 0.336508
0.0736762 -0.21391 0.339156
-0.154813 -0.213778 0.217056
0.0127942 -0.213713 0.291559
0.050082 -0.213583 0.302342
-0.0420914 -0.213453 0.248387
-0.165075 -0.213389 0.177597
-0.0419434 -0.213261 0.231289
-0.110774 -0.213134 0.188993
-0.00589385 -0.212915 0.235628
-0.0913006 -0.212852 0.183635
-0.0509264 -0.212726 0.195938
-0.0764316 -0.212602 0.175293
0.00405476 -0.21254 0.206247
-0.0746514 -0.212417 0.158993
-0.18511 -0.212295 0.095856
-0.160251 -0.212235 0.0989953
-0.0259328 -0.212114 0.158237
-0.195898 -0.211994 0.0653295
0.0784449 -0.211934 0.19321
-0.319863 -0.211816 -0.0138795
-0.0851372 -0.211698 0.0955396
-0.0489709 -0.21164 0.10433
-0.0953672 -0.211524 0.073177
-0.0890735 -0.211408 0.0683602
-0.0707907 -0.211351 0.0682056
-0.010894 -0.211237 0.090179
-0.12652 -0.21118 0.0230684
-0.0549271 -0.211068 0.0508783
-0.156704 -0.210956 -0.00800669
0.0563525 -0.210901 0.0892199
0.11791 -0.21079 0.111989
2.64287 -0.295508 4.45955
2.49379 -0.294595 4.37504
2.39965 -0.294114 4.31532
2.55795 -0.293562 4.38233
2.50959 -0.293226 4.34466
2.39879 -0.29288 4.27588
2.55207 -0.292566 4.33896
2.40398 -0.292325 4.2509
2.63479 -0.292033 4.35267
2.2812 -0.291804 4.16183
2.43971 -0.291581 4.22703
2.47516 -0.291389 4.2305
2.43744 -0.291177 4.19756
2.34595 -0.29097 4.13772
2.38435 -0.290799 4.14258
2.36882 -0.290655 4.12031
2.50634 -0.290463 4.17492
2.46849 -0.290278 4.14183
2.50608 -0.290138 4.14614
2.56625 -0.289961 4.16202
2.44603 -0.289819 4.08748
2.3402 -0.289655 4.0203
2.43103 -0.289506 4.05137
2.50057 -0.289361 4.07178
2.41642 -0.289204 4.01545
2.51273 -0.289065 4.04922
2.35836 -0.288913 3.95776
2.34789 -0.288743 3.93842
2.54426 -0.288635 4.02202
2.43888 -0.288458 3.95531
2.33972 -0.28832 3.89143
2.46691 -0.288181 3.94073
2.51656 -0.288043 3.95127
2.41739 -0.287864 3.88775
2.30411 -0.287727 3.81685
2.55724 -0.287589 3.92918
2.40437 -0.2874 3.83895
2.41941 -0.287261 3.83226
2.42786 -0.287122 3.82231
2.59397 -0.286983 3.8912
2.44548 -0.286815 3.80305
2.60837 -0.286677 3.87036
2.46132 -0.286481 3.7832
2.45604 -0.28634 3.76647
2.32116 -0.28614 3.68547
2.29372 -0.285998 3.65771
2.36044 -0.285795 3.67758
2.38161 -0.285651 3.67417
2.50578 -0.285443 3.72285
2.53564 -0.285297 3.72384
2.47498 -0.285041 3.68057
2.31659 -0.284825 3.5881
2.51443 -0.284607 3.67379
2.35234 -0.284454 3.57895
2.42998 -0.284232 3.60463
2.31384 -0.283957 3.53391
2.39159 -0.283729 3.55975
2.34004 -0.283498 3.52098
2.39693 -0.283142 3.53763
2.29733 -0.282976 3.47428
2.31745 -0.282613 3.47269
2.34122 -0.282245 3.473
2.34969 -0.281998 3.46454
2.2334 -0.281622 3.39496
2.2439 -0.281243 3.38886
2.30041 -0.280659 3.40781
2.45414 -0.280272 3.47348
2.26791 -0.27968 3.37125
2.5913 -0.279084 3.52394
2.326 -0.278485 3.38236
2.18765 -0.277681 3.3064
2.07814 -0.276873 3.24496
2.26851 -0.275984 3.33438
2.21031 -0.274961 3.30098
2.12422 -0.273996 3.25314
1.88466 -0.27318 3.12714
2.00386 -0.272366 3.18059
1.94714 -0.271553 3.14615
1.92546 -0.270743 3.12929
1.80683 -0.270076 3.06253
1.8795 -0.269374 3.09187
2.02329 -0.26871 3.15644
1.96613 -0.268151 3.11949
1.70295 -0.267454 2.98106
1.62413 -0.266792 2.93451
1.69143 -0.266235 2.95994
1.72659 -0.265575 2.9705
1.86501 -0.26502 3.0316
1.74121 -0.264333 2.96311
1.67002 -0.26378 2.91951
1.74836 -0.263229 2.95072
1.59913 -0.262678 2.8682
1.52231 -0.262128 2.82192
1.57763 -0.26158 2.84177
1.56774 -0.261032 2.82906
1.47757 -0.260507 2.77601
1.60523 -0.25996 2.83218
1.5029 -0.259434 2.77317
1.41314 -0.258908 2.7205
1.61984 -0.258429 2.81558
1.48146 -0.257904 2.73871
1.5371 -0.257378 2.7589
1.58384 -0.256852 2.77471
1.46814 -0.256397 2.70851
1.48397 -0.255871 2.70897
1.40206 -0.255421 2.65971
1.51767 -0.254895 2.71018
1.55252 -0.25446 2.7192
1.3337 -0.253934 2.60256
1.31413 -0.253501 2.58447
1.48049 -0.252974 2.66052
1.26043 -0.252542 2.54227
1.24378 -0.252015 2.52693
1.21815 -0.251584 2.50597
1.31228 -0.251154 2.54493
1.23247 -0.250627 2.49817
1.13925 -0.250198 2.44354
1.32542 -0.249771 2.52863
1.0383 -0.249344 2.37712
1.06233 -0.248922 2.38116
1.30168 -0.248394 2.49424
1.21992 -0.247969 2.44553
1.17504 -0.247547 2.41526
1.27502 -0.247122 2.4575
1.19418 -0.246594 2.4107
1.06418 -0.246276 2.33667
1.09808 -0.245748 2.34734
1.00982 -0.245325 2.29562
1.0654 -0.244903 2.31586
1.13799 -0.244481 2.34464
0.921667 -0.244059 2.22902
1.00334 -0.243638 2.26241
0.946036 -0.243216 2.22639
0.84134 -0.242796 2.16668
1.17352 -0.242373 2.3255
0.893336 -0.242061 2.17669
0.856685 -0.241532 2.15261
0.891768 -0.241215 2.16157
0.989303 -0.240692 2.20461
1.11981 -0.240268 2.26282
0.880218 -0.239958 2.13447
0.849367 -0.239429 2.11355
0.716305 -0.239119 2.03853
0.916474 -0.238696 2.13175
0.871428 -0.238273 2.1024
0.941236 -0.237858 2.1304
0.746161 -0.237435 2.02613
0.80564 -0.237011 2.04919
0.859773 -0.236704 2.06797
0.686053 -0.23628 1.97451
0.741274 -0.235751 1.99708
0.709938 -0.235444 1.97323
0.614599 -0.23502 1.9191
0.670378 -0.234596 1.94057
0.6751 -0.234291 1.93484
0.745046 -0.233867 1.96348
0.70747 -0.233443 1.93841
0.716711 -0.233019 1.93679
0.856592 -0.232715 1.99878
0.771759 -0.232273 1.95046
0.567235 -0.231815 1.8426
0.643196 -0.231472 1.87331
0.744766 -0.231146 1.91662
0.556184 -0.230691 1.81681
0.717003 -0.230351 1.89002
0.522562 -0.229898 1.78734
0.659546 -0.229691 1.8467
0.677288 -0.229353 1.84844
0.60341 -0.228904 1.80612
0.537385 -0.228568 1.76603
0.54288 -0.228344 1.76002
0.562518 -0.22792 1.76418
0.406746 -0.227587 1.67929
0.503824 -0.227255 1.72084
0.361484 -0.226923 1.64271
0.429082 -0.226702 1.66784
0.504896 -0.226397 1.69843
0.497085 -0.226068 1.68762
0.602776 -0.22574 1.73358
0.441081 -0.225413 1.64587
0.499873 -0.225195 1.66669
0.485979 -0.224898 1.65247
0.510523 -0.224574 1.65793
0.354096 -0.22425 1.57292
0.350964 -0.223928 1.56458
0.239509 -0.223606 1.5021
0.433209 -0.223424 1.58997
0.525987 -0.223211 1.6279
0.247131 -0.222892 1.48177
0.472012 -0.222574 1.58752
0.230027 -0.222257 1.45985
0.148698 -0.222046 1.4108
0.328012 -0.221836 1.49208
0.316157 -0.221557 1.47894
0.268289 -0.221348 1.44666
0.25565 -0.221036 1.43374
0.316972 -0.220724 1.45782
0.155761 -0.220517 1.36891
0.18438 -0.220208 1.37667
0.341035 -0.220041 1.44606
0.0503166 -0.219836 1.29243
0.262833 -0.219529 1.39217
0.239493 -0.219326 1.37226
0.307504 -0.219021 1.39978
0.379514 -0.218819 1.42757
0.35625 -0.218617 1.40774
0.306207 -0.218458 1.37379
0.196476 -0.218157 1.31248
0.186363 -0.217957 1.29926
0.321659 -0.217758 1.35875
0.172596 -0.21746 1.27781
0.242 -0.217262 1.30438
0.236363 -0.216966 1.29517
0.0601153 -0.216769 1.19894
0.207946 -0.216619 1.26393
0.244066 -0.216424 1.2739
0.129364 -0.216229 1.20846
0.0795339 -0.216035 1.17548
0.165097 -0.215745 1.21193
0.0975574 -0.215552 1.17011
0.178554 -0.21536 1.20257
0.295432 -0.215168 1.25297
0.260828 -0.214882 1.22938
0.0654294 -0.214837 1.12102
0.174461 -0.214553 1.16926
0.0384603 -0.214364 1.09326
0.199242 -0.214176 1.16566
0.175512 -0.213989 1.14581
-0.0294733 -0.213802 1.03535
-0.0499866 -0.213615 1.01713
-0.0327796 -0.213337 1.0195
0.193695 -0.213152 1.12479
0.0430892 -0.212968 1.04155
0.201807 -0.212931 1.11023
0.195964 -0.212656 1.1011
0.0732708 -0.212474 1.03183
0.207672 -0.212293 1.09112
0.156071 -0.212112 1.05741
0.201932 -0.211932 1.07244
0.226564 -0.211752 1.07687
0.0413511 -0.211573 0.976375
-0.0213119 -0.211394 0.937166
0.0327061 -0.211217 0.956305
0.314097 -0.21104 1.08914
0.025714 -0.210863 0.937087
-0.0597943 -0.210747 0.885323
-0.0549713 -0.210572 0.879881
0.0256955 -0.210398 0.912366
0.0798067 -0.210224 0.93158
0.091944 -0.210051 0.929812
-0.00376886 -0.209879 0.874125
0.0882303 -0.209708 0.912299
0.0334859 -0.209537 0.877106
-0.02892 -0.209366 0.838088
-0.0687322 -0.209197 0.810371
-0.118177 -0.209028 0.777843
-0.0270623 -0.208944 0.813921
-0.0312481 -0.208776 0.804034
-0.0897573 -0.208609 0.766989
0.0473811 -0.208442 0.827772
0.0696632 -0.208341 0.829815
-0.154255 -0.208176 0.710068
0.0872101 -0.208012 0.823016
-0.00657621 -0.207849 0.768342
-0.0630155 -0.207767 0.730686
-0.106234 -0.207605 0.701305
0.0777209 -0.207443 0.785514
-0.212628 -0.207282 0.632573
-0.126935 -0.207122 0.667656
-0.0425841 -0.206962 0.702071
-0.14494 -0.206803 0.643134
-0.0501269 -0.206645 0.682784
0.114416 -0.206566 0.755663
0.0521083 -0.206409 0.71676
0.0036711 -0.206253 0.684793
-0.194041 -0.206097 0.578191
-0.0739584 -0.205942 0.630487
-0.104046 -0.205788 0.607699
-0.125601 -0.205711 0.587558
-0.0105383 -0.205558 0.637351
-0.0373851 -0.205477 0.61467
0.0329983 -0.205326 0.642115
-0.138473 -0.20525 0.547026
-0.142269 -0.2051 0.537385
0.111806 -0.204951 0.65668
0.0447825 -0.204802 0.615426
-0.0750845 -0.204654 0.547749
-0.0643627 -0.20458 0.543777
0.172665 -0.204433 0.654551
0.0309979 -0.204287 0.575977
0.0217365 -0.204142 0.563604
0.112037 -0.20407 0.599435
-0.18456 -0.203925 0.443397
-0.00212035 -0.203782 0.526876
0.00363827 -0.203639 0.522013
-0.0575713 -0.203568 0.482101
-0.144609 -0.203427 0.430841
-0.184035 -0.203286 0.403385
-0.243799 -0.203146 0.365757
-0.12354 -0.203076 0.416591
-0.143639 -0.202938 0.398796
-0.163666 -0.2028 0.381034
0.10982 -0.202662 0.510025
-0.0146955 -0.202594 0.438482
-0.0532309 -0.202458 0.411462
0.0121102 -0.202323 0.436376
-0.177184 -0.202188 0.33397
-0.140412 -0.202121 0.343079
-0.113635 -0.201988 0.348706
-0.0308024 -0.201856 0.382357
-0.03896 -0.20179 0.369006
-0.246463 -0.201659 0.257487
0.0861148 -0.201528 0.416003
-0.04643 -0.201399 0.341953
-0.189967 -0.201334 0.260919
-0.0654401 -0.201206 0.315401
-0.0654447 -0.201078 0.307612
-0.0601261 -0.201015 0.301009
-0.068223 -0.200888 0.28917
-0.0951785 -0.200763 0.267895
-0.0606253 -0.2007 0.275913
-0.168027 -0.200576 0.21441
0.0162249 -0.200452 0.298727
-0.100063 -0.200391 0.231327
-0.255153 -0.200269 0.145967
-0.044665 -0.200147 0.24339
-0.186342 -0.200087 0.163296
-0.161519 -0.199967 0.16788
-0.00976519 -0.199847 0.235921
0.0229197 -0.199788 0.243009
-0.0732765 -0.19967 0.187068
-0.0814037 -0.199553 0.175154
-0.159951 -0.199494 0.126626
-0.150607 -0.199378 0.123438
-0.0772634 -0.199263 0.152243
-0.252219 -0.199206 0.0555098
-0.199537 -0.199092 0.073974
-0.187858 -0.199036 0.0705587
0.0298427 -0.198923 0.171522
-0.0663819 -0.198811 0.115515
-0.0879849 -0.198756 0.0954557
0.0175209 -0.198645 0.140303
-0.163332 -0.198536 0.0419608
-0.0536996 -0.198481 0.0875169
-0.171486 -0.198373 0.0206969
-0.0981605 -0.198266 0.0494231
-0.189145 -0.198212 -0.00533288
-0.241878 -0.198106 -0.0396479
-0.376744 -0.198053 -0.116347
-0.0364088 -0.197948 0.0458593
2.58892 -0.276582 4.4514
2.53977 -0.275845 4.41603
2.57455 -0.275522 4.41989
2.52478 -0.275114 4.38211
2.74161 -0.274793 4.47706
2.3421 -0.274499 4.2637
2.45132 -0.274278 4.30422
2.47246 -0.274003 4.30112
2.45584 -0.273793 4.2787
2.52783 -0.27354 4.30091
2.29183 -0.273408 4.16829
2.31663 -0.273174 4.16682
2.57471 -0.272988 4.28167
2.54821 -0.27286 4.25382
2.60055 -0.272681 4.26578
2.48405 -0.272535 4.1931
2.30865 -0.272368 4.09114
2.30328 -0.272245 4.07389
2.43559 -0.272087 4.12575
2.42203 -0.271965 4.10442
2.33251 -0.271815 4.04534
2.46734 -0.271686 4.09829
2.44055 -0.271562 4.0704
2.40711 -0.271434 4.03923
2.61082 -0.271295 4.12675
2.44624 -0.271172 4.03
2.38005 -0.271039 3.98255
2.39899 -0.270917 3.97758
2.40049 -0.270793 3.96392
2.35595 -0.270674 3.92721
2.48247 -0.270555 3.97606
2.20847 -0.270393 3.82501
2.39538 -0.270315 3.90373
2.40915 -0.270163 3.89652
2.4382 -0.270044 3.89668
2.39008 -0.269879 3.85867
2.45246 -0.269805 3.87514
2.41582 -0.26966 3.84272
2.47024 -0.269541 3.85562
2.52172 -0.269421 3.86707
2.40926 -0.269251 3.79702
2.47012 -0.26913 3.8132
2.38223 -0.269008 3.75503
2.46386 -0.268885 3.78165
2.35982 -0.268746 3.71559
2.51551 -0.268623 3.77926
2.44443 -0.268444 3.73008
2.5139 -0.268319 3.7507
2.34841 -0.268135 3.6544
2.4318 -0.268007 3.68203
2.16572 -0.267878 3.53495
2.42812 -0.267688 3.65271
2.48222 -0.267556 3.66579
2.60365 -0.267362 3.71315
2.53074 -0.267227 3.66279
2.51722 -0.267027 3.64276
2.4783 -0.266888 3.60946
2.35134 -0.266683 3.53281
2.34109 -0.266422 3.5151
2.49916 -0.266211 3.58108
2.32647 -0.266063 3.48106
2.51484 -0.265793 3.56283
2.32922 -0.265504 3.45783
2.53005 -0.265297 3.54525
2.41288 -0.264999 3.47461
2.32508 -0.264646 3.41929
2.39556 -0.264289 3.44317
2.4569 -0.263929 3.46256
2.50491 -0.263566 3.47537
2.37125 -0.263005 3.39947
2.28359 -0.262441 3.34666
2.17126 -0.261682 3.28368
2.32356 -0.260921 3.35311
2.22445 -0.259968 3.29901
2.37099 -0.259016 3.36784
2.12335 -0.25784 3.24212
2.04865 -0.256834 3.20114
2.02074 -0.256066 3.18104
1.9894 -0.255163 3.16083
1.94932 -0.254398 3.13479
1.8895 -0.253672 3.09853
1.99543 -0.253009 3.14453
1.88891 -0.252249 3.08548
1.85681 -0.251623 3.06218
1.93954 -0.250965 3.09675
1.75472 -0.250342 2.99722
1.69808 -0.249687 2.96221
1.93532 -0.249164 3.07269
1.77524 -0.248543 2.9857
1.78896 -0.248021 2.98453
1.83985 -0.2475 3.002
1.69252 -0.246881 2.92157
1.72555 -0.246361 2.93021
1.72322 -0.245843 2.92121
1.82304 -0.245324 2.96335
1.59116 -0.244807 2.83968
1.7094 -0.244291 2.89112
1.46311 -0.243775 2.76035
1.644 -0.24326 2.84322
1.4954 -0.242746 2.76138
1.52229 -0.242233 2.76734
1.68164 -0.24174 2.83935
1.56222 -0.241246 2.77203
1.56567 -0.240815 2.76542
1.41674 -0.240305 2.68366
1.39371 -0.239827 2.6645
1.67734 -0.239333 2.79893
1.28429 -0.238906 2.59422
1.25205 -0.238412 2.57083
1.50832 -0.237989 2.69083
1.17051 -0.237508 2.51459
1.32732 -0.237087 2.58493
1.2084 -0.23668 2.51728
1.24899 -0.236185 2.53057
1.38867 -0.235779 2.5923
1.33807 -0.235285 2.56011
1.24663 -0.23488 2.50636
1.29623 -0.234476 2.52316
1.18344 -0.233981 2.46004
1.28877 -0.233578 2.50479
1.17801 -0.233176 2.44153
1.31718 -0.232687 2.50447
1.2196 -0.232285 2.4479
1.08276 -0.231884 2.37173
1.0247 -0.231484 2.33498
1.13205 -0.230992 2.38225
1.01316 -0.230592 2.31519
0.988567 -0.230196 2.29527
1.13097 -0.229797 2.35892
0.998272 -0.229399 2.28506
1.16073 -0.229002 2.35881
0.885149 -0.228506 2.21498
1.08222 -0.228209 2.30472
