ply
format ascii 1.0
comment Created by Open3D
element vertex 1865
property double x
property double y
property double z
end_header
-3.31939 0.472622 2.01363
-3.35923 0.472381 1.98615
-3.35689 0.472274 1.97939
-3.26032 0.472082 2.01999
-3.3131 0.471993 1.98563
-3.28788 0.471852 1.99041
-3.33546 0.471786 1.95859
-3.29364 0.471732 1.97143
-3.35312 0.471643 1.93373
-3.27295 0.471612 1.96568
-3.41609 0.471575 1.886
-3.24608 0.471568 1.96281
-3.26909 0.471564 1.94309
-3.26701 0.471573 1.93588
-3.25612 0.471613 1.93298
-3.24017 0.471645 1.93264
-3.3146 0.471728 1.88694
-3.26459 0.471783 1.90355
-3.30091 0.471917 1.87675
-3.24037 0.471995 1.89854
-3.23715 0.47217 1.89137
-3.25342 0.472271 1.87468
-3.24888 0.472495 1.86801
-3.20208 0.472748 1.88236
-3.16807 0.473027 1.89022
-3.21396 0.473178 1.85854
-3.22546 0.473502 1.84348
-3.20211 0.473853 1.84575
-3.20698 0.474231 1.83381
-3.13328 0.474632 1.86106
-3.19174 0.47506 1.82213
-3.20469 0.475747 1.80508
-3.17138 0.476485 1.81095
-3.11297 0.477003 1.83009
-3.05604 0.478099 1.84652
-3.14895 0.478965 1.78877
-3.10006 0.480805 1.79854
-3.22118 0.49753 2.23328
-3.25604 0.495072 2.2131
-3.25609 0.493336 2.20871
-3.19702 0.49231 2.23225
-3.25256 0.490995 2.19921
-3.24822 0.490333 2.19459
-3.26476 0.489399 2.1802
-3.2699 0.488781 2.17078
-3.32187 0.48818 2.13792
-3.25825 0.487596 2.16284
-3.225 0.487039 2.17253
-3.31879 0.486502 2.11866
-3.34885 0.485986 2.09662
-3.31667 0.485728 2.10506
-3.2923 0.485238 2.1102
-3.26079 0.484779 2.11885
-3.29248 0.484559 2.0953
-3.30127 0.48413 2.08374
-3.32058 0.483741 2.06684
-3.22429 0.483539 2.10726
-3.34849 0.48319 2.03782
-3.23863 0.483016 2.08496
-3.33933 0.482855 2.0268
-3.24538 0.482549 2.06635
-3.31511 0.48241 2.02362
-3.35882 0.482149 1.99424
-3.38588 0.482032 1.9728
-3.29246 0.481822 2.01186
-3.37198 0.481728 1.96413
-3.2796 0.481636 2.00235
-3.28642 0.481487 1.99113
-3.28547 0.481424 1.98355
-3.32539 0.481317 1.95568
-3.34136 0.481278 1.93958
-3.31819 0.481229 1.94309
-3.36491 0.481209 1.91156
-3.25333 0.481196 1.95917
-3.36001 0.481197 1.8976
-3.26265 0.481222 1.93799
-3.2665 0.481247 1.92776
-3.3012 0.481315 1.90198
-3.2661 0.481364 1.91117
-3.23313 0.481484 1.91906
-3.22253 0.481556 1.91591
-3.26944 0.481719 1.88373
-3.25321 0.481814 1.88332
-3.28362 0.482027 1.85922
-3.24195 0.482271 1.87106
-3.24811 0.4824 1.85933
-3.32855 0.482687 1.80996
-3.25458 0.483004 1.83769
-3.20078 0.483349 1.85524
-3.20111 0.483721 1.84562
-3.20166 0.484115 1.8358
-3.19037 0.48454 1.8318
-3.18204 0.484989 1.82621
-3.21236 0.485708 1.80041
-3.16351 0.486216 1.81487
-3.17359 0.487013 1.79887
-3.18236 0.487859 1.78335
-3.14618 0.489357 1.78809
-2.97596 0.491606 1.85726
-3.1227 0.506428 2.28491
-3.19952 0.504284 2.24294
-3.20919 0.502873 2.23292
-3.19408 0.501833 2.23447
-3.21284 0.500824 2.21905
-3.1613 0.499843 2.23875
-3.28964 0.499196 2.16775
-3.1827 0.498565 2.21437
-3.32676 0.497673 2.13613
-3.31471 0.497086 2.13525
-3.30483 0.496528 2.13322
-3.30454 0.49624 2.12577
-3.28563 0.495713 2.12821
-3.26726 0.495209 2.13035
-3.32217 0.494958 2.09523
-3.30422 0.49449 2.0971
-3.31603 0.494047 2.08404
-3.36293 0.493827 2.05288
-3.2733 0.493423 2.09046
-3.29349 0.493224 2.07262
-3.23294 0.492861 2.09558
-3.36605 0.492534 2.02163
-3.24851 0.492363 2.0726
-3.22464 0.492214 2.07668
-3.29506 0.491938 2.03397
-3.36324 0.491804 1.992
-3.29393 0.491581 2.01902
-3.28586 0.491471 2.01512
-3.2789 0.491375 2.01063
-3.3001 0.491201 1.99228
-3.37087 0.491129 1.94887
-3.26823 0.491009 1.9923
-3.32192 0.490955 1.95738
-3.29243 0.49089 1.96409
-3.31545 0.49086 1.94444
-3.25204 0.490838 1.96798
-3.36176 0.490831 1.90492
-3.32202 0.490841 1.91654
-3.25805 0.490858 1.94025
-3.28926 0.49091 1.91627
-3.27175 0.490952 1.91668
-3.30239 0.491059 1.89282
-3.17669 0.491124 1.94725
-3.22447 0.491274 1.91468
-3.31068 0.491363 1.86308
-3.23189 0.491565 1.89363
-3.27431 0.491678 1.86384
-3.25833 0.491921 1.86285
-3.23451 0.4922 1.86566
-3.23655 0.49235 1.85593
-3.18754 0.492673 1.87118
-3.17126 0.493024 1.86997
-3.16758 0.493399 1.86237
-3.18226 0.493806 1.84548
-3.22857 0.494239 1.81267
-3.1882 0.494936 1.82235
-3.13553 0.495431 1.8388
-3.09805 0.496211 1.84672
-3.15458 0.497044 1.80744
-3.08463 0.497921 1.83122
-3.12635 0.499469 1.79693
-3.27874 0.515651 2.20847
-3.17443 0.513833 2.25625
-3.27773 0.512401 2.1994
-3.25202 0.511347 2.20625
-3.24706 0.510327 2.20267
-3.24772 0.509336 2.19625
-3.26001 0.508684 2.18326
-3.2539 0.508049 2.17945
-3.33019 0.507441 2.1344
-3.30372 0.506842 2.14072
-3.28349 0.506273 2.14388
-3.30087 0.505716 2.12821
-3.33773 0.5052 2.10273
-3.29781 0.504937 2.11503
-3.26249 0.504438 2.12562
-3.38426 0.503982 2.05758
-3.29666 0.503742 2.0937
-3.3094 0.503317 2.08013
-3.23562 0.503114 2.10926
-3.331 0.502722 2.0543
-3.29378 0.50254 2.06512
-3.35319 0.502199 2.02804
-3.29873 0.502032 2.04745
-3.4422 0.501736 1.96824
-3.34409 0.501599 2.00941
-3.24895 0.501349 2.04941
-3.25592 0.501228 2.038
-3.34644 0.501122 1.98479
-3.2807 0.500928 2.00996
-3.3111 0.500846 1.98675
-3.28349 0.500708 1.9927
-3.26873 0.500644 1.99203
-3.24144 0.500562 1.99767
-3.28625 0.500522 1.96716
-3.20954 0.500498 1.99735
-3.16984 0.500468 2.00907
-3.27084 0.500469 1.95034
-3.31893 0.500478 1.91805
-3.24945 0.500514 1.94446
-3.2966 0.500548 1.91256
-3.28945 0.50059 1.90779
-3.27521 0.500699 1.90637
-3.25988 0.500835 1.90542
-3.24536 0.500918 1.90421
-3.26731 0.501108 1.88444
-3.25961 0.501215 1.87974
-3.244 0.501447 1.87861
-3.24664 0.501577 1.86866
-3.19913 0.501861 1.88332
-3.26877 0.502176 1.8393
-3.29858 0.502514 1.81511
-3.19157 0.502887 1.85921
-3.13432 0.503288 1.87834
-3.21318 0.503716 1.82931
-3.15191 0.50417 1.85025
-3.13474 0.50465 1.84904
-3.18299 0.505411 1.81423
-3.15081 0.506228 1.81943
-3.12449 0.507092 1.82152
-3.07851 0.508312 1.83226
-3.04721 0.509931 1.83435
-3.14125 0.527457 2.28158
-3.16978 0.524851 2.26452
-3.25307 0.523361 2.21771
-3.16399 0.521919 2.25702
-3.28616 0.520852 2.18991
-3.27838 0.519822 2.18773
-3.26995 0.519142 2.18511
-3.32275 0.518178 2.15255
-3.34052 0.517538 2.13679
-3.37403 0.516917 2.11313
-3.22413 0.516327 2.18113
-3.25492 0.515758 2.15875
-3.29058 0.515461 2.13331
-3.26148 0.514925 2.14083
-3.38325 0.514414 2.07287
-3.29364 0.513927 2.11056
-3.29823 0.513684 2.10058
-3.32975 0.513237 2.07763
-3.27569 0.513014 2.09694
-3.27624 0.512608 2.0894
-3.29966 0.512407 2.06993
-3.32297 0.512045 2.05093
-3.24849 0.511875 2.08034
-3.30004 0.511548 2.04715
-3.2704 0.511401 2.0541
-3.2357 0.511131 2.0639
-3.19721 0.510998 2.07525
-3.26374 0.510784 2.03431
-3.32349 0.510668 1.99651
-3.28241 0.510577 2.00906
-3.28432 0.510419 2.00029
-3.24337 0.510353 2.01272
-3.31285 0.510245 1.97004
-3.30674 0.510195 1.965
-3.37757 0.510163 1.92145
-3.35844 0.510114 1.92293
-3.25815 0.510107 1.96487
-3.29834 0.510108 1.93655
-3.29459 0.510127 1.93015
-3.34115 0.510153 1.89858
-3.24381 0.510188 1.93892
-3.27048 0.510282 1.9171
-3.28958 0.510342 1.89915
-3.34798 0.510479 1.86133
-3.27661 0.510564 1.88854
-3.27449 0.510758 1.88081
-3.24552 0.510977 1.88642
-3.26295 0.511102 1.8691
-3.17712 0.511376 1.90297
-3.28812 0.511681 1.83832
-3.1865 0.51201 1.8799
-3.13806 0.512189 1.89533
-3.1825 0.512569 1.86371
-3.23788 0.512978 1.82652
-3.1596 0.513415 1.85607
-3.15794 0.513872 1.84722
-3.15308 0.514615 1.83908
-3.09922 0.515141 1.85608
-3.13631 0.515974 1.82664
-3.11705 0.517159 1.82425
-3.08991 0.518421 1.82552
-3.04081 0.520433 1.83535
-3.17851 0.536301 2.26531
-3.17075 0.534029 2.2656
-3.22757 0.532533 2.23198
-3.26186 0.531429 2.20882
-3.27238 0.53035 2.19753
-3.33162 0.529323 2.16179
-3.2473 0.528624 2.19714
-3.284 0.527966 2.1719
-3.30112 0.527314 2.15646
-3.26944 0.526401 2.16604
-3.23498 0.52608 2.17568
-3.29244 0.5255 2.13996
-3.23919 0.524932 2.1596
-3.27442 0.524409 2.1349
-3.24858 0.52413 2.14018
-3.33266 0.523634 2.09103
-3.30219 0.523176 2.09907
-3.26426 0.522931 2.11035
-3.31563 0.522503 2.07743
-3.3115 0.52229 2.07175
-3.25407 0.521906 2.09314
-3.29601 0.521725 2.06436
-3.25999 0.521387 2.07496
-3.31093 0.521219 2.04166
-3.25802 0.521069 2.06024
-3.31356 0.520784 2.02495
-3.22095 0.52055 2.06361
-3.27517 0.520431 2.02857
-3.32662 0.520321 1.9949
-3.27414 0.520143 2.01336
-3.29516 0.520067 1.99482
-3.31735 0.519991 1.9757
-3.31097 0.519881 1.97096
-3.39022 0.519839 1.92322
-3.27612 0.51978 1.9722
-3.28359 0.519755 1.96031
-3.35283 0.519748 1.91749
-3.34701 0.519749 1.91217
-3.12509 0.519768 2.01486
-3.28204 0.519794 1.92809
-3.23767 0.519874 1.94183
-3.25482 0.519926 1.92488
-3.29353 0.520048 1.89696
-3.31826 0.520126 1.87615
-3.30252 0.520307 1.87528
-3.25857 0.520513 1.88843
-3.25023 0.520633 1.88402
-3.28744 0.520896 1.85643
-3.13355 0.521039 1.92471
-3.22924 0.52135 1.86772
-3.1468 0.521685 1.89971
-3.2233 0.522057 1.85211
-3.24876 0.522459 1.82994
-3.13673 0.522889 1.87641
-3.16065 0.523341 1.85482
-3.23535 0.523826 1.80773
-3.12556 0.524603 1.85199
-3.1485 0.525151 1.83056
-3.12975 0.526016 1.82899
-3.09232 0.527244 1.83561
-3.11884 0.528541 1.81001
-3.09756 0.53097 1.80476
-3.14397 0.545106 2.28495
-3.19292 0.543551 2.25529
-3.27704 0.542048 2.20798
-3.28159 0.540931 2.19969
-3.28235 0.539853 2.19323
-3.34374 0.538806 2.15642
-3.32873 0.538114 2.15708
-3.34211 0.537439 2.14352
-3.2008 0.536784 2.20728
-3.23005 0.536161 2.18571
-3.30747 0.535547 2.14005
-3.31098 0.534968 2.13129
-3.28521 0.534675 2.13654
-3.2907 0.534132 2.12674
-3.21863 0.533603 2.1557
-3.33596 0.533123 2.08986
-3.33305 0.532876 2.08361
-3.31618 0.532427 2.08483
-3.27084 0.532201 2.09977
-3.41164 0.531795 2.02208
-3.27927 0.531592 2.08049
-3.27388 0.531232 2.0758
-3.33766 0.531052 2.03609
-3.24803 0.53075 2.0734
-3.27217 0.530584 2.0535
-3.34139 0.530448 2.01099
-3.33108 0.5302 2.00852
-3.29194 0.530089 2.02014
-3.18347 0.529891 2.06664
-3.31041 0.529795 1.99518
-3.37036 0.529718 1.95718
-3.30018 0.529579 1.9844
-3.3189 0.529527 1.96694
-3.32527 0.52945 1.95573
-3.32846 0.529415 1.946
-3.33046 0.529399 1.93683
-3.26901 0.529391 1.95935
-3.32916 0.529392 1.92105
-3.28296 0.529411 1.93588
-3.28335 0.529474 1.92729
-3.24376 0.529519 1.93874
-3.2964 0.529625 1.9039
-3.22224 0.529696 1.93256
-3.26622 0.529863 1.90188
-3.21493 0.529959 1.91902
-3.15854 0.530169 1.9384
-3.35161 0.53029 1.83329
-3.24604 0.530558 1.87708
-3.22724 0.53085 1.87741
-3.21865 0.531183 1.87251
-3.20188 0.531361 1.87213
-3.20532 0.53174 1.86106
-3.10882 0.53215 1.89986
-3.18403 0.53258 1.85273
-3.19717 0.533047 1.83652
-3.16058 0.533799 1.84432
-3.11532 0.534333 1.85707
-3.04995 0.535179 1.87893
-3.13517 0.53607 1.82534
-3.15213 0.53734 1.8047
-3.06156 0.538685 1.83757
-3.17557 0.557412 2.27272
-3.27637 0.554266 2.22029
-3.21639 0.552708 2.24506
-3.18 0.551555 2.25723
-3.27263 0.550425 2.20488
-3.2982 0.549337 2.18601
-3.27345 0.548616 2.19154
-3.24945 0.547586 2.19739
-3.23781 0.546908 2.19632
-3.18865 0.546264 2.21397
-3.27108 0.545627 2.16581
-3.26029 0.545026 2.16421
-3.2386 0.54472 2.16742
-3.33999 0.544142 2.10972
-3.35057 0.543602 2.09735
-3.39899 0.543329 2.06546
-3.24387 0.542829 2.13588
-3.30351 0.542357 2.09887
-3.31308 0.542119 2.08636
-3.42201 0.541691 2.02462
-3.36325 0.541476 2.04624
-3.26396 0.541093 2.08853
-3.38279 0.540902 2.02131
-3.36873 0.540579 2.02087
-3.33062 0.540412 2.03208
-3.31718 0.540253 2.03094
-3.35281 0.539984 2.00554
-3.26816 0.539862 2.03993
-3.19518 0.539644 2.06872
-3.35224 0.539537 1.98222
-3.28518 0.539449 2.00774
-3.26807 0.539289 2.00847
-3.26908 0.539228 1.99989
-3.36497 0.539132 1.94397
-3.3436 0.539087 1.94654
-3.30122 0.539055 1.95959
-3.28529 0.539036 1.95938
-3.23165 0.539027 1.978
-3.29842 0.539037 1.93637
-3.24758 0.539084 1.95344
-3.29026 0.53912 1.92378
-3.25907 0.53921 1.93091
-3.32069 0.539273 1.89171
-3.28807 0.539426 1.89937
-3.34281 0.539516 1.86353
-3.18595 0.539711 1.9332
-3.19983 0.539826 1.91771
-3.17872 0.540082 1.91932
-3.27228 0.540363 1.86352
-3.28897 0.54052 1.84649
-3.22918 0.540858 1.86719
-3.29867 0.541229 1.82315
-3.17286 0.541631 1.87666
-3.13701 0.542053 1.88512
-3.19439 0.542515 1.84683
-3.15035 0.543004 1.85917
-3.17549 0.54379 1.83603
-3.14359 0.544346 1.84207
-3.10577 0.545217 1.85012
-3.07776 0.546148 1.85307
-3.06469 0.547462 1.84738
-3.1046 0.549205 1.81389
-3.17402 0.565802 2.27663
-3.26506 0.5638 2.22668
-3.31923 0.56222 2.19437
-3.16652 0.561037 2.26472
-3.23647 0.559911 2.22367
-3.27394 0.558815 2.19883
-3.24836 0.558088 2.20477
-3.30854 0.557379 2.16781
-3.25036 0.556703 2.18999
-3.29447 0.556033 2.16102
-3.3047 0.555384 2.14897
-3.24669 0.554772 2.17099
-3.32475 0.554184 2.12492
-3.3436 0.553622 2.10844
-3.37335 0.553336 2.08589
-3.26881 0.5528 2.13107
-3.30572 0.552319 2.10541
-3.32632 0.552055 2.08743
-3.34879 0.551618 2.06892
-3.28637 0.55139 2.09238
-3.20608 0.550985 2.1252
-3.23651 0.550781 2.1022
-3.2946 0.550424 2.06573
-3.27873 0.550245 2.06584
-3.31831 0.550087 2.03818
-3.29494 0.549784 2.04234
-3.31595 0.549651 2.02391
-3.35782 0.549412 1.99532
-3.31902 0.549293 2.00677
-3.30768 0.549118 2.00463
-3.33014 0.549014 1.98543
-3.35619 0.548942 1.96435
-3.27758 0.548827 1.99572
-3.28773 0.548771 1.98256
-3.35251 0.548721 1.94207
-3.35699 0.548692 1.93167
-3.19875 0.548684 2.0026
-3.29592 0.548674 1.94581
-3.2955 0.548703 1.93772
-3.30992 0.548732 1.92221
-3.29836 0.548804 1.91958
-3.29141 0.54886 1.91468
-3.3362 0.548998 1.8837
-3.20937 0.54908 1.93867
-3.21655 0.54926 1.92637
-3.26961 0.549369 1.89131
-3.29778 0.549612 1.86834
-3.21055 0.54988 1.90299
-3.19466 0.550031 1.90228
-3.20703 0.55036 1.88695
-3.27975 0.550721 1.84135
-3.19214 0.551104 1.87583
-3.18932 0.551312 1.8684
-3.09847 0.551752 1.90433
-3.15878 0.552467 1.86389
-3.25629 0.552979 1.80541
-3.24652 0.55351 1.80049
-3.1194 0.554368 1.8533
-3.15948 0.555282 1.82232
-3.11258 0.556246 1.83466
-3.00334 0.557603 1.877
-3.05151 0.560141 1.83713
-3.26931 0.574952 2.23052
-3.17211 0.572925 2.27468
-3.19246 0.571706 2.25851
-3.20474 0.570527 2.24633
-3.21193 0.56939 2.23664
-3.2718 0.568286 2.20058
-3.27194 0.567555 2.19365
-3.23604 0.566842 2.20472
-3.23229 0.566149 2.19969
-3.29417 0.565492 2.16179
-3.29298 0.564843 2.15544
-3.22234 0.564248 2.18371
-3.33416 0.563937 2.12016
-3.28963 0.563349 2.13539
-3.35148 0.562804 2.09735
-3.25276 0.562526 2.13903
-3.31641 0.562023 2.10004
-3.34474 0.561549 2.07864
-3.34959 0.561309 2.06849
-3.26843 0.560882 2.10176
-3.36266 0.560665 2.04688
-3.31218 0.560286 2.06472
-3.31492 0.560094 2.05554
-3.39757 0.559778 2.0067
-3.33184 0.559599 2.03173
-3.37157 0.559455 2.00396
-3.31146 0.559194 2.0264
-3.32446 0.559063 2.01197
-3.26916 0.558869 2.03185
-3.34323 0.558765 1.98683
-3.3284 0.55867 1.98624
-3.303 0.558535 1.99104
-3.33241 0.55848 1.96824
-3.36633 0.5584 1.94325
-3.21581 0.55836 2.01038
-3.37079 0.558343 1.92472
-3.33845 0.558322 1.93271
-3.31456 0.558334 1.9364
-3.27114 0.558354 1.94984
-3.28465 0.558408 1.93472
-3.25385 0.558456 1.94178
-3.26544 0.558578 1.92744
-3.27472 0.558652 1.91438
-3.28521 0.558724 1.90072
-3.24528 0.558919 1.91194
-3.27062 0.559149 1.89043
-3.20406 0.559277 1.91514
-3.19443 0.559548 1.91099
-3.22617 0.559866 1.88603
-3.23855 0.560037 1.87113
-3.1828 0.560404 1.88976
-3.18961 0.560793 1.87704
-3.16533 0.561225 1.87974
-3.1382 0.561688 1.88376
-3.24745 0.56218 1.8195
-3.18691 0.562691 1.84007
-3.12816 0.563525 1.85882
-3.06801 0.564418 1.87808
-3.16489 0.565365 1.81865
-3.02261 0.566363 1.87863
-3.13762 0.568124 1.80775
-2.97679 0.571538 1.86999
-3.2195 0.586569 2.26061
-3.24983 0.58408 2.24178
-3.19196 0.582435 2.26547
-3.24163 0.581201 2.23464
-3.21589 0.580008 2.24146
-3.27467 0.578863 2.20596
-3.28414 0.578101 2.19437
-3.21231 0.577017 2.22412
-3.32492 0.576318 2.16088
-3.34139 0.575622 2.14573
-3.29333 0.574966 2.16279
-3.32218 0.574613 2.14078
-3.33123 0.573992 2.12923
-3.29466 0.573381 2.1405
-3.31728 0.572812 2.12209
-3.25734 0.572523 2.14439
-3.27667 0.571996 2.12757
-3.33013 0.571744 2.09311
-3.32824 0.571246 2.08686
-3.33312 0.570796 2.07714
-3.2787 0.570567 2.0966
-3.30985 0.57018 2.07362
-3.33114 0.56996 2.05521
-3.29029 0.569623 2.06815
-3.32384 0.569444 2.04353
-3.33777 0.569275 2.02871
-3.30745 0.568992 2.03627
-3.29058 0.568864 2.03677
-3.35679 0.568634 1.99596
-3.29187 0.568519 2.02046
-3.36985 0.568427 1.97345
-3.37379 0.568256 1.96365
-3.34737 0.568192 1.96879
-3.38949 0.568091 1.93974
-3.23055 0.568041 2.01111
-3.29346 0.56801 1.97151
-3.31643 0.567974 1.95189
-3.25257 0.567976 1.97558
-3.31787 0.567986 1.93469
-3.20985 0.568036 1.98035
-3.18516 0.568061 1.98441
-3.28343 0.568109 1.92692
-3.25492 0.568233 1.93264
-3.16045 0.568382 1.97127
-3.25664 0.568476 1.9147
-3.28602 0.568692 1.89122
-3.22363 0.568814 1.91387
-3.19541 0.569071 1.91907
-3.19632 0.56922 1.90999
-3.11432 0.569542 1.94189
-3.25122 0.569899 1.86425
-3.12511 0.570278 1.91804
-3.12566 0.570701 1.90838
-3.20689 0.571156 1.85827
-3.22723 0.571642 1.83852
-3.16613 0.572146 1.85942
-3.20393 0.572691 1.83074
-3.19537 0.57356 1.82434
-3.06386 0.574487 1.87922
-3.1069 0.575468 1.84666
-3.0743 0.576852 1.85075
-3.13841 0.578689 1.80519
-3.10661 0.595691 2.31861
-3.20819 0.593583 2.26336
-3.23509 0.59153 2.2454
-3.26099 0.590307 2.2264
-3.2235 0.589483 2.23835
-3.22675 0.58833 2.23059
-3.25604 0.587563 2.20909
-3.23849 0.586814 2.21099
-3.32841 0.585774 2.15977
-3.27978 0.585396 2.17651
-3.2596 0.584728 2.17962
-3.3613 0.584067 2.1218
-3.24527 0.583449 2.17277
-3.27203 0.582857 2.15232
-3.31551 0.582554 2.12291
-3.31991 0.581988 2.11361
-3.27678 0.581484 2.12796
-3.29988 0.581202 2.10873
-3.31082 0.580744 2.09597
-3.29462 0.580503 2.09632
-3.29553 0.580077 2.08853
-3.33134 0.57986 2.06284
-3.41685 0.579484 2.01266
-3.3473 0.579293 2.03961
-3.25673 0.579127 2.07701
-3.33422 0.578806 2.03075
-3.30541 0.578666 2.03722
-3.36865 0.578415 1.99794
-3.40971 0.578287 1.96946
-3.2999 0.578184 2.01638
-3.25291 0.577991 2.03208
-3.33169 0.577917 1.98464
-3.34766 0.577795 1.96871
-3.24942 0.577734 2.00975
-3.29868 0.577685 1.97701
-3.19007 0.577652 2.02316
-3.29262 0.577629 1.96372
-3.29814 0.57763 1.95273
-3.24468 0.577661 1.97117
-3.26523 0.577677 1.95262
-3.34678 0.577717 1.90353
-3.30104 0.577824 1.9179
-3.30678 0.577955 1.90648
-3.2954 0.578042 1.90373
-3.33112 0.578243 1.87713
-3.25175 0.578358 1.90829
-3.15894 0.578601 1.94584
-3.23538 0.578743 1.89902
-3.22014 0.579053 1.89759
-3.23707 0.579386 1.88002
-3.21513 0.579571 1.88226
-3.16551 0.579969 1.89778
-3.26222 0.580399 1.84003
-3.20576 0.580862 1.85877
-3.14965 0.581343 1.87727
-3.21103 0.581868 1.8369
-3.12211 0.58271 1.87081
-3.19348 0.583614 1.82438
-3.11007 0.584576 1.85516
-3.12423 0.585234 1.83796
-3.13337 0.586642 1.82119
-3.01062 0.588895 1.86798
-3.1861 0.607834 2.28325
-3.23715 0.604808 2.25485
-3.35041 0.602675 2.19375
-3.31822 0.601019 2.20454
-3.29384 0.599784 2.21066
-3.30155 0.598951 2.20001
-3.24605 0.597791 2.22161
-3.35151 0.59702 2.16201
-3.26787 0.596268 2.19694
-3.31343 0.595556 2.16722
-3.35775 0.594847 2.13812
-3.31274 0.594181 2.15363
-3.24571 0.593539 2.18012
-3.28276 0.592924 2.15453
-3.37604 0.59259 2.10027
-3.34313 0.592016 2.10961
-3.30491 0.591472 2.12156
-3.34601 0.591194 2.0933
-3.35007 0.590696 2.08404
-3.3642 0.590441 2.06924
-3.27081 0.589992 2.10862
-3.30097 0.589762 2.08577
-3.30841 0.589363 2.07465
-3.23711 0.589159 2.10249
-3.34325 0.58883 2.04189
-3.27373 0.588636 2.06883
-3.29583 0.588485 2.04987
-3.29811 0.588211 2.0411
-3.3485 0.588071 2.00798
-3.28874 0.58787 2.03008
-3.25311 0.587742 2.03995
-3.27068 0.587656 2.02313
-3.25971 0.587514 2.02071
-3.34413 0.587441 1.97044
-3.32934 0.587372 1.96976
-3.34527 0.587329 1.95368
-3.35054 0.587295 1.94289
-3.26171 0.587286 1.9791
-3.27582 0.587299 1.96379
-3.27479 0.587304 1.95607
-3.31069 0.587335 1.92982
-3.32862 0.587425 1.91241
-3.33434 0.587538 1.90105
-3.31512 0.587617 1.90224
-3.28082 0.587705 1.91095
-3.1804 0.58791 1.95241
-3.17032 0.588011 1.94897
-3.25402 0.588272 1.89823
-3.26641 0.58857 1.88304
-3.14362 0.588889 1.93538
-3.23642 0.589069 1.88028
-3.22458 0.589456 1.87696
-3.23078 0.589877 1.86452
-3.15783 0.590331 1.89156
-3.1823 0.590804 1.86982
-3.18992 0.591322 1.85638
-3.15082 0.591871 1.8662
-3.16683 0.592748 1.84759
-3.1114 0.593674 1.86453
-3.09162 0.594332 1.86435
-3.11255 0.595719 1.84183
-3.1398 0.597191 1.81588
-3.03409 0.599935 1.85292
-3.17289 0.616521 2.29218
-3.27307 0.613903 2.23839
-3.19939 0.612152 2.27001
-3.27061 0.6105 2.22904
-3.25781 0.609254 2.22936
-3.34368 0.608414 2.17961
-3.29549 0.607632 2.19681
-3.27474 0.606472 2.20103
-3.28076 0.605738 2.19108
-3.28706 0.605005 2.18101
-3.3286 0.604316 2.15325
-3.36678 0.603631 2.12719
-3.30034 0.603289 2.15277
-3.29002 0.602664 2.15086
-3.31721 0.602047 2.13021
-3.20787 0.60176 2.17716
-3.36585 0.601188 2.09104
-3.29294 0.600666 2.12029
-3.28847 0.600398 2.1148
-3.3085 0.599925 2.0975
-3.2925 0.599682 2.09774
-3.41313 0.599259 2.03005
-3.34627 0.599043 2.05568
-3.28409 0.598691 2.07927
-3.31527 0.598501 2.05584
-3.28745 0.598321 2.06189
-3.34349 0.598024 2.02628
-3.25606 0.597871 2.06208
-3.36947 0.597649 1.99763
-3.24506 0.597525 2.05187
-3.3783 0.597411 1.97728
-3.26556 0.597247 2.02579
-3.24811 0.597179 2.02643
-3.36454 0.597074 1.96023
-3.23094 0.597018 2.01893
-3.31975 0.59699 1.96636
-3.25008 0.596947 1.99307
-3.31747 0.596948 1.95114
-3.3025 0.596959 1.95038
-3.27401 0.596964 1.95639
-3.29131 0.597036 1.93934
-3.21176 0.597147 1.97063
-3.28152 0.597201 1.92739
-3.28685 0.597281 1.9163
-3.22933 0.59747 1.93637
-3.21156 0.597681 1.93651
-3.27007 0.597809 1.8987
-3.12896 0.598093 1.96032
-3.16173 0.598249 1.93531
-3.25685 0.598573 1.8787
-3.16267 0.598948 1.9166
-3.1699 0.599359 1.90369
-3.23705 0.599789 1.86077
-3.23319 0.600024 1.85384
-3.19798 0.600519 1.86191
-3.17539 0.60132 1.86286
-3.07604 0.601893 1.90277
-3.20075 0.60248 1.83059
-3.14175 0.603434 1.84929
-3.16419 0.604447 1.82709
-3.15085 0.60588 1.82164
-3.07222 0.607787 1.84753
-3.22816 0.625189 2.26683
-3.22526 0.622979 2.26379
-3.18702 0.621236 2.27763
-3.26349 0.619951 2.23332
-3.32686 0.618718 2.1955
-3.2825 0.61787 2.21087
-3.27078 0.617063 2.20986
-3.26136 0.615943 2.20831
-3.28686 0.615186 2.18865
-3.31654 0.614474 2.16683
-3.33212 0.613764 2.15207
-3.24729 0.613409 2.18685
-3.28571 0.612739 2.16063
-3.29824 0.612118 2.14727
-3.31157 0.611527 2.13348
-3.30124 0.611201 2.131
-3.36722 0.610675 2.09078
-3.30548 0.610394 2.11394
-3.34156 0.609897 2.08863
-3.25875 0.60964 2.12229
-3.3632 0.609194 2.06272
-3.29269 0.608963 2.09019
-3.34875 0.60857 2.05473
-3.33234 0.608367 2.0551
-3.37962 0.608193 2.02359
-3.33794 0.607853 2.0369
-3.30084 0.607707 2.04752
-3.31126 0.607443 2.03464
-3.27819 0.607307 2.04323
-3.293 0.607199 2.02782
-3.34085 0.606994 1.99612
-3.18774 0.606916 2.06461
-3.34978 0.606789 1.97564
-3.34884 0.606722 1.96804
-3.35581 0.606683 1.95641
-3.23423 0.606618 2.00912
-3.30329 0.60661 1.96638
-3.35407 0.606611 1.93277
-3.33195 0.606627 1.93557
-3.26729 0.606658 1.95959
-3.24874 0.606751 1.96042
-3.29632 0.606795 1.9283
-3.26854 0.606867 1.9338
-3.2685 0.607039 1.92518
-3.29296 0.607234 1.90425
-3.25017 0.607354 1.91712
-3.21583 0.607624 1.92541
-3.28052 0.607773 1.88446
-3.23533 0.608083 1.89806
-3.22759 0.608446 1.89279
-3.12405 0.608641 1.93583
-3.23307 0.609058 1.87203
-3.18465 0.609494 1.88689
-3.10839 0.60998 1.91554
-3.23014 0.6105 1.84508
-3.1764 0.611338 1.86155
-3.19382 0.611919 1.84307
-3.1738 0.612545 1.84317
-3.06488 0.613535 1.88678
-3.10028 0.614583 1.85804
-3.12661 0.616444 1.8317
-3.15877 0.618427 1.80207
-3.17913 0.637422 2.29579
-3.24287 0.634269 2.26096
-3.32959 0.632037 2.2131
-3.21068 0.630714 2.26648
-3.22171 0.629417 2.25488
-3.23532 0.628176 2.24193
-3.24104 0.627322 2.23225
-3.39001 0.626511 2.15088
-3.27343 0.62539 2.20289
-3.27665 0.624973 2.19371
-3.32588 0.62425 2.16211
-3.30626 0.623529 2.16496
-3.30454 0.622834 2.15882
-3.37542 0.622189 2.1163
-3.32986 0.621856 2.13143
-3.30861 0.621255 2.13492
-3.30249 0.620685 2.13081
-3.4264 0.62039 2.06115
-3.30174 0.619868 2.11623
-3.30554 0.619599 2.1066
-3.26503 0.619128 2.11953
-3.35907 0.618884 2.06474
-3.30648 0.618466 2.08363
-3.35763 0.61825 2.05024
-3.27637 0.617908 2.08333
-3.27633 0.617699 2.07553
-3.39029 0.617413 2.01091
-3.38434 0.617234 2.00602
-3.30194 0.617105 2.03926
-3.2809 0.616876 2.04203
-3.32081 0.616757 2.01409
-3.36003 0.616608 1.98657
-3.2776 0.616519 2.01975
-3.27422 0.61644 2.01338
-3.27632 0.616371 2.00426
-3.27065 0.616303 1.99901
-3.246 0.616284 2.00316
-3.2555 0.616276 1.9902
-3.25445 0.61627 1.98251
-3.25903 0.616292 1.97194
-3.25414 0.616367 1.96599
-3.19388 0.6164 1.98781
-3.23752 0.616463 1.95762
-3.23015 0.616618 1.95272
-3.25493 0.616795 1.93168
-3.21208 0.616908 1.94461
-3.2481 0.617162 1.91777
-3.16283 0.617304 1.95182
-3.22998 0.617599 1.90931
-3.25958 0.617769 1.88585
-3.14393 0.618138 1.93454
-3.25838 0.618544 1.86807
-3.19836 0.618969 1.88879
-3.16582 0.619445 1.89563
-3.19533 0.619956 1.87134
-3.15954 0.6205 1.87961
-3.13668 0.621059 1.88136
-3.1617 0.621665 1.85904
-3.1174 0.622629 1.87046
-3.11241 0.623655 1.86204
-3.16472 0.625111 1.82385
-3.02205 0.626656 1.88288
-3.02483 0.62996 1.86461
-3.22517 0.645616 2.2758
-3.26987 0.64288 2.24971
-3.2515 0.641521 2.25283
-3.26323 0.640159 2.24093
-3.16143 0.638877 2.28569
-3.29448 0.637629 2.213
-3.28197 0.636769 2.21242
-3.26601 0.635954 2.21351
-3.29545 0.635185 2.19183
-3.2905 0.634415 2.18738
-3.35872 0.633669 2.14631
-3.34669 0.632973 2.1453
-3.26845 0.632304 2.17736
-3.28885 0.631664 2.16006
-3.27415 0.631309 2.15978
-3.28085 0.630737 2.14923
-3.29589 0.630406 2.13406
-3.30942 0.629859 2.12008
-3.33303 0.629576 2.10055
-3.28328 0.62908 2.11812
-3.33737 0.628823 2.08332
-3.32314 0.628381 2.08306
-3.27162 0.628151 2.10102
-3.38738 0.627786 2.03562
-3.3387 0.627585 2.05212
-3.32954 0.627254 2.04913
-3.30809 0.627082 2.05196
-3.36028 0.62692 2.01797
-3.26587 0.626668 2.05746
-3.29077 0.626536 2.03705
-3.27442 0.626365 2.03735
-3.30616 0.626263 2.01346
-3.24115 0.626172 2.03793
-3.39863 0.626062 1.9512
-3.3291 0.626022 1.97782
-3.31612 0.625972 1.97619
-3.28 0.625945 1.98608
-3.28194 0.625947 1.97689
-3.29508 0.625938 1.9621
-3.27266 0.625994 1.96497
-3.29766 0.626037 1.94414
-3.2275 0.62607 1.97092
-3.28288 0.626208 1.93468
-3.30403 0.626386 1.91547
-3.27518 0.626471 1.92147
-3.24335 0.626585 1.92889
-3.19303 0.626843 1.94521
-3.20902 0.627122 1.92832
-3.31666 0.627286 1.86588
-3.26553 0.627642 1.88236
-3.18986 0.628036 1.911
-3.26553 0.628228 1.86446
-3.27193 0.628676 1.85192
-3.23653 0.629161 1.86019
-3.17587 0.629952 1.88032
-3.20671 0.630214 1.85598
-3.20327 0.631103 1.84723
-3.10161 0.631734 1.88821
-3.15066 0.632734 1.85289
-3.20418 0.633796 1.81517
-3.07666 0.635299 1.86683
-3.06867 0.63687 1.85851
-3.16951 0.658854 2.30656
-3.2192 0.654222 2.28104
-3.21804 0.652371 2.27632
-3.27477 0.650553 2.24263
-3.27413 0.649214 2.23685
-3.37808 0.648305 2.17807
-3.29099 0.647464 2.2147
-3.21046 0.646212 2.2488
-3.24444 0.645395 2.22491
-3.31016 0.644626 2.18508
-3.29159 0.643855 2.18742
-3.24005 0.643135 2.20616
-3.3166 0.642442 2.16084
-3.26993 0.642056 2.17657
-3.26443 0.641407 2.17222
-3.29415 0.640787 2.15022
-3.32549 0.640465 2.12687
-3.31642 0.63987 2.12425
-3.28665 0.639597 2.13137
-3.31856 0.639052 2.10819
-3.20401 0.638805 2.15767
-3.31435 0.638314 2.09519
-3.27488 0.638094 2.10709
-3.28391 0.637683 2.09513
-3.30503 0.637467 2.07675
-3.20813 0.637113 2.11766
-3.2182 0.636927 2.10475
-3.32627 0.636774 2.04278
-3.32001 0.636476 2.03828
-3.31027 0.636353 2.03517
-3.25568 0.636138 2.05467
-3.37906 0.636024 1.98498
-3.21874 0.635942 2.05708
-3.30603 0.635787 2.00553
-3.34642 0.635737 1.97722
-3.31862 0.635667 1.98303
-3.26273 0.635626 2.00284
-3.32079 0.635617 1.9656
-3.32635 0.635598 1.95464
-3.31626 0.635633 1.95138
-3.24528 0.635666 1.97857
-3.24238 0.635689 1.97173
-3.28735 0.635808 1.94076
-3.26829 0.635968 1.9417
-3.26515 0.636043 1.93487
-3.24156 0.636149 1.93819
-3.30112 0.636391 1.89962
-3.25784 0.636654 1.91242
-3.29344 0.63681 1.88602
-3.27305 0.637152 1.88718
-3.21446 0.637533 1.90734
-3.1802 0.637717 1.91578
-3.20742 0.638155 1.89289
-3.16399 0.638629 1.90522
-3.22459 0.639138 1.86544
-3.22593 0.639663 1.85525
-3.24025 0.64024 1.83841
-3.17934 0.641167 1.85834
-3.17169 0.641823 1.85227
-3.1295 0.64286 1.86252
-3.07937 0.643938 1.87661
-3.09796 0.645487 1.85515
-2.99261 0.647966 1.89331
-3.23086 0.666089 2.28044
-3.23304 0.663262 2.27558
-3.32339 0.661398 2.22508
-3.20626 0.660018 2.27755
-3.29653 0.658669 2.22631
-3.34771 0.657752 2.19389
-3.171 0.656881 2.27537
-3.2752 0.655679 2.217
-3.33273 0.65486 2.18132
-3.27469 0.654064 2.2034
-3.24133 0.65332 2.21306
-3.22459 0.652577 2.21444
-3.34226 0.652202 2.14796
-3.26963 0.651502 2.17724
-3.36404 0.650858 2.12291
-3.29159 0.650522 2.15145
-3.32085 0.649926 2.12964
-3.31709 0.649363 2.12429
-3.29709 0.649044 2.12661
-3.34063 0.648559 2.09749
-3.37311 0.648267 2.07353
-3.37631 0.647836 2.0645
-3.3934 0.647573 2.0482
-3.24521 0.647369 2.11444
-3.35284 0.646989 2.05311
-3.31186 0.64679 2.06575
-3.38759 0.646495 2.02022
-3.27746 0.646301 2.06743
-3.2505 0.646166 2.07294
-3.34109 0.645928 2.01989
-3.38393 0.6458 1.9905
-3.33886 0.645707 2.00499
-3.30161 0.645528 2.01575
-3.26584 0.645466 2.02553
-3.26035 0.645374 2.02024
-3.34509 0.645321 1.96975
-3.23621 0.645302 2.016
-3.34615 0.645272 1.95287
-3.2885 0.645285 1.97344
-3.27695 0.645308 1.97093
-3.22305 0.645364 1.98954
-3.30259 0.645419 1.94142
-3.27194 0.645561 1.9482
-3.21112 0.645626 1.97024
-3.26406 0.645723 1.93532
-3.33585 0.645948 1.89068
-3.23842 0.646193 1.93061
-3.24123 0.646342 1.92063
-3.29266 0.64667 1.88594
-3.24039 0.647037 1.90299
-3.19221 0.647214 1.91842
-3.2835 0.647639 1.86354
-3.21699 0.648102 1.88746
-3.21712 0.648601 1.87797
-3.19244 0.649115 1.88083
-3.20514 0.649685 1.86486
-3.20159 0.650287 1.85692
-3.16437 0.651252 1.86494
-3.17439 0.651911 1.85005
-3.17674 0.652986 1.83797
-3.13467 0.65451 1.84699
-3.15471 0.656127 1.82468
-3.05026 0.65914 1.86116
-3.18044 0.680407 2.30705
-3.30977 0.675111 2.24248
-3.20288 0.672722 2.29138
-3.17721 0.670839 2.29889
-3.38234 0.669448 2.19022
-3.22835 0.668118 2.26104
-3.2513 0.667195 2.24274
-3.34462 0.66632 2.18919
-3.26525 0.665118 2.22257
-3.29041 0.664297 2.20306
-3.27258 0.663501 2.20502
-3.34241 0.66276 2.16307
-3.34586 0.662344 2.15376
-3.32824 0.661618 2.15554
-3.32552 0.660976 2.14974
-3.33267 0.660599 2.13854
-3.33783 0.659977 2.1288
-3.23122 0.659652 2.17441
-3.35966 0.659081 2.10295
-3.35597 0.658546 2.09751
-3.31304 0.658265 2.11123
-3.31149 0.657784 2.10464
-3.24154 0.657531 2.13183
-3.36292 0.657315 2.0633
-3.24926 0.656884 2.1127
-3.37444 0.656697 2.04222
-3.32991 0.656352 2.0569
-3.29033 0.656169 2.0688
-3.301 0.655886 2.05578
-3.29491 0.655734 2.05089
-3.28973 0.655593 2.04552
-3.29623 0.655393 2.03444
-3.30085 0.655284 2.02411
-3.29293 0.655173 2.02007
-3.35635 0.655096 1.98028
-3.31484 0.655031 1.99294
-3.2932 0.655 1.9956
-3.35766 0.654972 1.95519
-3.35924 0.65495 1.94622
-3.33331 0.654963 1.95093
-3.22245 0.655021 1.99801
-3.25104 0.655042 1.97544
-3.29173 0.655165 1.9466
-3.31914 0.655243 1.9245
-3.34421 0.655307 1.90359
-3.26928 0.655515 1.93237
-3.25827 0.655765 1.92909
-3.28498 0.655883 1.90724
-3.22202 0.656195 1.92978
-3.26797 0.656548 1.89777
-3.29643 0.656716 1.87492
-3.21862 0.657129 1.90464
-3.18262 0.65758 1.91335
-3.238 0.658068 1.87629
-3.23945 0.658304 1.86675
-3.19107 0.658847 1.88141
-3.22048 0.659727 1.85639
-3.237 0.660355 1.83837
-3.20339 0.660993 1.84538
-3.15398 0.662041 1.85931
-3.11952 0.663152 1.86558
-3.14 0.664723 1.84326
-3.05816 0.666815 1.87081
-3.20005 0.68661 2.30332
-3.21878 0.683661 2.2902
-3.19957 0.681731 2.29447
-3.16668 0.680301 2.30481
-3.23621 0.678899 2.26393
-3.32745 0.677533 2.21217
-3.2673 0.676634 2.23536
-3.32975 0.675755 2.19724
-3.38572 0.674928 2.16229
-3.26592 0.673732 2.21587
-3.3026 0.673287 2.18996
-3.19551 0.672535 2.23647
-3.33388 0.671783 2.16027
-3.32946 0.671089 2.15538
-3.28239 0.670725 2.17126
-3.38193 0.67005 2.11439
-3.33022 0.669465 2.133
-3.41072 0.669114 2.08509
-3.33687 0.668553 2.11475
-3.30495 0.668258 2.12297
-3.28381 0.667751 2.1262
-3.29631 0.667484 2.11218
-3.28146 0.667063 2.11213
-3.29989 0.666798 2.09516
-3.38034 0.666435 2.04736
-3.29955 0.666201 2.07995
-3.35334 0.666031 2.04513
-3.31368 0.665723 2.05732
-3.31855 0.665557 2.04696
-3.3109 0.665429 2.04279
-3.35147 0.665179 2.01476
-3.2515 0.665083 2.0567
-3.30985 0.664923 2.01961
-3.41378 0.664834 1.95959
-3.32347 0.664781 1.99662
-3.29476 0.664683 2.00294
-3.28446 0.664663 1.9999
-3.27156 0.664629 1.99819
-3.2571 0.664631 1.99719
-3.29514 0.664668 1.96987
-3.2146 0.664678 2.00188
-3.27636 0.664781 1.96256
-3.19911 0.664849 1.99281
-3.34415 0.664903 1.91194
-3.30494 0.665093 1.92291
-3.27659 0.665325 1.92835
-3.31617 0.665433 1.90009
-3.19865 0.665729 1.94996
-3.19737 0.665893 1.942
-3.23761 0.666227 1.9129
-3.28628 0.666625 1.87943
-3.16299 0.667063 1.93185
-3.26044 0.667297 1.87434
-3.17392 0.667769 1.90827
-3.23011 0.668302 1.8707
-3.12653 0.668871 1.91292
-3.2796 0.66979 1.826
-3.10853 0.67042 1.90179
-3.22443 0.671106 1.83395
-3.12989 0.672191 1.87039
-3.14664 0.673735 1.85008
-3.12427 0.675377 1.84906
-3.10495 0.677998 1.84416
-3.25438 0.695127 2.27841
-3.29399 0.692667 2.25402
-3.30047 0.690727 2.24543
-3.2139 0.689294 2.2826
-3.24798 0.688314 2.25873
-3.21148 0.686971 2.27078
-3.29431 0.686069 2.22247
-3.32937 0.685188 2.19802
-3.28479 0.68433 2.21339
-3.31532 0.683527 2.19112
-3.29926 0.68272 2.19218
-3.34817 0.681972 2.16067
-3.3391 0.681253 2.15812
-3.34846 0.680844 2.14584
-3.34381 0.680172 2.14102
-3.3111 0.679533 2.1502
-3.32016 0.679197 2.13797
-3.39757 0.67861 2.09202
-3.31472 0.6783 2.12572
-3.31341 0.677738 2.11911
-3.35553 0.677486 2.09024
-3.37474 0.677011 2.07323
-3.33094 0.676759 2.08734
-3.26932 0.676343 2.11066
-3.33517 0.676122 2.06989
-3.3 0.675911 2.07962
-3.28195 0.675577 2.08103
-3.33351 0.675398 2.04734
-3.33153 0.675156 2.04056
-3.31176 0.674981 2.04254
-3.30002 0.674873 2.04038
-3.28422 0.67469 2.0404
-3.33051 0.674587 2.00923
-3.29114 0.674523 2.02081
-3.27132 0.6744 2.02273
-3.30766 0.674369 1.99639
-3.25378 0.67434 2.01516
-3.25513 0.674313 2.0063
-3.21866 0.674329 2.01628
-3.29407 0.674354 1.97029
-3.26162 0.67441 1.97817
-3.27373 0.674467 1.96377
-3.20651 0.67459 1.98889
-3.26366 0.674681 1.95189
-3.26173 0.674895 1.94417
-3.25989 0.674993 1.93664
-3.26135 0.675272 1.92708
-3.25165 0.675428 1.92335
-3.24876 0.675745 1.91587
-3.24904 0.676129 1.90665
-3.24473 0.676336 1.9001
-3.20678 0.676781 1.90984
-3.21999 0.677239 1.89396
-3.17069 0.677761 1.90919
-3.27015 0.678321 1.84994
-3.20912 0.678916 1.87084
-3.19079 0.679521 1.87035
-3.12727 0.680529 1.89153
-3.14754 0.68124 1.87147
-3.16827 0.682363 1.85021
-3.1332 0.683955 1.85574
-3.13974 0.686081 1.8392
-2.99612 0.689259 1.89523
-3.16955 0.707639 2.32533
-3.16616 0.703645 2.32471
-3.24661 0.701658 2.27913
-3.31799 0.700185 2.23732
-3.23497 0.698741 2.2727
-3.34999 0.697754 2.20836
-3.27286 0.696407 2.2407
-3.22905 0.695501 2.25569
-3.35384 0.694618 2.18638
-3.23753 0.693759 2.23759
-3.3333 0.692959 2.18268
-3.25505 0.692153 2.21482
-3.33741 0.691409 2.16656
-3.34528 0.690696 2.15552
-3.38241 0.690288 2.12934
-3.3511 0.689623 2.13784
-3.35282 0.689272 2.12929
-3.28011 0.688659 2.15841
-3.30176 0.688082 2.14032
-3.292 0.687746 2.13752
-3.36451 0.687256 2.09386
-3.43213 0.686949 2.05233
-3.30024 0.686713 2.11043
-3.31774 0.686271 2.09422
-3.35219 0.686035 2.06917
-3.27504 0.685655 2.10019
-3.27984 0.685451 2.08992
-3.32451 0.685287 2.05964
-3.26972 0.684962 2.0794
-3.33499 0.684831 2.03877
-3.30197 0.684601 2.04748
-3.24315 0.684473 2.06889
-3.28426 0.684357 2.04033
-3.31823 0.684215 2.01538
-3.25324 0.684133 2.0398
-3.30463 0.684087 2.00597
-3.32638 0.684039 1.98696
-3.28341 0.684001 2.00028
-3.23962 0.684004 2.01394
-3.24104 0.684018 2.00498
-3.33189 0.684051 1.95125
-3.23064 0.684099 1.99355
-3.30352 0.684227 1.94861
-3.3275 0.684281 1.92828
-3.23342 0.684476 1.96668
-3.28014 0.684591 1.93485
-3.27773 0.684825 1.92732
-3.31181 0.684972 1.90174
-3.23827 0.685299 1.92957
-3.20337 0.685451 1.93845
-3.26608 0.68584 1.89802
-3.24728 0.686271 1.89823
-3.32457 0.686716 1.85037
-3.23504 0.687226 1.88576
-3.16816 0.687775 1.90973
-3.1791 0.688361 1.8947
-3.29111 0.688956 1.82909
-3.14623 0.689612 1.89177
-3.18494 0.690659 1.86178
-3.14719 0.691775 1.86984
-3.21624 0.692957 1.82432
-3.05186 0.694623 1.89438
-3.09786 0.696833 1.85796
-3.30676 0.715164 2.26044
-3.20211 0.712633 2.30815
-3.21963 0.710636 2.29401
-3.25259 0.70916 2.27139
-3.21391 0.708148 2.28391
-3.27849 0.706768 2.24539
-3.27961 0.705838 2.23792
-3.29501 0.70493 2.2233
-3.34155 0.704046 2.1931
-3.27346 0.703187 2.22018
-3.311 0.70239 2.19437
-3.28955 0.701621 2.19803
-3.31739 0.70118 2.17652
-3.31535 0.700457 2.17043
-3.35248 0.699767 2.14472
-3.28406 0.699401 2.17124
-3.35662 0.698729 2.12781
-3.27076 0.69839 2.16304
-3.40119 0.697805 2.09055
-3.326 0.697258 2.12082
-3.34394 0.696967 2.10408
-3.38031 0.696686 2.07813
-3.34115 0.696218 2.09027
-3.3433 0.695968 2.08139
-3.30594 0.695562 2.09254
-3.30821 0.695343 2.08355
-3.34447 0.695032 2.05774
-3.26604 0.694814 2.0891
-3.29364 0.69467 2.06733
-3.36386 0.694415 2.02445
-3.29126 0.694273 2.05278
-3.26639 0.694174 2.05716
-3.25278 0.693977 2.0561
-3.35059 0.693912 1.99909
-3.30468 0.693814 2.014
-3.27296 0.693752 2.02175
-3.28825 0.693732 2.00591
-3.37042 0.693693 1.95667
-3.2874 0.69371 1.98991
-3.22884 0.693706 2.01097
-3.19965 0.693743 2.01726
-3.26653 0.693851 1.97537
-3.24949 0.693893 1.97557
-3.28965 0.694069 1.9469
-3.2497 0.694174 1.95843
-3.36818 0.694388 1.89051
-3.23836 0.694527 1.9469
-3.30205 0.694836 1.90617
-3.22733 0.694979 1.93498
-3.19234 0.695353 1.94345
-3.22041 0.695769 1.92028
-3.26351 0.696198 1.88957
-3.15157 0.696442 1.93676
-3.23134 0.69696 1.88749
-3.25242 0.697809 1.86685
-3.14236 0.698083 1.913
-3.22606 0.699042 1.86078
-3.14803 0.699725 1.89
-3.1452 0.700811 1.88072
-3.03314 0.701965 1.92587
-3.0774 0.703157 1.89275
-3.10079 0.704871 1.86887
-3.09235 0.707138 1.85962
-3.21273 0.727757 2.31198
-3.32815 0.72365 2.25191
-3.25891 0.722066 2.28045
-3.30928 0.720089 2.24982
-3.20976 0.718604 2.29343
-3.23197 0.717584 2.27549
-3.31868 0.7162 2.2259
-3.38737 0.715267 2.18463
-3.34312 0.714358 2.19982
-3.32075 0.713473 2.20406
-3.2706 0.712615 2.22215
-3.30926 0.711821 2.19577
-3.3021 0.711057 2.19226
-3.31309 0.710617 2.17917
-3.29162 0.7099 2.18277
-3.29688 0.709217 2.17296
-3.29367 0.70882 2.16693
-3.33016 0.708225 2.1414
-3.35459 0.707855 2.12152
-3.31321 0.707282 2.1349
-3.31356 0.706976 2.12698
-3.28005 0.706461 2.13635
-3.20579 0.706185 2.1657
-3.2879 0.705953 2.11678
-3.33524 0.705488 2.08567
-3.32563 0.705287 2.08258
-3.37428 0.704918 2.05066
-3.33922 0.704718 2.0603
-3.32136 0.704415 2.06154
-3.28091 0.704247 2.07382
-3.29406 0.704091 2.05929
-3.24118 0.703878 2.07788
-3.3485 0.703756 2.01621
-3.36579 0.703644 1.99955
-3.31822 0.703556 2.01526
-3.21851 0.703481 2.05703
-3.37608 0.703449 1.97007
-3.37931 0.703389 1.96033
-3.29051 0.703391 1.9965
-3.27804 0.703406 1.99447
-3.29477 0.703401 1.97788
-3.26905 0.703488 1.98235
-3.32603 0.70359 1.94542
-3.31762 0.703674 1.94123
-3.29287 0.703769 1.94517
-3.28524 0.703963 1.94036
-3.27945 0.704092 1.93476
-3.30019 0.704383 1.91555
-3.25004 0.704689 1.93176
-3.24619 0.704874 1.92506
-3.2517 0.705275 1.91322
-3.2845 0.705688 1.88771
-3.19967 0.705925 1.92137
-3.25645 0.70643 1.88365
-3.19092 0.706975 1.90699
-3.1732 0.70753 1.9064
-3.18706 0.708151 1.88986
-3.21912 0.70915 1.86339
-3.09934 0.709859 1.91344
-3.12644 0.710955 1.8892
-3.06571 0.712148 1.90863
-3.0621 0.713404 1.89934
-3.14411 0.715621 1.84509
-3.24956 0.735222 2.29724
-3.15232 0.73309 2.34052
-3.27377 0.731026 2.27441
-3.17551 0.729499 2.31739
-3.2578 0.728004 2.27008
-3.30826 0.726587 2.23861
-3.33818 0.725629 2.21673
-3.39246 0.724694 2.18266
-3.29382 0.723784 2.22503
-3.37311 0.7229 2.17842
-3.25821 0.722081 2.22882
-3.29364 0.721254 2.20408
-3.29471 0.720834 2.1959
-3.36538 0.720055 2.1535
-3.27783 0.719346 2.19012
-3.31751 0.718968 2.16259
-3.27736 0.718312 2.17545
-3.3006 0.717962 2.15612
-3.28179 0.717326 2.1583
-3.26492 0.71704 2.15893
-3.35441 0.716463 2.10689
-3.34495 0.716173 2.10384
-3.32409 0.715728 2.10677
-3.34099 0.715433 2.09057
-3.3391 0.715051 2.08392
-3.24641 0.71479 2.12247
-3.34612 0.714609 2.06468
-3.25974 0.714279 2.10021
-3.29061 0.714098 2.07685
-3.28834 0.713961 2.06999
-3.37883 0.713688 2.01699
-3.33491 0.713586 2.0309
-3.28868 0.713416 2.04609
-3.21342 0.713316 2.07567
-3.31109 0.713227 2.01876
-3.32778 0.71315 2.00233
-3.36174 0.713097 1.97722
-3.26896 0.713088 2.01539
-3.28193 0.713091 2.00066
-3.19433 0.7131 2.03622
-3.29024 0.713138 1.97996
-3.34133 0.713217 1.94602
-3.27452 0.713291 1.97105
-3.25545 0.713472 1.97199
-3.32018 0.713548 1.93124
-3.28579 0.713668 1.93996
-3.25525 0.713941 1.94645
-3.1963 0.714228 1.96711
-3.29313 0.714404 1.91009
-3.29971 0.714789 1.89777
-3.25278 0.715186 1.91217
-3.18755 0.715416 1.93606
-3.21311 0.715907 1.914
-3.15453 0.71644 1.93392
-3.25613 0.716981 1.87372
-3.22815 0.717592 1.87815
-3.16487 0.71824 1.90013
-3.20928 0.71928 1.86742
-3.08882 0.719985 1.91784
-3.0872 0.721149 1.90785
-3.09616 0.722381 1.89238
-3.13268 0.724118 1.86201
-3.09006 0.726421 1.86994
-3.25939 0.747897 2.29688
-3.23362 0.744676 2.30591
-3.26209 0.742046 2.28702
-3.30099 0.739976 2.26216
-3.22306 0.7389 2.29429
-3.29064 0.737437 2.25427
-3.20352 0.736445 2.29092
-3.19772 0.735056 2.28754
-3.32789 0.73412 2.2155
-3.24624 0.733209 2.24937
-3.25856 0.732326 2.23623
-3.24503 0.731511 2.23592
-3.32086 0.731038 2.19042
-3.33588 0.730232 2.17586
-3.34167 0.729534 2.16575
-3.32941 0.729104 2.16426
-3.31585 0.728421 2.16384
-3.21193 0.727775 2.20856
-3.28998 0.727391 2.16187
-3.35006 0.72684 2.12446
-3.3007 0.726487 2.14145
-3.3024 0.725995 2.13314
-3.34407 0.725674 2.10458
-3.29511 0.725436 2.1212
-3.32169 0.724992 2.10041
-3.28992 0.72475 2.10845
-3.25329 0.724372 2.11916
-3.33137 0.724163 2.07223
-3.33147 0.723967 2.06428
-3.33496 0.723679 2.0548
-3.25945 0.723517 2.0846
-3.25916 0.723334 2.07683
-3.35773 0.723207 2.01953
-3.33317 0.723092 2.02378
-3.272 0.722967 2.04636
-3.26149 0.722888 2.04352
-3.34784 0.722855 1.99217
-3.31506 0.7228 2.00043
-3.2322 0.722791 2.03364
-3.34749 0.722776 1.9678
-3.23357 0.722803 2.01647
-3.27858 0.722892 1.98556
-3.31765 0.722921 1.95774
-3.24215 0.723082 1.98695
-3.31461 0.723179 1.94229
-3.28082 0.723256 1.9508
-3.27862 0.72351 1.94316
-3.18063 0.723777 1.98339
-3.28489 0.723944 1.92268
-3.23566 0.724312 1.93832
-3.18632 0.724692 1.95398
-3.2826 0.724914 1.89713
-3.2147 0.725391 1.92186
-3.28006 0.72591 1.87985
-3.19488 0.726438 1.91309
-3.20156 0.727038 1.90025
-3.20193 0.727676 1.89045
-3.24612 0.728352 1.85866
-3.12937 0.729031 1.90732
-3.16966 0.730162 1.87648
-3.14838 0.731366 1.87626
-2.97198 0.732635 1.95342
-3.04631 0.734883 1.9031
-3.05042 0.737761 1.88648
-3.12525 0.755833 2.36684
-3.21693 0.753109 2.31639
-3.1659 0.750989 2.33649
-3.2557 0.749419 2.28542
-3.41628 0.747882 2.19895
-3.26407 0.746825 2.26821
-3.25857 0.74583 2.26404
-3.2922 0.74444 2.24092
-3.29761 0.743544 2.23119
-3.30919 0.742634 2.21843
-3.38504 0.741753 2.1735
-3.32221 0.741304 2.19727
-3.38287 0.74047 2.1599
-3.23308 0.739708 2.22766
-3.32601 0.738981 2.17403
-3.31459 0.738551 2.17211
-3.31899 0.737878 2.16268
-3.3265 0.737517 2.15121
-3.32416 0.736901 2.14509
-3.30147 0.736569 2.14869
-3.38949 0.736014 2.09731
-3.37018 0.735713 2.09919
-3.34433 0.735221 2.10467
-3.29538 0.734915 2.12139
-3.32513 0.734695 2.09863
-3.35216 0.73429 2.07754
-3.29224 0.734067 2.09962
-3.27065 0.733892 2.10247
-3.33627 0.733541 2.06202
-3.32918 0.733401 2.05756
-3.25561 0.733156 2.08653
-3.34042 0.733015 2.03613
-3.26843 0.732885 2.06412
-3.33671 0.732735 2.02201
-3.28949 0.732642 2.03755
-3.37746 0.732597 1.98541
-3.35668 0.732508 1.98773
-3.26026 0.732499 2.02772
-3.3332 0.732502 1.98301
-3.23099 0.732482 2.02592
-3.34542 0.732549 1.96034
-3.34947 0.7326 1.94999
-3.25951 0.732704 1.98654
-3.32878 0.732792 1.9435
-3.25427 0.732967 1.97218
-3.27113 0.73309 1.95528
-3.21203 0.733371 1.97604
-3.21443 0.733495 1.96636
-3.27648 0.733845 1.9264
-3.18982 0.734241 1.9607
-3.21151 0.734421 1.94125
-3.2587 0.734883 1.90848
-3.30291 0.735388 1.8771
-3.19003 0.735901 1.92424
-3.16642 0.73619 1.92719
-3.16423 0.737117 1.91813
-3.22018 0.737783 1.8805
-3.21403 0.738452 1.8739
-3.24508 0.739191 1.84855
-3.19757 0.740362 1.86156
-3.20679 0.741605 1.84603
-3.13097 0.743362 1.87191
-2.9686 0.745699 1.9398
-3.2248 0.767523 2.32313
-3.25386 0.764215 2.30471
-3.26766 0.762049 2.29239
-3.27596 0.759922 2.2828
-3.28756 0.758352 2.27082
-3.31144 0.757269 2.25202
-3.29837 0.755811 2.25228
-3.2914 0.754824 2.24883
-3.29537 0.753862 2.23988
-3.33002 0.752968 2.21552
-3.27882 0.75206 2.23413
-3.39219 0.751554 2.16986
-3.2908 0.750692 2.21353
-3.29361 0.749904 2.205
-3.33892 0.74915 2.17519
-3.25295 0.748745 2.21049
-3.32045 0.748004 2.1696
-3.34769 0.747627 2.14827
-3.2846 0.746984 2.17254
-3.41543 0.746637 2.09939
-3.37341 0.746054 2.11305
-3.27763 0.745738 2.15318
-3.33556 0.745217 2.11679
-3.28942 0.744934 2.13206
-3.34375 0.744479 2.09738
-3.28629 0.744229 2.11826
-3.38415 0.74399 2.06148
-3.2885 0.743625 2.10166
-3.32618 0.743422 2.07492
-3.32278 0.743166 2.06881
-3.29428 0.742959 2.07517
-3.40292 0.742841 2.01281
-3.28109 0.742641 2.06583
-3.33096 0.742521 2.03287
-3.355 0.742451 2.01273
-3.33306 0.742311 2.01571
-3.19974 0.742277 2.07419
-3.28733 0.742219 2.02227
-3.25289 0.74221 2.03127
-3.3211 0.742192 1.98896
-3.32769 0.74222 1.97738
-3.41612 0.742313 1.92476
-3.30839 0.74234 1.97034
-3.26045 0.742417 1.98593
-3.28911 0.74257 1.96308
-3.29722 0.742683 1.95057
-3.22966 0.742944 1.97561
-3.2795 0.743056 1.94224
-3.26572 0.743388 1.94025
-3.22963 0.743766 1.94931
-3.33363 0.743937 1.88873
-3.22756 0.744383 1.93264
-3.29765 0.744873 1.88837
-3.12571 0.745371 1.9651
-3.18304 0.745653 1.9276
-3.26391 0.746249 1.8777
-3.1479 0.747218 1.92548
-3.18199 0.747525 1.89953
-3.23442 0.748607 1.86282
-3.22983 0.749769 1.85444
-3.13823 0.751004 1.88938
-3.17128 0.752308 1.86184
-3.08004 0.754141 1.89531
-3.06896 0.757065 1.88638
-3.23426 0.775904 2.32058
-3.18977 0.772616 2.33886
-3.26569 0.770975 2.29472
-3.27779 0.769317 2.28255
-3.36574 0.767783 2.23232
-3.34786 0.766247 2.23504
-3.24889 0.765235 2.27758
-3.33417 0.764246 2.22799
-3.31242 0.763283 2.2319
-3.3345 0.762348 2.21387
-3.33617 0.761486 2.20596
-3.27096 0.76098 2.23098
-3.29667 0.760122 2.21108
-3.30374 0.759341 2.20039
-3.25857 0.758921 2.2153
-3.29547 0.758193 2.18966
-3.27996 0.757503 2.19017
-3.41389 0.757088 2.11555
-3.35752 0.756768 2.13595
-3.32717 0.756115 2.14387
-3.28956 0.755783 2.15492
-3.32076 0.755235 2.13191
-3.29609 0.754936 2.13646
-3.33567 0.754453 2.10919
-3.30308 0.754188 2.11765
-3.35636 0.753974 2.0831
-3.3197 0.753541 2.09388
-3.30191 0.753363 2.09483
-3.29971 0.753041 2.08821
-3.30983 0.752857 2.07521
-3.40105 0.752607 2.02178
-3.2676 0.752459 2.08052
-3.30964 0.752325 2.05149
-3.29059 0.752242 2.05291
-3.30508 0.752074 2.03773
-3.28835 0.752028 2.03793
-3.3123 0.751974 2.01782
-3.31454 0.751926 2.00855
-3.3349 0.75193 1.99012
-3.27123 0.751907 2.01376
-3.34417 0.751976 1.96894
-3.29692 0.751991 1.98429
-3.22455 0.752056 2.01212
-3.30608 0.752224 1.96281
-3.28378 0.752288 1.9656
-3.26462 0.752529 1.96649
-3.23563 0.75278 1.97228
-3.24774 0.752942 1.95767
-3.20733 0.753302 1.96895
-3.291 0.7535 1.91849
-3.29526 0.753892 1.90736
-3.25905 0.754366 1.91629
-3.22916 0.754848 1.92204
-3.223 0.755123 1.91631
-3.21167 0.755706 1.91256
-3.14939 0.75633 1.9342
-3.16225 0.756958 1.91824
-3.23767 0.757661 1.87083
-3.24879 0.758785 1.85472
-3.21249 0.759987 1.86214
-3.16687 0.761262 1.87404
-3.1646 0.763066 1.86317
-3.09866 0.764974 1.88387
-3.08566 0.769564 1.87254
-3.16027 0.788246 2.36286
-3.23444 0.783752 2.32333
-3.20315 0.782027 2.33285
-3.29374 0.780374 2.28137
-3.2888 0.77875 2.27764
-3.25437 0.777165 2.28865
-3.28755 0.776117 2.26513
-3.27839 0.774656 2.26338
-3.30084 0.773667 2.24519
-3.34834 0.772705 2.21446
-3.36185 0.771771 2.2007
-3.29746 0.771294 2.22525
-3.38025 0.770408 2.17681
-3.35013 0.7696 2.18474
-3.28769 0.769164 2.20829
