ply
format ascii 1.0
comment Created by Open3D
element vertex 1794
property double x
property double y
property double z
end_header
-0.687461 3.45637 0.509935
-0.605879 3.45993 0.536166
-0.579131 3.46298 0.535564
-0.618144 3.46633 0.501691
-0.567059 3.47209 0.509947
-0.436862 3.48036 0.554658
-0.515173 3.54888 0.973619
-0.487368 3.53781 0.98879
-0.488476 3.5293 0.986822
-0.650503 3.52297 0.902119
-0.721827 3.51748 0.861905
-0.67997 3.51206 0.87823
-0.751481 3.50675 0.837791
-0.593106 3.50328 0.910334
-0.592335 3.4982 0.905847
-0.719813 3.4949 0.835321
-0.737974 3.49168 0.819383
-0.756782 3.48856 0.803044
-0.575181 3.48633 0.885944
-0.645092 3.4834 0.843871
-0.888995 3.48057 0.714702
-0.90425 3.47786 0.699749
-0.726182 3.47527 0.781342
-0.77774 3.4728 0.747999
-0.830344 3.47162 0.712718
-0.917041 3.46935 0.661613
-0.796446 3.46802 0.713103
-0.755979 3.46603 0.725292
-0.519303 3.46508 0.834412
-0.758214 3.46331 0.706685
-0.838239 3.46168 0.658241
-0.589709 3.46093 0.773096
-0.88475 3.45953 0.616897
-0.75636 3.45911 0.671307
-0.751883 3.45804 0.664515
-0.763871 3.45756 0.64881
-0.689032 3.45673 0.676928
-0.744597 3.45607 0.639658
-0.535256 3.4558 0.734388
-0.753757 3.45621 0.614412
-0.830385 3.45596 0.56613
-0.677956 3.45589 0.632181
-0.601574 3.45591 0.66009
-0.775077 3.45609 0.562879
-0.819214 3.45726 0.529184
-0.822085 3.45778 0.516887
-0.705258 3.45846 0.564239
-0.627975 3.4593 0.59162
-0.552349 3.46031 0.617973
-0.740186 3.46295 0.510648
-0.693751 3.46436 0.521913
-0.692942 3.46677 0.509169
-0.670754 3.46855 0.507836
-0.605131 3.47233 0.525817
-0.56035 3.47676 0.532575
-0.42268 3.48171 0.58512
-0.649722 3.48939 0.451977
-0.668045 3.56148 0.896892
-0.666521 3.54852 0.900875
-0.623187 3.54106 0.919996
-0.688188 3.53363 0.88496
-0.820976 3.52811 0.814023
-0.761935 3.52267 0.838948
-0.674987 3.51734 0.877748
-0.789059 3.51385 0.814075
-0.62956 3.50875 0.888961
-0.716683 3.50544 0.83862
-0.790047 3.50221 0.795088
-0.716983 3.49907 0.824693
-0.688684 3.49602 0.831829
-0.748102 3.49308 0.795014
-0.601268 3.49105 0.86034
-0.602414 3.48832 0.852449
-0.779336 3.48572 0.756554
-0.801721 3.48324 0.737804
-0.716961 3.48205 0.771211
-0.616783 3.47977 0.81355
-0.682547 3.47762 0.772778
-0.781978 3.47643 0.714118
-0.834945 3.47548 0.678422
-0.682877 3.4737 0.746192
-0.772688 3.47207 0.692861
-0.670155 3.47131 0.734723
-0.485478 3.46991 0.81839
-0.83988 3.46867 0.632344
-0.823634 3.4684 0.630512
-0.899593 3.46793 0.582827
-0.771446 3.46709 0.637605
-0.722803 3.46643 0.652444
-0.5455 3.46615 0.731161
-0.822059 3.46574 0.583114
-0.62272 3.46632 0.671872
-0.608493 3.46624 0.668827
-0.661313 3.46626 0.632141
-0.672049 3.46644 0.616318
-0.729411 3.46679 0.576982
-0.629035 3.46813 0.61535
-0.654481 3.46881 0.591571
-0.695358 3.46966 0.559876
-0.71043 3.47068 0.540884
-0.71079 3.47185 0.52905
-0.823603 3.47474 0.458951
-0.516471 3.47631 0.600375
-0.561068 3.47895 0.564649
-0.516551 3.48274 0.572083
-0.762637 3.48719 0.433409
-0.575819 3.49087 0.512081
-0.663075 3.49986 0.447283
-0.733868 3.57225 0.865621
-0.657341 3.56002 0.906293
-0.804265 3.55096 0.831953
-0.685067 3.54349 0.889031
-0.598237 3.53795 0.927917
-0.695856 3.53249 0.874526
-0.736836 3.52792 0.848526
-0.622766 3.52442 0.898932
-0.818621 3.52009 0.795291
-0.81532 3.51597 0.791028
-0.710617 3.51273 0.836537
-0.69043 3.50957 0.839711
-0.650564 3.50651 0.852638
-0.648051 3.50356 0.846796
-0.658969 3.50071 0.834138
-0.66987 3.49878 0.820495
-0.785556 3.49616 0.755224
-0.858996 3.4949 0.709598
-0.739725 3.49248 0.761623
-0.640581 3.49019 0.803452
-0.689318 3.48803 0.771201
-0.766897 3.48701 0.72328
-0.640649 3.48507 0.778303
-0.778257 3.48409 0.700332
-0.693916 3.48245 0.734085
-0.736529 3.48169 0.703379
-0.616543 3.48028 0.754706
-0.687349 3.47903 0.710464
-0.655688 3.47847 0.716686
-0.809692 3.47829 0.629648
-0.684372 3.47745 0.683018
-0.774296 3.47678 0.628579
-0.773799 3.47651 0.618898
-0.785584 3.47609 0.603245
-0.649024 3.47594 0.661451
-0.680697 3.47659 0.634632
-0.703203 3.47661 0.613108
-0.97425 3.47679 0.467134
-0.824882 3.47714 0.531169
-0.759371 3.47766 0.553075
-0.51746 3.47917 0.662016
-0.594654 3.48002 0.612167
-0.587759 3.48104 0.604163
-0.728374 3.48222 0.522206
-0.547298 3.48511 0.599058
-0.568554 3.48669 0.576292
-0.908374 3.48934 0.392958
-0.528205 3.49232 0.569207
-0.54967 3.49644 0.543259
-0.538715 3.5013 0.532605
-0.443691 3.50807 0.561664
-0.29718 3.52607 0.602903
-0.828409 3.58379 0.819168
-0.636575 3.57105 0.917991
-0.737392 3.56164 0.867044
-0.834676 3.55414 0.815892
-0.627625 3.54857 0.914897
-0.690462 3.54309 0.878907
-0.606471 3.53929 0.914558
-0.621698 3.53419 0.902019
-0.585585 3.53074 0.913408
-0.831842 3.5265 0.784487
-0.791605 3.52324 0.79777
-0.758632 3.52007 0.807344
-0.826677 3.517 0.766324
-0.788965 3.51403 0.778088
-0.773878 3.51117 0.778439
-0.592909 3.50843 0.861623
-0.633106 3.50661 0.833224
-0.919207 3.50534 0.681272
-0.792846 3.5029 0.736849
-0.66422 3.5006 0.793426
-0.816122 3.49844 0.709599
-0.631166 3.49741 0.792951
-0.827902 3.49546 0.68649
-0.717705 3.49366 0.73334
-0.756788 3.49363 0.703576
-0.654196 3.49206 0.74638
-0.754024 3.49065 0.687806
-0.858278 3.4894 0.626847
-0.745715 3.48883 0.673525
-0.611069 3.48782 0.73175
-0.725998 3.4878 0.664073
-0.706846 3.48713 0.664178
-0.733294 3.48685 0.64103
-0.622899 3.48643 0.686471
-0.770166 3.48619 0.602888
-0.864701 3.48613 0.545456
-0.735609 3.48695 0.598809
-0.727692 3.48713 0.592322
-0.614147 3.48729 0.638679
-0.652309 3.48772 0.608853
-0.839457 3.48833 0.504333
-0.791467 3.49037 0.515692
-0.858515 3.49139 0.470721
-0.712113 3.49258 0.532277
-0.624258 3.49392 0.564361
-0.675368 3.49706 0.524837
-0.590869 3.49972 0.553664
-0.573523 3.50271 0.548504
-0.639877 3.50685 0.500119
-0.733344 3.51173 0.437255
-0.637457 3.51853 0.466744
-0.389882 3.53326 0.562517
-0.58482 3.59484 0.942281
-0.619831 3.58176 0.927999
-0.689203 3.57231 0.892787
-0.663953 3.56666 0.900931
-0.872164 3.55919 0.794295
-0.586707 3.55369 0.932461
-0.723398 3.55007 0.857568
-0.766776 3.54475 0.831172
-0.78329 3.54129 0.816255
-0.778405 3.53702 0.812918
-0.79171 3.53375 0.799438
-0.764512 3.53057 0.806131
-0.702908 3.52749 0.829943
-0.824116 3.5245 0.762254
-0.761589 3.52163 0.786333
-0.774212 3.51887 0.772727
-0.668526 3.51754 0.816734
-0.562625 3.51496 0.862219
-0.755375 3.51332 0.757364
-0.762486 3.51101 0.746079
-0.789799 3.50884 0.724554
-0.699721 3.50781 0.760472
-0.674026 3.50585 0.765233
-0.818906 3.50404 0.684551
-0.808555 3.50319 0.680421
-0.722885 3.50243 0.713863
-0.869547 3.50101 0.631879
-0.625104 3.50036 0.744588
-0.692779 3.49919 0.701838
-0.975158 3.49817 0.551557
-0.897555 3.49773 0.580627
-0.709152 3.49779 0.664531
-0.505545 3.4972 0.756775
-0.688857 3.49677 0.655369
-0.668793 3.49652 0.655457
-0.746977 3.49645 0.606225
-0.816306 3.49729 0.560357
-0.599966 3.49736 0.658215
-0.753555 3.49763 0.57088
-0.663564 3.49806 0.605135
-0.694322 3.49867 0.578815
-0.655811 3.50027 0.58597
-0.767498 3.50174 0.518158
-0.662561 3.50293 0.558985
-0.877877 3.50428 0.439488
-0.640704 3.50743 0.544112
-0.650273 3.50917 0.527006
-0.592903 3.51207 0.541993
-0.733118 3.51643 0.456427
-0.505433 3.52216 0.553166
-0.599895 3.52756 0.48918
-0.633691 3.54212 0.444534
-0.643273 3.60745 0.912743
-0.511784 3.59247 0.983652
-0.604202 3.58376 0.936109
-0.789317 3.5773 0.839899
-0.62268 3.56981 0.920698
-0.696812 3.56428 0.879077
-0.686805 3.56065 0.877541
-0.801547 3.55531 0.815472
-0.699533 3.55183 0.859827
-0.721322 3.54842 0.842222
-0.699986 3.54346 0.847866
-0.902268 3.54027 0.73983
-0.805138 3.53796 0.780555
-0.630924 3.53497 0.860585
-0.701026 3.53209 0.818355
-0.805278 3.53069 0.757453
-0.771141 3.52798 0.767181
-0.908843 3.52539 0.690871
-0.663039 3.52293 0.806187
-0.750668 3.52142 0.753767
-0.840686 3.52031 0.699712
-0.839105 3.5182 0.692571
-0.967713 3.51623 0.620187
-0.673018 3.51442 0.759299
-0.815305 3.51357 0.678855
-0.720414 3.51198 0.717825
-0.751886 3.51137 0.692535
-0.756801 3.51072 0.680571
-0.868572 3.50954 0.615779
-0.647871 3.50852 0.717043
-0.845038 3.50767 0.60919
-0.65522 3.50731 0.694281
-0.809128 3.50753 0.606848
-0.797704 3.50711 0.602815
-0.649475 3.50686 0.66699
-0.695733 3.5068 0.633706
-0.695301 3.50678 0.623717
-0.745883 3.50769 0.58715
-0.761559 3.50796 0.568777
-0.658762 3.5084 0.609439
-0.586543 3.50901 0.634612
-0.703566 3.50979 0.564963
-0.601957 3.51155 0.603473
-0.736936 3.51328 0.523721
-0.557978 3.51464 0.601365
-0.608269 3.51698 0.563229
-0.624972 3.51955 0.541595
-0.555444 3.52245 0.562664
-0.544373 3.52569 0.554101
-0.692464 3.53048 0.464089
-0.660834 3.538 0.46066
-0.635221 3.54857 0.450548
-0.700735 3.61745 0.88642
-0.723425 3.60395 0.878644
-0.678775 3.59478 0.900097
-0.681148 3.58717 0.896446
-0.712929 3.58151 0.876083
-0.722404 3.57592 0.86683
-0.669203 3.57122 0.888012
-0.897754 3.56586 0.769047
-0.676391 3.56236 0.873084
-0.45584 3.55894 0.976657
-0.798221 3.5556 0.798698
-0.710443 3.55075 0.837452
-0.579976 3.54764 0.895713
-0.616175 3.54464 0.870547
-0.78062 3.54334 0.779426
-0.755016 3.54113 0.784324
-0.792533 3.53841 0.758232
-0.73143 3.53581 0.781331
-0.751436 3.53335 0.763749
-0.727024 3.53101 0.768243
-0.687157 3.5299 0.779139
-0.605367 3.52859 0.811224
-0.935361 3.52661 0.638153
-0.677593 3.5256 0.75791
-0.889698 3.52394 0.643461
-0.687094 3.52234 0.736293
-0.926432 3.52161 0.60721
-0.614458 3.52107 0.753566
-0.744783 3.51988 0.679503
-0.852781 3.51886 0.616424
-0.834467 3.51842 0.615859
-0.7993 3.51765 0.624087
-0.669178 3.51733 0.679289
-0.639389 3.51744 0.683833
-0.778634 3.51719 0.604277
-0.552144 3.51713 0.707372
-0.821867 3.51711 0.562311
-0.641585 3.5172 0.642124
-0.740397 3.51829 0.581248
-0.760877 3.51873 0.560277
-0.75201 3.51934 0.553779
-0.806257 3.52012 0.515522
-0.728504 3.52107 0.543065
-0.707512 3.52363 0.540349
-0.584448 3.52499 0.59005
-0.815159 3.52652 0.462668
-0.635665 3.52909 0.539141
-0.417011 3.53283 0.633814
-0.560498 3.53608 0.547975
-0.728942 3.54089 0.447787
-0.468794 3.54844 0.55862
-0.518855 3.55905 0.510668
-0.628535 3.63007 0.922198
-0.717779 3.61501 0.882713
-0.70203 3.60545 0.890092
-0.703547 3.59781 0.886879
-0.55843 3.59213 0.954974
-0.627693 3.58652 0.915835
-0.595584 3.58101 0.927313
-0.667252 3.57641 0.88597
-0.703239 3.5729 0.861338
-0.660912 3.56946 0.875807
-0.49023 3.56611 0.954387
-0.688136 3.56284 0.848599
-0.883442 3.55891 0.744835
-0.72398 3.55659 0.816753
-0.695347 3.55363 0.823964
-0.653649 3.55157 0.83674
-0.774994 3.54884 0.768741
-0.801036 3.54623 0.748275
-0.74252 3.54375 0.76996
-0.780651 3.54222 0.74231
-0.652621 3.54029 0.798173
-0.770333 3.53816 0.731402
-0.635335 3.53699 0.789948
-0.615975 3.53605 0.790416
-0.865847 3.5343 0.657181
-0.718418 3.5327 0.722432
-0.83462 3.53196 0.654922
-0.695662 3.53061 0.715685
-0.861436 3.53023 0.622998
-0.81469 3.5292 0.637297
-0.645791 3.52875 0.712031
-0.789018 3.52798 0.631067
-0.665696 3.52738 0.683188
-0.877508 3.52777 0.566628
-0.822548 3.52762 0.58406
-0.759519 3.52745 0.605548
-0.593515 3.52744 0.678355
-0.637956 3.52753 0.645812
-0.758625 3.5278 0.574954
-0.845464 3.52906 0.51987
-0.45727 3.52967 0.70304
-0.929633 3.53045 0.45573
-0.839043 3.53141 0.489695
-0.854405 3.53253 0.470485
-0.679199 3.53534 0.544587
-0.834381 3.53687 0.454973
-0.655961 3.53946 0.530912
-0.666239 3.54321 0.511125
-0.689878 3.54647 0.485213
-0.604694 3.5513 0.51184
-0.652887 3.55665 0.471139
-0.478922 3.56793 0.534457
-0.511767 3.6416 0.981377
-0.607169 3.62572 0.939622
-0.715345 3.61611 0.88505
-0.458541 3.60844 1.01101
-0.748741 3.60274 0.861453
-0.64699 3.59711 0.90783
-0.748462 3.59157 0.852526
-0.674722 3.58795 0.882845
-0.848886 3.58264 0.79102
-0.696528 3.57919 0.860514
-0.653369 3.57661 0.874503
-0.706206 3.57333 0.841257
-0.746529 3.57014 0.814185
-0.57337 3.56705 0.893765
-0.723005 3.56407 0.81185
-0.958922 3.56121 0.686689
-0.819571 3.55927 0.748185
-0.701008 3.55665 0.800028
-0.966897 3.55416 0.659518
-0.853438 3.55297 0.707287
-0.810523 3.55068 0.72098
-0.769263 3.54854 0.733702
-0.960795 3.54736 0.628993
-0.763152 3.54642 0.718608
-0.804466 3.54466 0.689658
-0.96322 3.54306 0.601824
-0.75026 3.54231 0.6989
-0.825285 3.54095 0.652678
-0.688562 3.54033 0.71151
-0.631104 3.53954 0.730909
-0.884688 3.53908 0.594407
-0.8721 3.53831 0.591356
-0.760964 3.53771 0.637391
-0.876493 3.53747 0.569682
-0.721114 3.53728 0.63738
-0.703721 3.53777 0.635303
-0.618744 3.53776 0.667601
-0.85526 3.53785 0.539025
-0.764946 3.53812 0.573664
-0.696792 3.53938 0.596085
-0.665292 3.54 0.600912
-0.679528 3.54078 0.58267
-0.747888 3.54174 0.537165
-0.757205 3.54287 0.520981
-0.6229 3.54568 0.57464
-0.714048 3.54722 0.517047
-0.842206 3.54982 0.4397
-0.79738 3.55276 0.448428
-0.538492 3.55685 0.562825
-0.575101 3.56044 0.530041
-0.666542 3.56707 0.466233
-0.529946 3.57681 0.512733
-0.654316 3.65269 0.911357
-0.504126 3.63565 0.993537
-0.539957 3.626 0.975154
-0.774565 3.61907 0.854614
-0.849565 3.61335 0.812668
-0.605674 3.60769 0.930124
-0.782339 3.60214 0.837232
-0.977245 3.5985 0.733236
-0.733936 3.59316 0.850155
-0.721405 3.5897 0.849744
-0.872025 3.58631 0.767691
-0.797866 3.58381 0.797113
-0.784607 3.58061 0.79684
-0.827589 3.57751 0.768355
-0.65904 3.57452 0.845539
-0.676622 3.57164 0.829552
-0.844679 3.56889 0.738216
-0.802014 3.56706 0.751256
-0.663081 3.56456 0.813164
-0.724278 3.56336 0.773611
-0.842903 3.56107 0.70654
-0.655184 3.55892 0.792498
-0.720129 3.55773 0.751093
-0.633568 3.55598 0.786057
-0.739858 3.55502 0.723741
-0.705193 3.5534 0.732622
-0.9333 3.55266 0.609171
-0.878109 3.55129 0.628063
-0.738689 3.55009 0.688893
-0.715394 3.54955 0.690928
-0.818402 3.54941 0.629368
-0.739169 3.54863 0.659645
-0.686732 3.54803 0.676335
-0.874938 3.54779 0.572294
-0.691315 3.54745 0.654288
-0.788016 3.54809 0.595003
-0.830714 3.54807 0.563469
-0.669639 3.54817 0.633694
-0.691244 3.54844 0.612378
-0.774976 3.54888 0.559797
-0.755007 3.55032 0.557931
-0.741235 3.55111 0.553697
-0.649743 3.55207 0.588122
-0.663758 3.5532 0.569593
-0.681751 3.5545 0.548876
-0.616754 3.55756 0.567593
-0.697759 3.55926 0.514882
-0.812314 3.5621 0.444057
-0.655691 3.56528 0.508411
-0.790809 3.57083 0.4241
-0.399437 3.5761 0.603335
-0.530896 3.58646 0.515127
-0.544093 3.6653 0.966141
-0.67141 3.64712 0.910689
-0.754321 3.63744 0.868772
-0.653871 3.6297 0.916573
-0.831661 3.62317 0.824048
-0.711279 3.61827 0.878951
-0.720028 3.61269 0.870026
-0.707746 3.60904 0.86963
-0.72193 3.60369 0.857812
-0.75047 3.60021 0.836872
-0.89176 3.59681 0.759491
-0.790377 3.5935 0.803373
-0.739111 3.59108 0.821273
-0.883745 3.58796 0.74197
-0.735258 3.58496 0.80913
-0.702251 3.58207 0.818445
-0.779879 3.57931 0.772329
-0.815715 3.57666 0.746989
-0.931591 3.57539 0.680168
-0.70701 3.57375 0.783982
-0.851292 3.57145 0.704089
-0.787634 3.56929 0.728023
-0.873061 3.56827 0.676191
-0.814576 3.56634 0.697314
-0.741301 3.56537 0.724791
-0.984555 3.56375 0.594719
-0.808524 3.563 0.673342
-0.747015 3.56163 0.695398
-0.727781 3.56042 0.696141
-0.76583 3.55988 0.66751
-0.776128 3.55938 0.652709
-0.911739 3.55895 0.575175
-0.830171 3.55835 0.606436
-0.944014 3.55811 0.539581
-0.961567 3.55776 0.520993
-0.868404 3.55765 0.557495
-0.856049 3.55839 0.552647
-0.628337 3.55848 0.656194
-0.789508 3.55875 0.5651
-0.788535 3.5592 0.554876
-0.827586 3.55982 0.52444
-0.598551 3.56143 0.626911
-0.784132 3.56239 0.522803
-0.718664 3.56353 0.54402
-0.685488 3.56483 0.548891
-0.730947 3.56791 0.512388
-0.697985 3.56961 0.516663
-0.575693 3.57246 0.564265
-0.59698 3.57565 0.539667
-0.765974 3.58122 0.438423
-0.622463 3.58651 0.493728
-0.672281 3.59534 0.448177
-0.598479 3.67792 0.938625
-0.694583 3.65898 0.899488
-0.604637 3.64927 0.944001
-0.802048 3.64149 0.842892
-0.836094 3.63378 0.823441
-0.81356 3.62807 0.830241
-0.81137 3.62325 0.825985
-0.752969 3.61958 0.848657
-0.730914 3.61499 0.854144
-0.936252 3.61071 0.745635
-0.675741 3.6073 0.869162
-0.691795 3.60398 0.854331
-0.691994 3.60075 0.847347
-0.764427 3.59762 0.804155
-0.635032 3.5954 0.860936
-0.87418 3.5925 0.73418
-0.658479 3.58972 0.834735
-0.740543 3.58707 0.786288
-0.844161 3.58579 0.725602
-0.774187 3.58334 0.752984
-0.852248 3.58183 0.705346
-0.781009 3.57966 0.733077
-0.72175 3.57864 0.753594
-0.87831 3.5767 0.667201
-0.839032 3.57491 0.678568
-0.765675 3.57408 0.705944
-1.02862 3.57334 0.56507
-0.780678 3.57196 0.680348
-0.711195 3.57075 0.706222
-1.01051 3.5702 0.546961
-0.802392 3.56925 0.641882
-0.669997 3.56927 0.697854
-1.00422 3.56894 0.520908
-0.874508 3.56842 0.576152
-0.580144 3.56807 0.713527
-0.91781 3.5679 0.534691
-0.769885 3.5687 0.597565
-0.694691 3.56879 0.624859
-0.608379 3.56906 0.657511
-0.686781 3.56926 0.607884
-0.761584 3.5698 0.559675
-0.802384 3.57051 0.528266
-0.85058 3.57271 0.491447
-0.785828 3.57385 0.51231
-0.733697 3.57516 0.526663
-0.765093 3.57743 0.498137
-0.616295 3.57996 0.559396
-0.529279 3.58282 0.589362
-0.729387 3.58602 0.475355
-0.611205 3.59079 0.518651
-0.68891 3.59691 0.462403
-0.577566 3.60579 0.49743
-0.806491 3.69129 0.833526
-0.601177 3.66968 0.947762
-0.661373 3.65993 0.917216
-0.66084 3.65212 0.915088
-0.665471 3.64437 0.910356
-0.711212 3.63865 0.883026
-0.67035 3.63488 0.896997
-0.811243 3.62934 0.821963
-0.748176 3.62572 0.846933
-0.782429 3.62121 0.824193
-0.9385 3.61779 0.739436
-0.73563 3.61445 0.834074
-0.769441 3.61121 0.810291
-0.833883 3.60807 0.771101
-0.903193 3.60504 0.72938
-0.72423 3.60292 0.810847
-0.675929 3.60013 0.827709
-0.733219 3.59827 0.790804
-0.820521 3.59619 0.739133
-0.730562 3.59372 0.776514
-0.769429 3.5922 0.748484
-0.678146 3.59003 0.786243
-0.817834 3.589 0.707292
-0.857423 3.58705 0.679391
-0.928572 3.58526 0.635551
-0.733868 3.58442 0.723605
-0.781439 3.58362 0.690482
-0.768349 3.58229 0.688286
-0.710302 3.58166 0.707801
-0.877251 3.58053 0.615376
-0.84368 3.57956 0.623029
-0.933918 3.57915 0.568177
-0.607967 3.57925 0.72084
-0.7684 3.57873 0.631016
-0.863549 3.57838 0.57364
-0.77165 3.57821 0.609592
-0.88466 3.57819 0.542918
-0.747959 3.57821 0.601051
-0.835692 3.57921 0.545872
-0.768941 3.57957 0.568647
-0.727922 3.58011 0.578354
-0.733101 3.58082 0.564759
-0.737178 3.58252 0.550587
-0.689603 3.58417 0.562287
-0.602251 3.58548 0.594254
-0.773383 3.58696 0.496782
-0.553738 3.58948 0.593489
-0.794595 3.59317 0.458585
-0.625301 3.59639 0.529282
-0.678163 3.59993 0.488506
-0.536002 3.60513 0.543293
-0.708374 3.61467 0.435726
-0.567451 3.67961 0.96697
-0.648464 3.66982 0.926031
-0.555256 3.66197 0.970256
-0.733976 3.65574 0.876902
-0.835057 3.64922 0.822708
-0.863507 3.64544 0.80203
-0.759483 3.63987 0.849463
-0.682661 3.63624 0.881318
-0.876572 3.63092 0.779577
-0.882053 3.62827 0.769305
-0.705366 3.62492 0.85086
-0.797793 3.62166 0.797775
-0.658983 3.61851 0.860219
-0.650856 3.61547 0.857223
-0.811448 3.61255 0.769762
-1.00001 3.61054 0.667358
-0.851187 3.60918 0.732964
-0.718678 3.60658 0.791758
-0.80487 3.6041 0.74107
-0.891506 3.60177 0.690024
-0.931519 3.60066 0.660989
-0.754204 3.59935 0.740839
-0.853734 3.5974 0.682974
-0.800583 3.5956 0.70129
-0.846334 3.59476 0.669122
-0.817198 3.5932 0.675185
-0.732875 3.59261 0.707789
-0.906568 3.59198 0.611439
-0.751672 3.59084 0.679943
-0.847242 3.58988 0.62303
-0.758407 3.58946 0.65772
-0.824061 3.58908 0.615119
-0.718478 3.58903 0.657779
-0.691126 3.58868 0.661659
-0.778328 3.58851 0.608065
-0.85245 3.58849 0.56084
-0.774757 3.58852 0.589474
-0.694067 3.58951 0.618515
-0.828901 3.58987 0.540502
-0.790492 3.59041 0.548908
-0.662394 3.59113 0.601957
-0.647239 3.59202 0.598332
-0.770104 3.59449 0.523892
-0.671487 3.59581 0.561496
-0.678555 3.59729 0.54606
-0.726546 3.59982 0.508952
-0.579624 3.60352 0.567944
-0.695523 3.60675 0.496047
-0.511074 3.6103 0.573928
-0.649956 3.61552 0.488195
-0.638199 3.6251 0.472694
-0.728546 3.69031 0.887977
-0.644003 3.68047 0.929827
-0.718237 3.6726 0.890341
-0.705701 3.66673 0.892228
-0.646321 3.6617 0.916707
-0.626434 3.65599 0.922171
-0.684235 3.6504 0.8887
-0.773611 3.64675 0.837463
-0.799324 3.6422 0.819016
-0.846741 3.63796 0.789417
-0.831084 3.63538 0.789647
-0.749976 3.63212 0.823336
-0.751827 3.62895 0.815457
-0.784455 3.6259 0.79209
-0.896403 3.62296 0.728958
-0.818695 3.62094 0.759701
-0.730654 3.61958 0.79492
-0.741519 3.61696 0.782033
-0.801989 3.61448 0.744214
-0.846267 3.61214 0.714352
-0.821109 3.61103 0.717909
-0.711687 3.60971 0.763822
-0.671401 3.60774 0.775871
-0.849249 3.60674 0.677826
-0.768013 3.60509 0.710025
-0.579022 3.60353 0.796022
-0.801618 3.60281 0.675314
-0.877682 3.6023 0.627646
-0.863214 3.60116 0.62594
-0.791532 3.60019 0.65266
-0.840258 3.59977 0.618574
-0.830708 3.59906 0.613947
-0.682884 3.59877 0.677995
-0.816597 3.59898 0.600722
-0.684628 3.59887 0.656648
-0.743362 3.59879 0.617194
-0.732711 3.59881 0.612311
-0.667993 3.599 0.634283
-0.71701 3.60017 0.598275
-0.74744 3.60071 0.572266
-0.704701 3.60143 0.58264
-0.712921 3.60232 0.567331
-0.726635 3.60339 0.549074
-0.645558 3.60612 0.576313
-0.681688 3.60761 0.546349
-0.744179 3.61015 0.501994
-0.695565 3.61205 0.51392
-0.696616 3.61598 0.498652
-0.651452 3.62067 0.505609
-0.586964 3.62591 0.521562
-0.757416 3.63318 0.417674
-0.699711 3.70296 0.901954
-0.730712 3.69112 0.888031
-0.740139 3.68322 0.880958
-0.724052 3.67733 0.884629
-0.681171 3.6715 0.901663
-0.816429 3.66577 0.829566
-0.707377 3.66093 0.878735
-0.774665 3.65727 0.838548
-1.01843 3.65368 0.71007
-0.695396 3.64844 0.866718
-0.804274 3.64506 0.805507
-0.835293 3.64257 0.782323
-0.947338 3.63939 0.719354
-0.796091 3.63632 0.787931
-0.923228 3.63338 0.717211
-0.808302 3.63195 0.765936
-0.761069 3.62918 0.782233
-0.866025 3.62735 0.721469
-0.875383 3.62486 0.709212
-1.08811 3.62251 0.595131
-0.927773 3.62139 0.666284
-0.682774 3.61926 0.780852
-0.879157 3.61808 0.673716
-0.88936 3.61716 0.659413
-0.889755 3.61542 0.650889
-0.721702 3.61385 0.726422
-0.817189 3.61313 0.669274
-0.871117 3.61181 0.633558
-0.900633 3.61147 0.608992
-0.953239 3.61049 0.573573
-0.800894 3.61007 0.640028
-0.721864 3.60936 0.670146
-0.717876 3.60883 0.662551
-0.843016 3.60928 0.589305
-0.822821 3.60917 0.589348
-0.771232 3.60908 0.60506
-0.787732 3.60911 0.586606
-0.68391 3.60929 0.628135
-0.827923 3.61047 0.544637
-0.706115 3.61101 0.594753
-0.806954 3.61173 0.533341
-0.778284 3.61263 0.536482
-0.691115 3.6137 0.56867
-0.714463 3.61644 0.543704
-0.651916 3.61793 0.563082
-0.640208 3.61959 0.556845
-0.701107 3.62238 0.513003
-0.638845 3.62552 0.530325
-0.79966 3.63104 0.433367
-0.544615 3.6363 0.544599
-0.650052 3.64359 0.473218
-0.59097 3.7129 0.95863
-0.73762 3.70177 0.886129
-0.762677 3.69383 0.871251
-0.747303 3.68792 0.874573
-0.519481 3.68207 0.984086
-0.812578 3.67631 0.833078
-0.823668 3.67068 0.822984
-0.678747 3.66778 0.888113
-0.727559 3.66417 0.857118
-0.768282 3.65891 0.831896
-0.916284 3.65552 0.75113
-0.863405 3.65223 0.770722
-0.723645 3.64982 0.832845
-0.696178 3.64674 0.839539
-0.743562 3.64378 0.808703
-0.955365 3.64235 0.694069
-0.819888 3.63958 0.754494
-0.788584 3.63694 0.762708
-0.688407 3.63523 0.804387
-0.710755 3.63366 0.784658
-0.708559 3.63174 0.77759
-0.738176 3.62961 0.754857
-0.776831 3.62762 0.72745
-0.617985 3.62749 0.796821
-0.878953 3.62575 0.658017
-0.774557 3.62417 0.701728
-0.71991 3.62345 0.719652
-0.803735 3.62212 0.668994
-0.764476 3.62152 0.679095
-0.874149 3.62126 0.614367
-0.774277 3.62037 0.6551
-0.834738 3.61966 0.615478
-0.857605 3.61912 0.594461
-0.756289 3.61892 0.635169
-0.782859 3.61946 0.611117
-0.780948 3.61938 0.601996
-0.888481 3.6194 0.53803
-0.680629 3.61959 0.631578
-0.604637 3.61995 0.658994
-0.803597 3.62131 0.547827
-0.689622 3.62203 0.593827
-0.683551 3.62293 0.585673
-0.667505 3.624 0.582303
-0.855397 3.62525 0.476764
-0.585769 3.62825 0.597995
-0.867576 3.62991 0.445003
-0.769736 3.63272 0.480534
-0.643304 3.63587 0.529944
-0.560676 3.63936 0.557049
-0.712905 3.64531 0.46388
-0.848693 3.65248 0.377503
-0.599594 3.67246 0.468764
-0.69121 3.72359 0.910039
-0.661114 3.71318 0.925155
-0.874457 3.70368 0.81769
-0.761611 3.69851 0.868981
-0.69009 3.69264 0.900353
-0.647074 3.68686 0.91741
-0.704099 3.68197 0.883564
-0.635414 3.67751 0.912174
-0.844973 3.67466 0.800017
-0.907719 3.67112 0.761999
-0.880005 3.66598 0.77089
-0.719369 3.66267 0.844368
-0.970305 3.65947 0.711969
-0.828064 3.65716 0.775241
-0.73346 3.65566 0.813868
-0.988907 3.65275 0.678955
-0.922658 3.64997 0.704773
-0.782494 3.64731 0.767424
-0.857414 3.64559 0.721564
-0.905823 3.64439 0.688422
-0.743045 3.64209 0.762039
-0.835363 3.63995 0.707961
-0.845592 3.63796 0.694774
-0.769673 3.63703 0.723544
-0.8611 3.63608 0.668663
-0.792714 3.63449 0.694374
-0.751851 3.63376 0.705411
-0.902989 3.63243 0.621102
-0.802769 3.63127 0.662294
-0.896778 3.63156 0.604803
-0.875563 3.63067 0.606213
-0.8369 3.62995 0.616159
-0.774786 3.62941 0.637637
-0.792572 3.62921 0.618799
-0.891786 3.62906 0.559199
-0.790722 3.62966 0.598894
-0.553728 3.62969 0.707196
-0.695175 3.62988 0.6261
-0.645588 3.63024 0.640318
-0.710476 3.6316 0.596195
-0.778504 3.63232 0.551198
-0.713895 3.63323 0.572317
-0.745589 3.6343 0.545082
-0.751107 3.63556 0.530733
-0.739767 3.63856 0.522827
-0.853801 3.64023 0.453726
-0.441544 3.64305 0.646467
-0.731433 3.64621 0.487719
-0.726158 3.64971 0.47615
-0.748714 3.65569 0.447822
-0.597386 3.66288 0.505003
-0.625723 3.67937 0.461642
-0.773105 3.73428 0.870613
-0.748913 3.7243 0.882317
-0.634162 3.71629 0.937367
-0.516129 3.70833 0.994053
-0.773745 3.7032 0.860089
-0.973111 3.6974 0.755964
-0.701849 3.6936 0.885147
-0.709938 3.68801 0.8765
-0.878458 3.68437 0.785669
-0.735138 3.6816 0.849895
-0.811782 3.67643 0.806614
-0.710921 3.67311 0.850212
-0.93547 3.6699 0.731014
-0.922327 3.66833 0.728966
-0.807255 3.66607 0.778613
-0.715495 3.66315 0.81731
-0.78751 3.66035 0.774002
-0.784733 3.65769 0.767967
-0.798326 3.65516 0.753614
-0.802913 3.65475 0.741554
-0.743584 3.65244 0.763454
-0.802088 3.65029 0.726289
-0.707271 3.64927 0.76459
-0.768144 3.64735 0.72601
-0.943278 3.6464 0.629286
-0.787006 3.64481 0.698946
-0.79313 3.64407 0.686495
-0.621614 3.64274 0.763519
-0.829352 3.64158 0.650736
-0.738729 3.64106 0.686439
-0.866446 3.64096 0.61252
-0.788781 3.64024 0.641972
-0.74143 3.6397 0.656074
-0.707467 3.6395 0.663115
-0.847093 3.63923 0.583436
-0.767732 3.63995 0.612166
-0.598238 3.63997 0.686723
-0.878955 3.64016 0.535997
-0.851668 3.64053 0.539069
-0.765926 3.64108 0.571167
-0.802089 3.64261 0.541209
-0.98629 3.64352 0.437927
-0.848198 3.6446 0.495589
-0.938891 3.64586 0.438657
-0.73695 3.64806 0.526967
-0.787937 3.65055 0.488484
-0.851981 3.65337 0.443079
-0.688552 3.65655 0.510992
-0.694784 3.66007 0.493671
-0.495213 3.66525 0.577329
-0.614971 3.67328 0.498049
-0.640612 3.68807 0.458047
-0.806745 3.74497 0.855308
-0.656077 3.73495 0.930261
-0.73126 3.72691 0.890354
-0.828007 3.71891 0.839659
-0.766323 3.71299 0.866132
-0.670282 3.70794 0.908943
-0.617469 3.70412 0.928909
-0.815003 3.69851 0.825548
-0.845969 3.69486 0.8035
-0.790916 3.69129 0.8244
-0.826376 3.68859 0.799173
-0.875361 3.68433 0.768799
-0.756729 3.68192 0.82035
-0.845764 3.67875 0.768872
-0.972198 3.67569 0.698592
-0.7878 3.67354 0.782799
-0.874911 3.67073 0.731951
-0.838001 3.66806 0.742987
-0.901592 3.66553 0.703642
-0.833244 3.66431 0.728892
-0.791914 3.66279 0.740965
-0.863423 3.66063 0.697304
-0.911114 3.65961 0.664356
-0.944451 3.65768 0.639551
-0.860172 3.65592 0.673391
-0.826473 3.65589 0.680092
-0.778352 3.65438 0.695599
-0.897631 3.65304 0.627231
-0.805635 3.65187 0.66432
-0.809486 3.65135 0.652792
-0.897582 3.65088 0.599096
-0.831403 3.65053 0.622406
-0.709354 3.65024 0.673592
-0.909571 3.64978 0.563819
-0.844279 3.64951 0.586604
-0.833792 3.64945 0.581765
-0.812258 3.65026 0.581487
-0.789794 3.65044 0.582356
-0.854788 3.65081 0.539293
-0.992435 3.65136 0.4597
-0.844232 3.65209 0.522829
-0.828851 3.65381 0.518447
-0.688282 3.65489 0.577351
-0.67359 3.65616 0.573115
-0.654582 3.65759 0.570838
-0.723004 3.66006 0.523676
-0.829524 3.6637 0.456128
-0.630837 3.66688 0.541673
-0.705378 3.67041 0.4902
-0.693489 3.67562 0.480018
-0.57344 3.68136 0.523279
-0.648597 3.69677 0.457874
-0.604983 3.7569 0.956459
-0.772248 3.74559 0.873694
-0.834858 3.73752 0.840083
-0.757503 3.7295 0.876449
-0.791417 3.72355 0.855132
-0.909265 3.7177 0.791786
-0.667797 3.71464 0.90531
-0.676781 3.70901 0.896232
-0.745859 3.70534 0.855135
-0.763992 3.70176 0.839448
-0.868659 3.69826 0.780424
-0.807702 3.69564 0.803334
-0.640591 3.69235 0.88003
-0.912152 3.68916 0.737296
-0.851513 3.68609 0.760558
-0.746457 3.68315 0.80592
-0.879846 3.68111 0.731124
-0.923413 3.67843 0.701929
-0.868974 3.67714 0.720293
-0.902111 3.67467 0.696117
-0.848573 3.67234 0.715137
-0.841884 3.67096 0.709749
-0.994016 3.66994 0.624586
-0.791001 3.668 0.717963
-0.889053 3.66623 0.660643
-0.791907 3.66541 0.699924
-0.742361 3.66469 0.715301
-0.914109 3.66334 0.620704
-0.857417 3.66273 0.639542
-0.857616 3.66165 0.63045
-0.72584 3.66074 0.68716
-0.86033 3.66081 0.609681
-0.783606 3.66052 0.638209
-1.01666 3.66007 0.512021
-0.847532 3.65979 0.58673
-0.736623 3.65971 0.632129
-0.808408 3.66053 0.585178
-0.670901 3.66072 0.643573
-0.801729 3.66109 0.567597
-0.722881 3.66134 0.596587
-0.741427 3.66199 0.576446
-0.654668 3.66409 0.60733
-0.834361 3.66519 0.506107
-0.808086 3.66645 0.507667
-0.727165 3.66789 0.536349
-0.659826 3.67037 0.557071
-0.759336 3.67222 0.49505
-0.849898 3.67611 0.435203
-0.668417 3.68076 0.510498
-0.700907 3.68463 0.479665
-0.620117 3.69175 0.501759
-0.584775 3.70549 0.493572
-0.735533 3.76759 0.89268
-0.821664 3.75548 0.851251
-0.693155 3.74737 0.913214
-0.690233 3.74008 0.911615
-0.822438 3.73411 0.841161
-0.765431 3.72824 0.86525
-0.816648 3.72439 0.833219
-0.850483 3.7195 0.810947
-0.938486 3.71582 0.760394
-0.797384 3.71223 0.824332
-0.83639 3.70872 0.798145
-0.855826 3.7053 0.781665
-0.725421 3.70277 0.839219
-0.919037 3.69957 0.735463
-0.771707 3.69649 0.802078
-0.929307 3.69353 0.716118
-0.827194 3.69149 0.759083
-0.796913 3.68879 0.766818
-0.810799 3.6875 0.751026
-0.854184 3.68502 0.721732
-0.727257 3.68268 0.777452
-0.68501 3.68129 0.789854
-0.809994 3.68026 0.71827
-0.940177 3.67832 0.645054
-0.820812 3.67654 0.696448
-0.721365 3.67572 0.736884
-0.811833 3.67493 0.682322
-0.962017 3.67364 0.598455
-0.85539 3.67303 0.642266
-0.785199 3.67194 0.668374
-0.814048 3.67103 0.644777
-1.01945 3.67064 0.532346
-0.894542 3.6708 0.584476
-0.963769 3.67034 0.540208
-0.817434 3.67007 0.603524
-0.76376 3.66998 0.62031
-0.834813 3.67001 0.57461
-0.700203 3.671 0.630685
-0.926143 3.67116 0.507386
-0.740478 3.67162 0.58956
-0.823053 3.67227 0.537409
-0.763916 3.67309 0.55591
-0.741145 3.67547 0.554503
-0.747172 3.67674 0.539915
-0.613521 3.67819 0.594966
-0.782311 3.68067 0.497627
-0.764599 3.68254 0.49422
-0.671462 3.68644 0.52623
-0.728693 3.68988 0.483546
-0.633155 3.69499 0.515352
-0.723388 3.70214 0.451935
-0.627394 3.71341 0.47692
-0.6542 3.77827 0.934836
-0.741465 3.76612 0.892851
-0.805839 3.75798 0.858383
-0.68442 3.75065 0.916045
-0.735774 3.74466 0.886024
-0.791551 3.73953 0.852961
-0.789712 3.7349 0.848234
-0.833481 3.72922 0.821783
-0.781623 3.7263 0.840391
-0.798189 3.72269 0.825502
-0.712492 3.71917 0.861673
-0.963653 3.71574 0.729337
-0.946304 3.71242 0.731169
-0.895172 3.70998 0.748998
-0.9201 3.70689 0.729491
-0.831404 3.70392 0.766685
-1.00388 3.70108 0.673178
-0.950025 3.69916 0.691895
-0.868228 3.69786 0.723949
-0.938977 3.69537 0.68098
-0.964477 3.69302 0.660493
-0.95078 3.69162 0.658629
-0.86435 3.69059 0.692757
-0.834687 3.68864 0.699469
-0.808871 3.68685 0.704096
-1.04916 3.68602 0.574668
-0.848907 3.68449 0.666262
-0.836031 3.68393 0.663146
-0.888889 3.68332 0.627218
-0.813505 3.68222 0.655929
-0.938055 3.68131 0.584486
-0.820456 3.68092 0.633559
-0.847706 3.68058 0.61016
-0.735237 3.68062 0.656206
-0.908573 3.68034 0.559691
-0.853186 3.68025 0.577339
-0.769959 3.68028 0.608783
-0.899141 3.68035 0.533972
-0.713128 3.68143 0.615653
-0.69026 3.6819 0.616432
-0.692354 3.68254 0.604526
-0.792693 3.68337 0.543294
-0.717924 3.68438 0.569411
-0.818207 3.68703 0.506181
-0.746602 3.68848 0.530213
-0.811312 3.6901 0.485889
-0.664429 3.69285 0.546098
-0.709587 3.69596 0.509864
-0.69191 3.70021 0.50374
-0.606928 3.70534 0.530269
-0.471676 3.71252 0.579594
-0.73865 3.72383 0.423091
-0.676855 3.78821 0.92573
-0.680471 3.77676 0.924843
-0.647275 3.76859 0.939169
-0.892834 3.76199 0.812598
-0.621829 3.75521 0.944522
-0.773568 3.75125 0.862294
-0.647594 3.74541 0.920832
-0.620259 3.74048 0.929169
-0.751435 3.73601 0.85782
-0.902347 3.73315 0.774988
-0.76635 3.72961 0.836316
-0.744449 3.72617 0.840517
-0.927058 3.72284 0.742376
-1.00654 3.72039 0.694909
-0.763345 3.71728 0.80947
-0.754587 3.7143 0.806702
-0.810248 3.71145 0.771607
-0.757589 3.70952 0.789737
-0.726154 3.70821 0.796617
-0.798171 3.70571 0.753019
-0.939466 3.70336 0.67464
-1.01424 3.70224 0.628247
-0.81564 3.70012 0.719595
-0.833989 3.69895 0.701482
-0.987598 3.69716 0.616402
-0.914963 3.69633 0.643442
-0.715516 3.69479 0.734638
-0.807338 3.69409 0.679324
-0.857227 3.6936 0.644744
-0.83136 3.69251 0.648701
-0.798681 3.69159 0.655878
-0.640286 3.6912 0.725354
-0.765165 3.69055 0.653467
-0.683701 3.69089 0.683698
-0.994381 3.69061 0.518516
-0.812909 3.69055 0.599188
-0.808311 3.69052 0.591372
-0.792483 3.69062 0.589044
-0.977898 3.6917 0.485019
-0.90937 3.69217 0.508633
-0.782856 3.69282 0.561035
-0.946762 3.69365 0.468023
-0.941546 3.69466 0.459368
-0.763076 3.69732 0.535522
-0.690191 3.69877 0.560197
-0.774483 3.7004 0.506086
-0.740774 3.70315 0.509711
-0.646165 3.70627 0.543362
-0.663006 3.70975 0.520879
-0.656213 3.71569 0.507422
-0.659606 3.72139 0.489115
-0.607132 3.73255 0.492561
-0.651304 3.79889 0.939977
-0.688227 3.78739 0.922452
-0.753557 3.77919 0.887524
-0.766787 3.77307 0.876629
-0.718164 3.765 0.898628
-0.876132 3.76103 0.813296
-0.727365 3.75592 0.882479
-0.922326 3.75209 0.778555
-0.671146 3.74648 0.899511
-0.910251 3.74284 0.77337
-0.691613 3.74006 0.875248
-0.871192 3.7366 0.778717
-0.889677 3.73326 0.762644
-0.924572 3.73002 0.738272
-0.862166 3.72768 0.761654
-0.853638 3.72468 0.758777
-1.01253 3.72182 0.672072
-0.878407 3.72044 0.730365
-0.904079 3.71778 0.710085
-0.868744 3.71605 0.719361
-0.847626 3.71369 0.722195
-1.02767 3.71257 0.623172
-0.61315 3.71044 0.822486
-0.940765 3.70926 0.64975
-0.862396 3.70834 0.679743
-0.789416 3.70663 0.707882
-0.797229 3.70508 0.695453
-0.884664 3.70438 0.642338
-0.778244 3.70371 0.686107
-0.860963 3.70279 0.635592
-0.87599 3.70186 0.618921
-0.848713 3.70147 0.622842
-0.797919 3.70083 0.638797
-0.703033 3.70057 0.676379
-0.954912 3.70088 0.539971
-0.780514 3.70081 0.617111
-0.91545 3.70079 0.539533
-0.864095 3.70089 0.554973
-0.783188 3.70117 0.584986
-0.848603 3.70244 0.540763
-0.803515 3.70309 0.552457
-0.815425 3.70392 0.535447
-0.74692 3.70494 0.558441
-0.829523 3.70614 0.505678
-0.777019 3.70906 0.518554
-0.690388 3.71069 0.549908
-0.567898 3.71346 0.597926
-0.607082 3.71659 0.564684
-0.920863 3.72008 0.393732
-0.615396 3.72604 0.529617
-0.760548 3.73176 0.440432
-0.71472 3.74296 0.440551
-0.64546 3.81161 0.942374
-0.578631 3.79933 0.977445
-0.833493 3.78979 0.849045
-0.792309 3.78365 0.865365
-0.887085 3.77756 0.813681
-0.780575 3.77156 0.862588
-0.786916 3.76643 0.854229
-0.762488 3.76258 0.860006
-0.889965 3.75695 0.791642
-0.768261 3.75329 0.845911
-0.691418 3.7505 0.876903
-0.866131 3.74703 0.78281
-0.878265 3.74367 0.769921
-0.834923 3.74042 0.784674
-0.823643 3.73729 0.783293
-0.776517 3.73506 0.798931
-0.866424 3.73218 0.746726
-0.802137 3.7308 0.770105
-0.931643 3.72813 0.697914
-0.831517 3.72639 0.739595
-0.953123 3.72402 0.671074
-0.76283 3.72289 0.757225
-0.913689 3.72076 0.673855
-0.755951 3.71878 0.744626
-0.944252 3.71865 0.640468
-0.829036 3.71693 0.689731
-0.768746 3.71538 0.711359
-0.807281 3.71467 0.682699
-0.748464 3.71338 0.703327
-0.836593 3.71306 0.649461
-0.819362 3.71214 0.648924
-0.899649 3.71174 0.599068
-0.868421 3.71109 0.605245
-1.05517 3.71063 0.502238
-1.1126 3.71115 0.462839
-0.625626 3.71108 0.696272
-0.681589 3.71106 0.658185
-0.760164 3.71115 0.608665
-0.825362 3.71144 0.56563
-0.905168 3.7127 0.51422
-0.689409 3.71336 0.611253
-0.832293 3.71419 0.528761
-0.630087 3.71522 0.618609
-0.674883 3.71642 0.584753
-0.833442 3.71935 0.492105
-0.827377 3.72099 0.483179
-0.651823 3.72376 0.557732
-0.721861 3.72691 0.509065
-0.652394 3.7304 0.52974
-0.702291 3.73424 0.490338
-0.55271 3.74213 0.54613
-0.748939 3.75168 0.42711
-0.818841 3.82229 0.857141
-0.851654 3.80997 0.842401
-0.710713 3.79964 0.912657
-0.651711 3.79422 0.937155
-0.815251 3.78811 0.851097
-0.853158 3.78208 0.827804
-0.800581 3.77617 0.849671
-0.778148 3.77307 0.853701
-0.948692 3.76742 0.763811
-0.722306 3.76375 0.870428
-0.705855 3.76017 0.872007
-0.908218 3.75746 0.763323
-0.812743 3.75408 0.804244
-0.912406 3.75082 0.747501
-0.898755 3.74768 0.747312
-0.746517 3.74543 0.815516
-0.874932 3.74255 0.744063
-0.783384 3.74116 0.781079
-0.62608 3.73848 0.852299
-0.773199 3.73595 0.771172
-0.890702 3.73435 0.703904
-0.856926 3.73322 0.711802
-0.833658 3.73107 0.715501
-0.859522 3.72909 0.694477
-0.754405 3.72816 0.737857
-1.02019 3.72722 0.595804
-0.773153 3.72566 0.710812
-1.05453 3.72495 0.560735
-0.78667 3.72366 0.685891
-0.902206 3.72308 0.618602
-0.891662 3.72285 0.613988
-0.653739 3.72201 0.72371
-0.860344 3.72136 0.610975
-0.832069 3.72089 0.615485
-0.869157 3.72073 0.586992
-0.759166 3.72134 0.631211
-0.752008 3.72132 0.62469
-0.833831 3.72141 0.57355
-0.833956 3.7217 0.563056
-0.819607 3.72217 0.559595
-0.784343 3.72362 0.565522
-0.765162 3.72446 0.564066
-0.626785 3.72549 0.622003
-0.746752 3.72669 0.550566
-0.706298 3.72883 0.558306
-0.714115 3.73128 0.541568
-0.837757 3.73406 0.466526
-0.710737 3.73612 0.517597
-0.868705 3.74073 0.42335
-0.79393 3.74458 0.446286
-0.538895 3.75021 0.55735
-0.565243 3.76208 0.520727
-0.655965 3.83223 0.940751
-0.725907 3.82061 0.906736
-0.731314 3.81023 0.903828
-0.716349 3.80404 0.907058
-0.750909 3.79866 0.884759
-0.774743 3.79261 0.86851
-0.930623 3.78668 0.786157
-0.908652 3.7828 0.790722
-0.787868 3.77788 0.845749
-0.738503 3.7742 0.863862
-0.818013 3.77061 0.817466
-0.947241 3.76711 0.746133
-0.882482 3.76449 0.77093
-0.917703 3.76122 0.746414
-1.05725 3.75806 0.669631
-0.940554 3.75503 0.720863
-0.931678 3.75369 0.716484
-1.12411 3.75151 0.612306
-0.925723 3.74882 0.704073
-0.833336 3.74628 0.742705
-0.774325 3.74467 0.763704
-0.912637 3.74354 0.685563
-0.87707 3.74138 0.695418
-1.00696 3.73939 0.622389
-0.850604 3.73846 0.691391
-0.818617 3.73751 0.698235
-0.802723 3.73595 0.697676
-0.731356 3.73523 0.723976
-0.840331 3.73394 0.66072
-0.91751 3.73282 0.613178
-0.734269 3.73312 0.694358
-0.841963 3.73228 0.631276
-0.936285 3.73163 0.574688
-0.679701 3.73116 0.693357
-0.952271 3.73099 0.547128
-0.838907 3.73088 0.593815
-0.75569 3.73158 0.624555
-0.642378 3.73167 0.670987
-0.826034 3.73196 0.568732
-0.893307 3.73243 0.524464
-0.825982 3.73388 0.54643
-0.813812 3.73473 0.541472
-0.805015 3.73576 0.534623
-0.831889 3.73697 0.509736
-0.871629 3.73835 0.478213
-0.801985 3.74077 0.500254
-0.773029 3.74436 0.500642
-0.89212 3.74643 0.428661
-0.664206 3.74984 0.528696
-0.716882 3.75491 0.486569
-0.604923 3.76056 0.526096
-0.654358 3.77001 0.480673
-0.675018 3.84292 0.932664
-0.698671 3.8305 0.922533
-0.647057 3.82158 0.94669
-0.690764 3.81461 0.921324
-0.753524 3.80845 0.885675
-0.843168 3.80313 0.83579
-0.846366 3.79718 0.829786
-0.80645 3.79329 0.84333
-1.01941 3.78835 0.731496
-0.77855 3.78465 0.845363
-0.840807 3.78104 0.8076
-0.932236 3.77753 0.755172
-0.867985 3.7749 0.779727
-0.858693 3.77161 0.777474
-0.866908 3.76844 0.766365
-0.889678 3.7654 0.747868
-0.745888 3.76393 0.811075
-0.896366 3.76186 0.72776
-0.735624 3.75917 0.800711
-0.967823 3.75661 0.677056
-0.924093 3.75539 0.690014
-0.83875 3.75385 0.724116
-0.866048 3.75169 0.702544
-1.08834 3.7497 0.583318
-0.748589 3.74876 0.744024
-0.880695 3.74702 0.669646
-0.836005 3.74623 0.682676
-0.870745 3.74552 0.655928
-0.738188 3.74421 0.713443
-0.86561 3.74309 0.640784
-0.854419 3.7426 0.636778
-0.790383 3.74255 0.658736
-0.676216 3.74189 0.706397
-0.86175 3.74142 0.604013
-0.832531 3.74125 0.608682
-0.802308 3.74113 0.613804
-0.971951 3.74183 0.518122
-0.764861 3.74193 0.611448
-0.875564 3.74221 0.545674
-0.766323 3.74269 0.589667
-0.798291 3.74335 0.562851
-0.749796 3.74499 0.575203
-0.865386 3.74602 0.506165
-0.862437 3.74724 0.496193
-0.626632 3.74863 0.602447
-0.690605 3.75105 0.557682
-0.930726 3.75288 0.425478
-0.696929 3.75673 0.528004
-0.760271 3.76015 0.482413
-0.732634 3.76525 0.480444
-0.495262 3.77092 0.582678
-0.675699 3.7804 0.471752
-0.812585 3.8536 0.865313
-0.719423 3.84113 0.913601
-0.797771 3.83351 0.87149
-0.859303 3.82518 0.83852
-0.74483 3.819 0.891496
-0.694084 3.8129 0.912556
-0.777131 3.80768 0.865896
-0.786531 3.80377 0.854788
-0.86594 3.79881 0.809742
-0.785278 3.7951 0.843516
-0.882923 3.79148 0.788066
-0.925716 3.78795 0.759963
-0.918749 3.78454 0.756652
-0.72741 3.78201 0.844662
-0.977624 3.77882 0.71256
-0.901611 3.77577 0.743461
-0.880613 3.77429 0.745277
-0.866061 3.77222 0.744487
-0.829828 3.76951 0.75519
-0.895744 3.76694 0.714683
-0.817966 3.76572 0.74467
-0.94374 3.76339 0.674021
-0.893002 3.762 0.690674
-0.89858 3.76078 0.679005
-0.840904 3.75906 0.699485
-0.876013 3.75731 0.673611
-0.819385 3.7565 0.692639
-0.722716 3.75579 0.731581
-0.780077 3.75449 0.694142
-0.932526 3.75336 0.608975
-0.873451 3.75287 0.628915
-0.932967 3.75242 0.589513
-0.695321 3.75215 0.698512
-0.95648 3.75189 0.558095
-0.708656 3.75151 0.672297
-0.960023 3.75132 0.536703
-0.688411 3.75209 0.661582
-0.963127 3.75218 0.514009
-0.844809 3.75247 0.56275
-0.629308 3.75294 0.659877
-0.647954 3.75361 0.639727
-0.819148 3.75525 0.542242
-0.584475 3.75629 0.64834
-0.766855 3.7575 0.545707
-0.705302 3.7589 0.564838
-0.571716 3.76133 0.618855
-0.968927 3.76317 0.40811
-0.751776 3.76703 0.502319
-0.81865 3.77046 0.454965
-0.722518 3.77558 0.487244
-0.668153 3.78127 0.497975
-0.730983 3.79079 0.445852
-0.777224 3.86428 0.884418
-0.873393 3.85176 0.838053
-0.776245 3.84336 0.884425
-0.90421 3.83575 0.817524
-0.906313 3.82954 0.812221
-0.914208 3.82342 0.803968
-0.880769 3.81817 0.815563
-0.842488 3.81425 0.828302
-0.93206 3.8104 0.777065
-0.781649 3.80478 0.847593
-0.940098 3.80191 0.760995
-0.880903 3.79837 0.783893
-0.871914 3.79494 0.781599
-0.779596 3.79163 0.820876
-0.740148 3.7892 0.832844
-0.892512 3.78614 0.749562
-0.732164 3.78465 0.821059
-1.0148 3.78179 0.672464
-0.796047 3.77984 0.773654
-0.901264 3.77727 0.713502
-0.807678 3.77604 0.751398
-0.834051 3.7737 0.730456
-0.945013 3.7723 0.666269
-0.921375 3.77128 0.669008
-1.02561 3.76935 0.608743
-0.960675 3.76759 0.632896
-0.897591 3.76678 0.655157
-0.776501 3.76607 0.706318
-0.697435 3.76476 0.737098
-0.906625 3.76363 0.623567
-1.00298 3.76313 0.565797
-0.869873 3.76268 0.62271
-0.747391 3.7624 0.674137
-0.823986 3.76214 0.626007
-0.913853 3.76176 0.571367
-0.816857 3.76157 0.60996
-0.848713 3.76155 0.583951
-0.922792 3.76243 0.535863
-1.03984 3.76272 0.466923
-0.662998 3.7632 0.644727
-0.701096 3.76386 0.614855
-0.759739 3.76472 0.574505
-0.836676 3.76655 0.52395
-0.983719 3.76777 0.438989
-0.910628 3.76917 0.463893
-0.759314 3.77161 0.526778
-0.855037 3.77345 0.466779
-0.768363 3.77653 0.496619
-0.74771 3.78077 0.492168
-0.70795 3.78591 0.496262
-0.722733 3.79162 0.47242
-0.770351 3.79951 0.429738
-0.836379 3.87422 0.856966
-0.744908 3.86239 0.903725
-0.87352 3.85396 0.837226
-0.68429 3.84557 0.929659
-0.806369 3.84008 0.863652
-0.7192 3.83394 0.90294
-0.844366 3.82792 0.835979
-0.947891 3.82473 0.777086
-0.907621 3.82087 0.790776
-0.692021 3.81522 0.893906
-0.883111 3.81233 0.790998
-0.920555 3.80879 0.765582
-0.865894 3.80534 0.786131
-0.878059 3.80202 0.773172
-0.812472 3.79958 0.79822
-0.938061 3.79727 0.727561
-0.897471 3.79501 0.739955
-0.925393 3.79214 0.718725
-0.798608 3.79018 0.773939
-0.847478 3.7876 0.741966
-1.01819 3.78636 0.647716
-0.801239 3.78402 0.748444
-0.840488 3.78183 0.720917
-1.01585 3.78158 0.623365
-0.80682 3.77964 0.71974
-0.906016 3.77788 0.661834
-0.977108 3.77706 0.617012
-1.04428 3.77629 0.574108
-0.774114 3.77503 0.700386
-0.983823 3.77444 0.586035
-0.813411 3.77339 0.662219
-0.964396 3.77254 0.577514
-0.897227 3.77266 0.60087
-0.735577 3.77239 0.671867
-0.884757 3.77201 0.587576
-0.862573 3.77182 0.588767
-0.933675 3.7718 0.543139
-0.934972 3.77268 0.531451
-0.750609 3.77297 0.613223
-0.958781 3.77345 0.498523
-0.731132 3.77412 0.601528
-0.767097 3.77497 0.57252
-0.774154 3.77602 0.557762
-0.852739 3.77803 0.506186
-0.974415 3.77944 0.43371
-0.855335 3.78189 0.48048
-0.817275 3.78374 0.487376
-0.794119 3.78683 0.48546
-0.686019 3.79029 0.525598
-0.692729 3.79489 0.507068
-0.62632 3.80048 0.523981
-0.669824 3.80988 0.481727
-0.591176 3.88697 0.978985
-0.745471 3.87228 0.905575
-0.802827 3.86456 0.874004
-0.721389 3.85613 0.91255
-0.582377 3.85062 0.9771
-0.886873 3.84446 0.820563
-0.804097 3.83841 0.857581
-0.877822 3.83446 0.814334
-0.793588 3.83133 0.849277
-1.00051 3.82566 0.741152
-0.854179 3.822 0.807714
-0.918307 3.8192 0.768214
-0.780455 3.81574 0.830366
-0.852108 3.8124 0.787669
-0.767282 3.80919 0.823108
-0.795858 3.80839 0.799445
-0.88625 3.80537 0.747108
-0.725062 3.80248 0.820438
-0.811414 3.79974 0.76987
-0.798312 3.79792 0.768114
-0.897698 3.79668 0.709534
-0.875259 3.79433 0.713009
-0.880526 3.79213 0.702479
-0.927007 3.7911 0.67017
-0.914389 3.78993 0.667551
-0.895799 3.78816 0.668543
-0.901466 3.78734 0.656438
-0.912676 3.78583 0.642272
-0.883695 3.78529 0.647216
-0.732541 3.7847 0.713301
-0.705662 3.78365 0.717722
-0.929698 3.78279 0.596497
-0.912496 3.78244 0.595373
-0.798237 3.78265 0.642185
-0.75487 3.78226 0.654172
-0.956059 3.78207 0.543681
-0.839099 3.78205 0.592089
-0.936171 3.78214 0.533354
-0.824255 3.78322 0.578074
-0.832727 3.78344 0.563509
-0.884172 3.78401 0.527072
-0.819214 3.78478 0.548632
-0.702893 3.78628 0.595083
-0.609965 3.7883 0.629271
-0.792813 3.78971 0.526212
-0.666393 3.7913 0.577586
-0.951095 3.79402 0.422174
-0.811239 3.79712 0.47861
-0.620606 3.80059 0.560017
-0.725163 3.80442 0.493426
-0.465652 3.81082 0.606034
-0.601253 3.82026 0.51773
-0.703079 3.89765 0.924433
-0.685988 3.88291 0.936729
-0.885064 3.87515 0.83431
-0.843658 3.86669 0.852849
-0.899122 3.86042 0.820892
-0.631997 3.85497 0.949453
-0.763819 3.8489 0.87918
-1.05278 3.84493 0.72832
-0.801779 3.84179 0.846658
-0.761637 3.8361 0.862074
-0.91249 3.83243 0.780049
-0.86306 3.82885 0.798086
-0.633502 3.82614 0.905349
-0.879433 3.82279 0.775519
-1.03335 3.81956 0.691592
-0.976667 3.81799 0.71133
-0.938856 3.81572 0.722339
-0.851193 3.81283 0.758913
-0.905722 3.81007 0.724263
-1.06927 3.80824 0.634189
-0.828877 3.807 0.745506
-0.975554 3.80463 0.664428
-0.947093 3.80243 0.670767
-0.732394 3.80139 0.769054
-0.96842 3.80021 0.642122
-1.07811 3.79844 0.57898
-0.88231 3.79762 0.667613
-0.934752 3.7961 0.632837
-0.911534 3.79542 0.63505
-0.804002 3.79496 0.679187
-0.761486 3.79391 0.691432
-0.970415 3.79305 0.577766
-0.858534 3.79238 0.624311
-0.915486 3.79289 0.585201
-0.988946 3.79251 0.538779
-0.824448 3.79232 0.611136
-0.788053 3.79229 0.619266
-0.784396 3.79239 0.610899
-0.866693 3.79346 0.558522
-0.706242 3.79368 0.628422
-0.875712 3.79426 0.532977
-0.810346 3.79503 0.554745
-0.957954 3.79598 0.46982
-0.878819 3.79777 0.497376
-0.741319 3.79997 0.553652
-0.832855 3.80157 0.496052
-0.623207 3.8043 0.587817
-0.701328 3.80741 0.535267
-0.833343 3.8109 0.455353
-0.805398 3.81474 0.455014
-0.832442 3.82037 0.425203
-0.648491 3.83063 0.495821
-0.712907 3.9076 0.921606
-0.789271 3.89354 0.886492
-0.82053 3.88501 0.868701
-0.716996 3.87725 0.917606
-0.700685 3.87095 0.921544
-0.88909 3.86548 0.822352
-0.869261 3.86141 0.825959
-0.739639 3.85541 0.886351
-0.803746 3.8515 0.847876
-0.856818 3.84654 0.81596
-0.875524 3.84285 0.800015
-0.829555 3.83926 0.816328
-0.793879 3.83654 0.82666
-0.872461 3.83317 0.780511
-0.878806 3.82993 0.770378
-0.812171 3.82836 0.795095
-0.866689 3.82607 0.759949
-0.887038 3.82317 0.742524
-0.937402 3.82041 0.709961
-0.935764 3.81908 0.701973
-0.719974 3.81732 0.80151
-0.777555 3.81494 0.764987
-0.747014 3.81273 0.772372
-0.8304 3.81168 0.721621
-0.94587 3.8105 0.654977
