ply
format ascii 1.0
comment Created by Open3D
element vertex 1796
property double x
property double y
property double z
end_header
0.404881 0.182103 1.57636
0.393694 0.181824 1.56438
0.38253 0.181545 1.55244
0.375498 0.181339 1.54114
0.363882 0.181052 1.52919
0.352823 0.180776 1.51736
0.342281 0.180509 1.50562
0.335215 0.180303 1.49443
0.324628 0.180036 1.48275
0.313685 0.179763 1.47105
0.307342 0.17957 1.46003
0.296758 0.179303 1.44843
0.290608 0.179114 1.43749
0.280014 0.178848 1.42595
0.274065 0.178663 1.41508
0.263462 0.178397 1.4036
0.257776 0.178217 1.39281
0.247201 0.177952 1.38138
0.241553 0.177772 1.37064
0.230972 0.177508 1.35927
0.225481 0.177332 1.3486
0.220012 0.177156 1.33795
0.20951 0.176893 1.32667
0.204184 0.176721 1.31608
0.198781 0.176547 1.3055
0.193394 0.176373 1.29495
0.183235 0.176117 1.28381
0.177902 0.175945 1.2733
0.172879 0.175778 1.26286
0.162649 0.175522 1.25179
0.15739 0.175351 1.24135
0.152549 0.175188 1.23099
0.147339 0.175019 1.2206
0.142148 0.17485 1.21023
0.137477 0.174691 1.19994
0.127479 0.174439 1.18904
0.122369 0.174272 1.17874
0.117892 0.174116 1.16853
0.112834 0.173951 1.15827
0.107796 0.173786 1.14804
0.103501 0.173633 1.1379
0.0985173 0.173469 1.12771
0.0935546 0.173306 1.11753
0.0894441 0.173157 1.10747
0.0845381 0.172995 1.09734
0.0749487 0.172752 1.08672
0.0747905 0.172672 1.07713
0.0709068 0.172527 1.06716
0.0614449 0.172288 1.05662
0.056677 0.172129 1.0466
0.0576329 0.172068 1.03718
0.0483026 0.171831 1.02672
0.0436192 0.171673 1.01675
0.0435417 0.171595 1.00727
0.0400917 0.171459 0.997456
0.0354813 0.171303 0.987544
0.0263631 0.171071 0.977211
0.0276494 0.171016 0.967907
0.0231285 0.170863 0.958054
0.0186327 0.170709 0.948221
0.0141622 0.170557 0.938406
0.0111657 0.17043 0.928746
0.0067626 0.170278 0.91897
0.00238563 0.170128 0.909213
-0.00196498 0.169978 0.899475
-0.000322466 0.16993 0.890287
-0.00461888 0.169781 0.880581
-0.00888829 0.169633 0.870894
-0.0131304 0.169485 0.861226
-0.0156351 0.169367 0.851721
-0.0198057 0.169221 0.84209
-0.0239483 0.169075 0.832476
-0.0280626 0.16893 0.822881
-0.0321483 0.168786 0.813304
-0.0301082 0.168745 0.804237
-0.0341363 0.168602 0.794691
-0.0381352 0.168459 0.785162
-0.0421047 0.168317 0.775652
-0.0440528 0.16821 0.766312
-0.0437934 0.16814 0.757152
-0.0476737 0.167999 0.747689
-0.0515237 0.16786 0.738243
-0.0553432 0.167721 0.728815
-0.0591319 0.167583 0.719404
-0.0566664 0.16755 0.710455
-0.0603939 0.167413 0.701073
-0.0640899 0.167277 0.691707
-0.0677544 0.167141 0.682359
-0.071387 0.167006 0.673028
-0.068704 0.166978 0.664134
-0.0722736 0.166844 0.65483
-0.0758108 0.166711 0.645543
-0.0793152 0.166578 0.636273
-0.0827867 0.166447 0.627019
-0.0823232 0.166381 0.618024
-0.0832903 0.166291 0.608949
-0.0866637 0.166162 0.599738
-0.0900033 0.166032 0.590543
-0.089479 0.165968 0.581589
-0.0927691 0.16584 0.572421
-0.0960249 0.165713 0.563269
-0.0954626 0.165649 0.554345
-0.0960403 0.165567 0.545365
-0.0991945 0.165441 0.536254
-0.102313 0.165317 0.527158
-0.101688 0.165254 0.518272
-0.104755 0.165131 0.509203
-0.107787 0.165008 0.500148
-0.110782 0.164886 0.491109
-0.107301 0.164871 0.482399
-0.110228 0.16475 0.473384
-0.113118 0.16463 0.464383
-0.112386 0.16457 0.455562
-0.115222 0.164451 0.446586
-0.118021 0.164333 0.437625
-0.120783 0.164215 0.428678
-0.119992 0.164156 0.419895
-0.122699 0.16404 0.410973
-0.11889 0.164031 0.402328
-0.121526 0.163916 0.393428
-0.124123 0.163802 0.384541
-0.126681 0.163688 0.375668
-0.125795 0.163631 0.366936
-0.128297 0.163518 0.358086
-0.13076 0.163407 0.34925
-0.129829 0.163351 0.340543
-0.132234 0.16324 0.33173
-0.134599 0.16313 0.32293
-0.133624 0.163075 0.314248
-0.135931 0.162966 0.305471
-0.134968 0.162911 0.296803
-0.133938 0.162858 0.288143
-0.13613 0.162751 0.279398
-0.138282 0.162645 0.270665
-0.137205 0.162592 0.262029
-0.139296 0.162487 0.253318
-0.141346 0.162383 0.244618
-0.140222 0.162331 0.236006
-0.142211 0.162228 0.227327
-0.144158 0.162126 0.218661
-0.142985 0.162075 0.210071
-0.14487 0.161974 0.201425
-0.143669 0.161924 0.192849
-0.145492 0.161824 0.184223
-0.147271 0.161725 0.175608
-0.14602 0.161676 0.167054
-0.147737 0.161578 0.158458
-0.149411 0.161481 0.149874
-0.148109 0.161433 0.141342
-0.149719 0.161337 0.132776
-0.151284 0.161242 0.124221
-0.149932 0.161195 0.11571
-0.151432 0.161101 0.107173
-0.150049 0.161054 0.0986743
-0.151484 0.160962 0.0901552
-0.152875 0.16087 0.0816463
-0.15144 0.160824 0.073168
-0.152764 0.160734 0.0646765
-0.151297 0.160689 0.0562104
-0.152555 0.160599 0.0477359
-0.153767 0.160511 0.0392709
-0.152247 0.160467 0.0308239
-0.153391 0.160379 0.0223754
-0.151839 0.160336 0.0139399
-0.152915 0.16025 0.00550751
1.05869 0.21145 2.01966
0.991352 0.210064 1.99617
0.950168 0.209179 1.97755
0.912841 0.208369 1.95972
0.877093 0.20759 1.94225
0.846829 0.206916 1.92585
0.818017 0.20627 1.90977
0.794636 0.205729 1.89471
0.770047 0.205165 1.8795
0.746301 0.204617 1.86449
0.722462 0.204068 1.84953
0.704176 0.203626 1.83558
0.680411 0.203079 1.82074
0.662201 0.202639 1.8069
0.644036 0.2022 1.79311
0.625922 0.201762 1.77938
0.608911 0.201346 1.76588
0.591918 0.200931 1.75243
0.578381 0.200581 1.73959
0.561444 0.200167 1.72623
0.549023 0.199839 1.71364
0.532141 0.199427 1.70037
0.51894 0.199085 1.68774
0.50299 0.198692 1.6747
0.49076 0.198369 1.6623
0.478601 0.198047 1.64994
0.466518 0.197728 1.63762
0.454513 0.19741 1.62535
0.443244 0.197106 1.61323
0.431354 0.196791 1.60104
0.420138 0.196489 1.58899
0.408372 0.196177 1.57689
0.397214 0.195876 1.56491
0.386078 0.195577 1.55297
0.374968 0.195278 1.54106
0.368256 0.195062 1.52984
0.357215 0.194765 1.518
0.346201 0.194468 1.5062
0.339819 0.194259 1.49509
0.32916 0.19397 1.4834
0.318235 0.193676 1.4717
0.312095 0.193472 1.4607
0.301435 0.193184 1.44909
0.295494 0.192984 1.43817
0.284822 0.192696 1.42662
0.279087 0.1925 1.41577
0.268405 0.192212 1.40427
0.262836 0.19202 1.39349
0.252192 0.191734 1.38205
0.246675 0.191543 1.37133
0.241264 0.191355 1.36064
0.230721 0.19107 1.34929
0.225448 0.190885 1.33866
0.220022 0.190697 1.32803
0.21461 0.190509 1.31742
0.204484 0.190234 1.30623
0.199126 0.190047 1.29568
0.194155 0.189868 1.28519
0.183878 0.189591 1.27405
0.178592 0.189406 1.26357
0.173803 0.189231 1.25316
0.163645 0.188956 1.24212
0.163343 0.188865 1.2323
0.153834 0.188603 1.22138
0.148673 0.188421 1.211
0.144214 0.188253 1.20073
0.139105 0.188073 1.1904
0.129185 0.187804 1.17953
0.128944 0.187715 1.16981
0.119898 0.187462 1.15908
0.114893 0.187285 1.14884
0.110815 0.187125 1.13873
0.105865 0.186949 1.12853
0.100935 0.186773 1.11835
0.0970457 0.186617 1.10831
0.0921735 0.186443 1.09817
0.0873225 0.186269 1.08805
0.0824929 0.186096 1.07796
0.0788332 0.185945 1.068
0.0740634 0.185773 1.05795
0.0693159 0.185602 1.04791
0.0658534 0.185455 1.03803
0.0611674 0.185285 1.02803
0.0565045 0.185116 1.01806
0.0518649 0.184948 1.0081
0.0486434 0.184806 0.998305
0.0440677 0.184638 0.988389
0.0395161 0.184472 0.978493
0.0365001 0.184334 0.968761
0.0320142 0.184169 0.958903
0.027553 0.184005 0.949065
0.0231169 0.183841 0.939246
0.0203522 0.183708 0.929598
0.015984 0.183546 0.919817
0.0116417 0.183384 0.910054
0.0117174 0.183304 0.900706
0.00918577 0.183175 0.891134
0.00492434 0.183016 0.881422
0.000689639 0.182856 0.871729
-0.00351807 0.182698 0.862055
-0.0057888 0.182575 0.852561
-0.00992453 0.182418 0.842923
-0.0140325 0.182262 0.833304
-0.0181125 0.182106 0.823702
-0.015882 0.182066 0.814631
-0.0199041 0.181912 0.80506
-0.0238976 0.181758 0.795507
-0.0278622 0.181605 0.785972
-0.029622 0.181492 0.776624
-0.029356 0.181416 0.767443
-0.0332319 0.181265 0.757955
-0.037078 0.181115 0.748485
-0.0408942 0.180965 0.739032
-0.0423578 0.180859 0.729767
-0.0460959 0.180711 0.720347
-0.0457489 0.180637 0.711235
-0.0494427 0.18049 0.701845
-0.0531054 0.180344 0.692472
-0.0542677 0.180243 0.683286
-0.0578502 0.180098 0.673946
-0.0574324 0.180026 0.664888
-0.0609689 0.179883 0.655576
-0.0644733 0.17974 0.646281
-0.0653298 0.179645 0.63717
-0.0648532 0.179574 0.628153
-0.0682606 0.179434 0.618901
-0.071635 0.179293 0.609665
-0.0749762 0.179154 0.600445
-0.0782839 0.179016 0.591242
-0.0777412 0.178947 0.582278
-0.0782122 0.178859 0.573262
-0.0814197 0.178723 0.5641
-0.0845931 0.178587 0.554953
-0.0839881 0.17852 0.546028
-0.0871112 0.178385 0.536908
-0.0901995 0.178251 0.527803
-0.0866138 0.178237 0.519061
-0.089634 0.178105 0.509981
-0.0926188 0.177973 0.500915
-0.0955679 0.177842 0.491865
-0.0984812 0.177712 0.482829
-0.0977562 0.177647 0.47398
-0.100617 0.177518 0.46497
-0.100321 0.177446 0.456118
-0.0995465 0.177382 0.447295
-0.1023 0.177255 0.438321
-0.105017 0.177129 0.429362
-0.104201 0.177066 0.420566
-0.106863 0.176941 0.411632
-0.109488 0.176817 0.402711
-0.112075 0.176694 0.393804
-0.111198 0.176633 0.385044
-0.110417 0.17657 0.376287
-0.112894 0.176448 0.367415
-0.111965 0.176388 0.358679
-0.114385 0.176268 0.34983
-0.116767 0.176149 0.340994
-0.115794 0.17609 0.332283
-0.118118 0.175972 0.32347
-0.120402 0.175855 0.314669
-0.119384 0.175797 0.305983
-0.12161 0.175681 0.297205
-0.123797 0.175566 0.288439
-0.122733 0.175508 0.279777
-0.121318 0.175457 0.271131
-0.123389 0.175345 0.262396
-0.12227 0.175288 0.253755
-0.124281 0.175177 0.245042
-0.126251 0.175066 0.23634
-0.125085 0.175011 0.227722
-0.126994 0.174902 0.219041
-0.128862 0.174793 0.210372
-0.127647 0.174739 0.201777
-0.129454 0.174631 0.193128
-0.131218 0.174525 0.18449
-0.129955 0.174472 0.175916
-0.131656 0.174367 0.167298
-0.133315 0.174262 0.15869
-0.132003 0.17421 0.150139
-0.133598 0.174107 0.14155
-0.135151 0.174005 0.132972
-0.133788 0.173954 0.124441
-0.135276 0.173853 0.115882
-0.136721 0.173753 0.107333
-0.135307 0.173703 0.098822
-0.136687 0.173604 0.0902907
-0.135242 0.173555 0.0817925
-0.136557 0.173457 0.0732786
-0.137827 0.17336 0.0647746
-0.13633 0.173312 0.0562958
-0.137534 0.173217 0.0478087
-0.138692 0.173122 0.039331
-0.137142 0.173075 0.0308711
-0.138234 0.172982 0.0224098
-0.136652 0.172936 0.0139614
-0.137677 0.172844 0.00551603
1.08404 0.227179 2.03558
1.01685 0.225696 2.01202
0.968854 0.224608 1.99208
0.933182 0.223773 1.97448
0.897535 0.22294 1.95697
0.867343 0.222218 1.94051
0.837257 0.2215 1.92415
0.814009 0.220922 1.90906
0.79079 0.220345 1.89403
0.766406 0.219745 1.87886
0.742737 0.21916 1.86388
0.718957 0.218573 1.84893
0.700735 0.2181 1.83499
0.679271 0.217562 1.82055
0.661087 0.217091 1.80671
0.642951 0.216621 1.79293
0.629322 0.216243 1.77995
0.611326 0.215777 1.76628
0.594357 0.215332 1.75283
0.577407 0.214888 1.73943
0.56409 0.214518 1.72666
0.548099 0.214095 1.71349
0.534926 0.213728 1.70082
0.522714 0.213382 1.68835
0.510572 0.213037 1.67591
0.494568 0.212615 1.6629
0.482492 0.212272 1.65055
0.470495 0.211932 1.63824
0.458581 0.211593 1.62598
0.446752 0.211256 1.61377
0.435534 0.210932 1.60168
0.424337 0.210609 1.58963
0.412669 0.210276 1.57754
0.40153 0.209955 1.56556
0.394911 0.209725 1.55429
0.383842 0.209405 1.54238
0.372797 0.209086 1.53051
0.361777 0.208768 1.51867
0.355539 0.208547 1.50756
0.344598 0.208231 1.49578
0.338756 0.208018 1.48478
0.327878 0.207704 1.47307
0.31703 0.207391 1.4614
0.311346 0.207182 1.45049
0.300566 0.20687 1.43888
0.294967 0.206663 1.42802
0.284238 0.206354 1.41648
0.278746 0.206149 1.40569
0.268092 0.205841 1.39421
0.262733 0.20564 1.38348
0.252156 0.205334 1.37206
0.246935 0.205136 1.36139
0.241489 0.204934 1.35071
0.231016 0.204631 1.33939
0.225966 0.204437 1.32881
0.220587 0.204236 1.3182
0.215666 0.204045 1.30766
0.205349 0.203746 1.29647
0.20004 0.203548 1.28593
0.195301 0.203361 1.27548
0.1851 0.203065 1.26437
0.180516 0.202881 1.25399
0.175313 0.202686 1.24354
0.170126 0.20249 1.23312
0.165715 0.202311 1.22281
0.155716 0.20202 1.21185
0.150609 0.201827 1.20149
0.146395 0.201652 1.19126
0.141341 0.20146 1.18095
0.136305 0.201269 1.17066
0.132274 0.201098 1.1605
0.127293 0.200909 1.15025
0.122331 0.200719 1.14002
0.118486 0.200553 1.12994
0.108855 0.200271 1.11923
0.108696 0.200178 1.10958
0.100349 0.199922 1.09906
0.0955351 0.199737 1.08894
0.0920579 0.199578 1.07898
0.087304 0.199394 1.0689
0.0825718 0.199211 1.05884
0.0778615 0.199028 1.0488
0.0746217 0.198875 1.03893
0.0699737 0.198694 1.02893
0.0653484 0.198513 1.01895
0.0623106 0.198364 1.00915
0.0577493 0.198185 0.99921
0.0532114 0.198007 0.989289
0.0532059 0.197918 0.979827
0.0459068 0.197686 0.969669
0.0414589 0.19751 0.959806
0.0370356 0.197334 0.949962
0.0388886 0.197282 0.940724
0.0345186 0.197108 0.930912
0.0301738 0.196935 0.92112
0.0258544 0.196762 0.911346
0.0235056 0.196628 0.901767
0.019256 0.196457 0.89203
0.0150326 0.196286 0.882313
0.012899 0.196157 0.872793
0.0087469 0.195988 0.863112
0.00462174 0.19582 0.853449
0.000523765 0.195652 0.843805
0.00290449 0.195612 0.834717
-0.00113583 0.195446 0.825103
-0.00514836 0.19528 0.815507
-0.00913285 0.195116 0.805929
-0.0107603 0.194997 0.796555
-0.0146696 0.194834 0.787012
-0.014395 0.194753 0.77781
-0.0182629 0.194591 0.768297
-0.0221017 0.19443 0.758802
-0.0234356 0.194318 0.74951
-0.027197 0.194158 0.740048
-0.0309286 0.193999 0.730604
-0.03463 0.193842 0.721177
-0.0316587 0.193813 0.712242
-0.035298 0.193657 0.702843
-0.0389066 0.193501 0.693461
-0.0424842 0.193346 0.684095
-0.0420598 0.193269 0.675016
-0.0428431 0.193168 0.665863
-0.0463258 0.193015 0.656542
-0.0497767 0.192863 0.647237
-0.0531957 0.192712 0.637948
-0.0526987 0.192636 0.628921
-0.0531767 0.192542 0.619841
-0.0564981 0.192393 0.610594
-0.0597867 0.192245 0.601364
-0.0630423 0.192097 0.59215
-0.0624703 0.192024 0.583174
-0.0626394 0.191936 0.574162
-0.0657949 0.19179 0.564989
-0.0651762 0.191718 0.55604
-0.0682825 0.191574 0.546893
-0.0713546 0.191431 0.537761
-0.0743922 0.191288 0.528645
-0.0705297 0.191278 0.519903
-0.073499 0.191137 0.510811
-0.0764334 0.190997 0.501734
-0.0793325 0.190858 0.492671
-0.0821962 0.190719 0.483623
-0.081443 0.19065 0.474761
-0.0842547 0.190512 0.465739
-0.0836639 0.19044 0.456885
-0.0828609 0.190372 0.448048
-0.0855661 0.190237 0.439062
-0.0882347 0.190103 0.430091
-0.0908666 0.18997 0.421133
-0.0900055 0.189903 0.412333
-0.0925832 0.189771 0.403399
-0.0916971 0.189705 0.394616
-0.0906793 0.189642 0.385843
-0.0931476 0.189512 0.376944
-0.095578 0.189383 0.368059
-0.0979703 0.189255 0.359186
-0.096997 0.189191 0.350445
-0.0993332 0.189064 0.341596
-0.101631 0.188938 0.332759
-0.100613 0.188875 0.324043
-0.102854 0.188751 0.315228
-0.101319 0.188698 0.306543
-0.100248 0.188636 0.297848
-0.102375 0.188514 0.289065
-0.104462 0.188392 0.280295
-0.106509 0.188272 0.271537
-0.105374 0.188212 0.262875
-0.107362 0.188092 0.254138
-0.10931 0.187974 0.245413
-0.108128 0.187915 0.236774
-0.110016 0.187798 0.22807
-0.111863 0.187682 0.219377
-0.110634 0.187624 0.210761
-0.11242 0.187509 0.202088
-0.114165 0.187395 0.193427
-0.112888 0.187338 0.184832
-0.111601 0.187282 0.176243
-0.112197 0.18719 0.167628
-0.110863 0.187134 0.159052
-0.112426 0.187024 0.150436
-0.113947 0.186915 0.141832
-0.112563 0.18686 0.133277
-0.114021 0.186752 0.12469
-0.115436 0.186645 0.116115
-0.114002 0.186592 0.10758
-0.115353 0.186487 0.0990219
-0.116661 0.186382 0.090474
-0.115176 0.18633 0.0819589
-0.116419 0.186226 0.0734282
-0.117617 0.186124 0.0649073
-0.116081 0.186073 0.0564114
-0.117214 0.185972 0.0479072
-0.118303 0.185872 0.0394124
-0.116714 0.185822 0.0309351
-0.117737 0.185723 0.0224564
-0.116116 0.185674 0.0139905
-0.117072 0.185577 0.00552756
1.10915 0.242986 2.05153
1.04211 0.241407 2.02788
0.994254 0.240249 2.00789
0.957102 0.239325 1.98995
0.921623 0.238439 1.97239
0.891565 0.237672 1.9559
0.86304 0.236939 1.93974
0.833158 0.236177 1.92342
0.810079 0.235564 1.90837
0.787037 0.234953 1.89338
0.76288 0.234318 1.87825
0.740433 0.23372 1.86348
0.721115 0.233192 1.8493
0.699625 0.232616 1.8348
0.68041 0.232091 1.82074
0.662338 0.231591 1.80692
0.64532 0.231114 1.79333
0.627333 0.230616 1.77962
0.610356 0.230141 1.76612
0.597025 0.229746 1.75327
0.580108 0.229273 1.73987
0.567807 0.2289 1.72727
0.550944 0.228429 1.71396
0.538742 0.22806 1.70144
0.5259 0.227676 1.68886
0.509846 0.227224 1.6758
0.497828 0.22686 1.66342
0.485891 0.226497 1.65108
0.47461 0.226149 1.63889
0.462789 0.22579 1.62664
0.451558 0.225444 1.61451
0.439861 0.225088 1.60235
0.433185 0.22484 1.59098
0.41712 0.224391 1.57822
0.410634 0.224148 1.56693
0.399567 0.223807 1.55499
0.388523 0.223466 1.54308
0.377503 0.223127 1.5312
0.371405 0.222893 1.52008
0.360464 0.222556 1.50827
0.349549 0.222219 1.4965
0.343816 0.221995 1.4855
0.332966 0.22166 1.4738
0.322145 0.221327 1.46212
0.316574 0.221106 1.45122
0.305823 0.220774 1.43962
0.300381 0.220557 1.42878
0.294826 0.220337 1.41794
0.284393 0.220013 1.40646
0.278885 0.219795 1.39567
0.273389 0.219577 1.38491
0.263159 0.219258 1.37354
0.257712 0.219042 1.36282
0.247654 0.218728 1.35152
0.242259 0.218513 1.34086
0.237387 0.218309 1.33029
0.227037 0.217989 1.31903
0.222315 0.21779 1.30852
0.217018 0.217578 1.29795
0.20678 0.217261 1.28678
0.202244 0.217066 1.27635
0.197019 0.216856 1.26585
0.191811 0.216647 1.25538
0.187446 0.216456 1.24502
0.177406 0.216144 1.234
0.173203 0.215957 1.22371
0.168106 0.215751 1.21332
0.163027 0.215546 1.20296
0.159004 0.215363 1.19274
0.153977 0.215159 1.18242
0.14897 0.214955 1.17212
0.140359 0.214676 1.16143
0.135418 0.214474 1.15117
0.13175 0.2143 1.14108
0.126866 0.2141 1.13087
0.122001 0.2139 1.12068
0.118524 0.21373 1.11066
0.113718 0.213533 1.10051
0.108932 0.213335 1.09038
0.10565 0.21317 1.08043
0.100925 0.212974 1.07034
0.0962207 0.212779 1.06028
0.0931367 0.212619 1.05039
0.0884945 0.212425 1.04036
0.0838743 0.212233 1.03035
0.0809915 0.212077 1.02054
0.076435 0.211886 1.01057
0.0719014 0.211695 1.00062
0.0692228 0.211544 0.990865
0.0647545 0.211355 0.980952
0.0603098 0.211167 0.971059
0.055889 0.21098 0.961186
0.0534604 0.210834 0.951517
0.0491071 0.210649 0.941681
0.0447784 0.210464 0.931864
0.0425602 0.210323 0.922257
0.0383006 0.21014 0.912478
0.0340664 0.209957 0.902717
0.0342001 0.209866 0.893361
0.0322156 0.209731 0.883826
0.0280631 0.209551 0.874115
0.0239369 0.209371 0.864422
0.0221678 0.209241 0.854946
0.018114 0.209063 0.845289
0.0140873 0.208886 0.83565
0.0143138 0.208798 0.826378
0.012784 0.208673 0.81697
0.0088431 0.208498 0.807379
0.00493005 0.208324 0.797806
0.00361965 0.208204 0.788453
-0.000217728 0.208031 0.778914
-0.00402657 0.20786 0.769393
-0.00780663 0.207689 0.759889
-0.00476788 0.20766 0.750912
-0.00848686 0.207491 0.741437
-0.0121765 0.207322 0.731978
-0.0158365 0.207154 0.722537
-0.0166311 0.207046 0.713315
-0.0162151 0.206963 0.704189
-0.0197826 0.206797 0.694792
-0.0233197 0.206633 0.685412
-0.0238659 0.20653 0.676249
-0.0273222 0.206367 0.666901
-0.0307474 0.206205 0.657569
-0.030247 0.206124 0.648507
-0.0336268 0.205964 0.639203
-0.0338722 0.205868 0.630112
-0.0371693 0.205709 0.620838
-0.0404342 0.205551 0.611581
-0.0398603 0.205472 0.60257
-0.0430782 0.205315 0.59334
-0.0430197 0.205226 0.584315
-0.046153 0.205071 0.575115
-0.0455181 0.204994 0.566142
-0.0486032 0.20484 0.556968
-0.0482906 0.204757 0.547994
-0.0512897 0.204605 0.538848
-0.0505924 0.20453 0.529913
-0.0535421 0.204379 0.520793
-0.0564575 0.20423 0.511688
-0.0593383 0.204081 0.502598
-0.0550755 0.204079 0.493876
-0.0578873 0.203932 0.484808
-0.060664 0.203786 0.475756
-0.0634054 0.20364 0.466718
-0.0661112 0.203496 0.457694
-0.0652784 0.203424 0.448843
-0.0642673 0.203356 0.440006
-0.0668668 0.203214 0.431018
-0.0659836 0.203143 0.422191
-0.06853 0.203002 0.413227
-0.0710399 0.202862 0.404276
-0.073513 0.202723 0.39534
-0.0687648 0.202732 0.386697
-0.0711658 0.202595 0.377781
-0.0735296 0.202458 0.368878
-0.0758558 0.202323 0.359989
-0.0748448 0.202255 0.351229
-0.0771157 0.202121 0.342362
-0.0793485 0.201988 0.333508
-0.0815429 0.201855 0.324667
-0.0764904 0.20187 0.316068
-0.0786111 0.201739 0.307246
-0.080693 0.201609 0.298436
-0.079567 0.201545 0.289731
-0.0815916 0.201416 0.280943
-0.0835769 0.201289 0.272167
-0.0855226 0.201162 0.263402
-0.0843329 0.201099 0.25473
-0.0862202 0.200974 0.245986
-0.0880673 0.200849 0.237254
-0.0868315 0.200787 0.228605
-0.085587 0.200726 0.21996
-0.0861591 0.200627 0.211282
-0.0848674 0.200567 0.202651
-0.0865382 0.200447 0.193967
-0.0881679 0.200327 0.185295
-0.0897563 0.200209 0.176633
-0.0883976 0.20015 0.168031
-0.0899249 0.200033 0.159388
-0.0914103 0.199916 0.150756
-0.090003 0.199859 0.142175
-0.0914266 0.199744 0.133562
-0.0928077 0.19963 0.124958
-0.0913511 0.199574 0.116398
-0.0926696 0.199461 0.107812
-0.0939452 0.19935 0.0992363
-0.0924386 0.199294 0.0906957
-0.0936506 0.199184 0.0821373
-0.0948193 0.199075 0.0735887
-0.093262 0.199021 0.0650673
-0.0943664 0.198914 0.0565353
-0.0954268 0.198807 0.0480128
-0.0938181 0.198754 0.03951
-0.0948135 0.198649 0.0310036
-0.0957645 0.198545 0.0225063
-0.0941036 0.198493 0.0140216
-0.0949888 0.198391 0.00553991
1.14624 0.259156 2.06976
1.07414 0.257359 2.04506
1.02472 0.256091 2.02469
0.982332 0.254988 2.00571
0.946973 0.254048 1.98811
0.916999 0.253234 1.97156
0.887129 0.252424 1.9551
0.858792 0.251649 1.93899
0.831808 0.250907 1.92318
0.807511 0.250228 1.90791
0.784596 0.249581 1.89295
0.761733 0.248936 1.87805
0.742613 0.248378 1.86385
0.72003 0.247741 1.84911
0.701913 0.247208 1.83519
0.683846 0.246676 1.82133
0.665836 0.246146 1.80752
0.647888 0.245618 1.79376
0.630917 0.245112 1.78022
0.617664 0.244693 1.76734
0.600752 0.244191 1.75389
0.583859 0.243689 1.74049
0.571635 0.243295 1.72789
0.558764 0.242886 1.71523
0.546727 0.242497 1.70273
0.530628 0.242015 1.68961
0.518658 0.241628 1.6772
0.506769 0.241244 1.66483
0.494965 0.240861 1.65251
0.483249 0.240482 1.64024
0.472035 0.240114 1.62807
0.460446 0.239737 1.61589
0.449286 0.239371 1.60379
0.437832 0.238999 1.59169
0.426731 0.238635 1.57967
0.41565 0.238272 1.56769
0.409478 0.238021 1.55647
0.398472 0.23766 1.54456
0.38749 0.2373 1.53268
0.381671 0.237058 1.52158
0.37077 0.236701 1.50977
0.359896 0.236344 1.498
0.349048 0.235988 1.48625
0.343513 0.235754 1.4753
0.332732 0.235401 1.46362
0.327325 0.23517 1.45273
0.316615 0.234818 1.44112
0.311063 0.234585 1.43026
0.300703 0.234242 1.41875
0.295197 0.23401 1.40794
0.290087 0.233787 1.3972
0.279546 0.233441 1.38574
0.274577 0.233221 1.37506
0.264116 0.232878 1.36367
0.259292 0.232662 1.35306
0.253927 0.232434 1.34239
0.248575 0.232207 1.33174
0.238928 0.231883 1.32056
0.23363 0.231658 1.30996
0.229121 0.23145 1.29949
0.218927 0.231114 1.28831
0.214574 0.230911 1.27789
0.209381 0.230689 1.26739
0.204204 0.230467 1.2569
0.195146 0.230158 1.24597
0.190029 0.229938 1.23553
0.186012 0.229743 1.22525
0.180947 0.229525 1.21486
0.1759 0.229307 1.20448
0.172064 0.229117 1.19427
0.16228 0.228793 1.18339
0.163383 0.228714 1.17379
0.153685 0.228393 1.16295
0.148776 0.228179 1.15269
0.145298 0.227998 1.14261
0.140445 0.227786 1.13239
0.137119 0.227609 1.12236
0.132325 0.227398 1.11218
0.127551 0.227189 1.10202
0.124419 0.227016 1.09205
0.119705 0.226808 1.08194
0.110395 0.226497 1.07135
0.112076 0.226433 1.06194
0.107444 0.226228 1.05188
0.102833 0.226023 1.04184
0.100098 0.22586 1.03201
0.0955506 0.225657 1.02201
0.0910254 0.225454 1.01203
0.0884929 0.225297 1.00226
0.0840326 0.225096 0.992322
0.0795952 0.224896 0.982399
0.0772677 0.224743 0.972696
0.0728969 0.224545 0.962811
0.0685498 0.224348 0.952945
0.0664295 0.2242 0.943304
0.0621506 0.224004 0.933476
0.057896 0.22381 0.923666
0.0559851 0.223667 0.914085
0.0518003 0.223474 0.904312
0.0476406 0.223282 0.894557
0.0502386 0.22324 0.885414
0.0461353 0.223049 0.87569
0.0420578 0.222859 0.865985
0.0405466 0.222726 0.856514
0.0365415 0.222538 0.846844
0.0325629 0.222351 0.837192
0.0312659 0.222223 0.827777
0.0273612 0.222038 0.81816
0.0234837 0.221853 0.80856
0.0237841 0.221761 0.799309
0.0227252 0.221639 0.789959
0.0189351 0.221457 0.780406
0.015173 0.221275 0.770871
0.0143311 0.221158 0.761572
0.0106459 0.220979 0.75207
0.00698943 0.2208 0.742585
0.00739038 0.220711 0.733412
0.00678984 0.2206 0.724175
0.00322453 0.220424 0.714734
-0.000311237 0.220248 0.70531
0.00325996 0.22023 0.696396
-0.000212814 0.220056 0.687
-0.00365549 0.219883 0.677619
-0.0070678 0.21971 0.668256
-0.0072056 0.21961 0.659122
-0.0105367 0.21944 0.649789
-0.0138367 0.219271 0.640472
-0.0132721 0.219187 0.631414
-0.013165 0.219092 0.622334
-0.0163685 0.218925 0.613059
-0.0195402 0.218759 0.603799
-0.0154579 0.218753 0.594985
-0.0185636 0.218588 0.585751
-0.0216368 0.218425 0.576531
-0.0246775 0.218262 0.567327
-0.0204203 0.218259 0.558545
-0.0233939 0.218098 0.549365
-0.0263344 0.217938 0.5402
-0.0292416 0.217779 0.53105
-0.0284946 0.2177 0.522104
-0.0276492 0.217623 0.51317
-0.0304545 0.217466 0.504058
-0.0332258 0.217311 0.494961
-0.0324152 0.217233 0.486051
-0.0313231 0.217162 0.47716
-0.0339908 0.217009 0.468099
-0.0366237 0.216856 0.459053
-0.0392215 0.216705 0.45002
-0.0344096 0.216715 0.441328
-0.0369372 0.216565 0.432317
-0.0394293 0.216416 0.423319
-0.0418857 0.216269 0.414335
-0.0409275 0.216195 0.405502
-0.0392881 0.216136 0.396703
-0.0416372 0.215991 0.387753
-0.0439499 0.215847 0.378816
-0.0462259 0.215704 0.369893
-0.0451827 0.215632 0.361101
-0.0432422 0.21558 0.352347
-0.0454089 0.21544 0.343456
-0.0475383 0.2153 0.334577
-0.0464256 0.21523 0.325816
-0.0484999 0.215092 0.31696
-0.0505363 0.214955 0.308115
-0.0450924 0.214979 0.299507
-0.0470553 0.214843 0.290681
-0.0489798 0.214709 0.281867
-0.0508657 0.214575 0.273064
-0.0527128 0.214442 0.264274
-0.0514671 0.214376 0.255574
-0.0532569 0.214245 0.246804
-0.0505735 0.21421 0.238152
-0.0492731 0.214145 0.229471
-0.0509486 0.214016 0.220729
-0.0525843 0.213889 0.211998
-0.05418 0.213762 0.203278
-0.0528149 0.213699 0.194627
-0.0543515 0.213574 0.185927
-0.0558476 0.213449 0.177237
-0.057303 0.213326 0.168558
-0.0558718 0.213265 0.159936
-0.057267 0.213143 0.151276
-0.0586209 0.213022 0.142626
-0.0571419 0.212962 0.134024
-0.0537856 0.212942 0.12545
-0.0550209 0.212824 0.116824
-0.0562144 0.212707 0.108209
-0.0546581 0.212649 0.0996299
-0.0557896 0.212534 0.0910312
-0.0568787 0.212419 0.0824422
-0.0552729 0.212362 0.0738825
-0.0562994 0.212249 0.06531
-0.0572829 0.212137 0.056747
-0.0629983 0.211924 0.04817
-0.0613305 0.211869 0.0396396
-0.0622222 0.211759 0.0311056
-0.0630702 0.211651 0.0225806
-0.0613511 0.211597 0.014068
-0.0621344 0.211489 0.00555828
1.21429 0.276205 2.09386
1.10415 0.273364 2.06194
1.04958 0.271894 2.04053
1.00731 0.270727 2.02149
0.972078 0.269735 2.00384
0.942194 0.268875 1.98724
0.912408 0.268018 1.97073
0.88275 0.267165 1.95431
0.856001 0.266384 1.93849
0.831818 0.265667 1.92318
0.809056 0.264985 1.90819
0.786345 0.264305 1.89325
0.763691 0.263627 1.87839
0.744935 0.263046 1.86426
0.723424 0.262397 1.8497
0.705364 0.261834 1.83578
0.687359 0.261272 1.82192
0.669415 0.260712 1.80812
0.651539 0.260155 1.79438
0.638364 0.259713 1.78147
0.621464 0.25918 1.76797
0.604581 0.258648 1.75452
0.592403 0.258231 1.74189
0.579619 0.2578 1.7292
0.567632 0.257389 1.71667
0.550897 0.256863 1.7034
0.539029 0.256455 1.69096
0.527742 0.256063 1.67865
0.511095 0.25554 1.66552
0.499388 0.255137 1.65321
0.492753 0.254858 1.64172
0.476588 0.254349 1.62878
0.470141 0.254075 1.61738
0.453973 0.253566 1.60451
0.447724 0.253298 1.5932
0.436666 0.252913 1.58118
0.425628 0.252529 1.56919
0.419722 0.25227 1.558
0.403546 0.251763 1.54531
0.397824 0.251509 1.5342
0.386911 0.25113 1.52235
0.38131 0.250879 1.51131
0.370458 0.250502 1.49952
0.359801 0.25013 1.4878
0.354196 0.24988 1.47682
0.343694 0.249512 1.46518
0.338131 0.249264 1.45425
0.327789 0.2489 1.44268
0.32227 0.248654 1.43181
0.312093 0.248295 1.42032
0.30662 0.24805 1.4095
0.301681 0.247818 1.39877
0.291189 0.247452 1.38731
0.286393 0.247224 1.37664
0.275981 0.246861 1.36525
0.271333 0.246637 1.35465
0.266003 0.246397 1.34397
0.260685 0.246157 1.33332
0.25123 0.245818 1.32215
0.245968 0.24558 1.31154
0.241638 0.245365 1.30108
0.231494 0.24501 1.28989
0.227322 0.244799 1.27949
0.222164 0.244565 1.26897
0.218133 0.244357 1.25862
0.208161 0.244008 1.24756
0.207933 0.243892 1.2377
0.199246 0.243574 1.22684
0.194216 0.243343 1.21644
0.190528 0.243145 1.20622
0.185552 0.242916 1.19586
0.182012 0.242722 1.18569
0.172335 0.242382 1.17482
0.167443 0.242155 1.16453
0.16411 0.241967 1.15443
0.159275 0.241742 1.14418
0.156094 0.241558 1.13414
0.151316 0.241335 1.12393
0.146557 0.241113 1.11374
0.143568 0.240933 1.10376
0.138869 0.240713 1.09361
0.136035 0.240537 1.08368
0.131397 0.240319 1.07357
0.126779 0.240101 1.06348
0.124142 0.239931 1.05362
0.119587 0.239715 1.04357
0.115052 0.2395 1.03354
0.112615 0.239335 1.02374
0.108145 0.239121 1.01375
0.105866 0.23896 1.00399
0.101461 0.238749 0.994037
0.0970779 0.238538 0.984103
0.0950024 0.238382 0.974408
0.0906861 0.238174 0.964512
0.0887709 0.238022 0.954859
0.0845223 0.237815 0.945
0.0802974 0.237609 0.935159
0.0804484 0.237506 0.925737
0.0744322 0.237258 0.915762
0.0703008 0.237055 0.905976
0.0730882 0.237015 0.896823
0.069013 0.236813 0.887068
0.0649629 0.236612 0.877332
0.0636446 0.236476 0.867846
0.0596663 0.236277 0.858145
0.0585103 0.236144 0.848698
0.0546047 0.235947 0.839031
0.0507254 0.235751 0.829383
0.0510325 0.235654 0.820091
0.0501087 0.235527 0.810708
0.046315 0.235334 0.801106
0.0455538 0.235211 0.791758
0.0418353 0.23502 0.78219
0.0381442 0.234829 0.772639
0.0416403 0.234806 0.763649
0.03801 0.234617 0.754126
0.0344077 0.234429 0.74462
0.0340425 0.234317 0.735366
0.0305179 0.23413 0.725892
0.0309879 0.234038 0.716718
0.0308078 0.23393 0.707505
0.0273743 0.233746 0.698075
0.027355 0.233643 0.688893
0.0240009 0.233461 0.679494
0.0206764 0.233281 0.670111
0.0247149 0.233271 0.661228
0.0214543 0.233093 0.65187
0.0182238 0.232915 0.642529
0.0185983 0.232821 0.633429
0.0154494 0.232645 0.624117
0.016094 0.232557 0.615052
0.0166512 0.232468 0.605989
0.0135984 0.232294 0.596717
0.014288 0.232208 0.587678
0.0113427 0.232038 0.578437
0.0120716 0.231953 0.569417
0.0129661 0.231871 0.560414
0.0100946 0.231703 0.551209
0.0108696 0.231619 0.542215
0.0119434 0.231542 0.533243
0.00917126 0.231376 0.524077
0.0103974 0.231303 0.515128
0.00771067 0.23114 0.505988
0.0125945 0.231151 0.497236
0.00997551 0.23099 0.488118
0.0108704 0.230909 0.47918
0.00894125 0.230764 0.470116
0.0140126 0.230779 0.461386
0.0115483 0.230622 0.452314
0.0125174 0.230543 0.443406
0.0109338 0.230406 0.434394
0.0161835 0.230426 0.425683
0.0172117 0.230349 0.416794
0.0192023 0.230294 0.407951
0.0245694 0.230317 0.399246
1.14087 0.289641 2.08015
1.08646 0.288091 2.05866
1.03904 0.286725 2.03858
1.00218 0.285635 2.02055
0.96714 0.284592 2.00294
0.937444 0.283689 1.98638
0.909376 0.282829 1.97018
0.881306 0.28197 1.95405
0.857168 0.281213 1.9387
0.8345 0.280495 1.92366
0.811877 0.279779 1.90868
0.789308 0.279065 1.89377
0.766801 0.278354 1.87893
0.749411 0.277775 1.86503
0.730411 0.277155 1.8509
0.712483 0.276564 1.837
0.694618 0.275974 1.82316
0.677677 0.275409 1.80952
0.659912 0.274824 1.79579
0.643011 0.274261 1.78225
0.630066 0.2738 1.7694
0.613232 0.27324 1.75596
0.601173 0.272803 1.74334
0.584392 0.272246 1.72998
0.572444 0.271812 1.71745
0.560575 0.271382 1.70496
0.54879 0.270954 1.69253
0.532154 0.270402 1.67935
0.520501 0.269978 1.66701
0.513963 0.269685 1.6555
0.497763 0.269146 1.64251
0.486332 0.268729 1.6303
0.47521 0.26832 1.61817
0.463918 0.267907 1.60604
0.458013 0.267633 1.59477
0.446916 0.267226 1.58273
0.435927 0.266822 1.57074
0.424958 0.266419 1.55879
0.419294 0.266152 1.54765
0.408493 0.265754 1.53577
0.39763 0.265355 1.52392
0.392187 0.265094 1.51289
0.381387 0.264697 1.5011
0.376071 0.264441 1.49013
0.365337 0.264046 1.47841
0.360153 0.263793 1.46751
0.349488 0.263401 1.45585
0.344439 0.263152 1.44501
0.333847 0.262762 1.43342
0.328936 0.262517 1.42264
0.318419 0.26213 1.41111
0.313651 0.261889 1.40039
0.303212 0.261505 1.38893
0.298589 0.261268 1.37828
0.288232 0.260886 1.36688
0.283758 0.260654 1.35629
0.278466 0.260401 1.3456
0.274125 0.260173 1.33506
0.263924 0.259796 1.32379
0.259738 0.259572 1.31331
0.254547 0.259323 1.30272
0.250499 0.259102 1.29229
0.240464 0.258731 1.28113
0.236575 0.258515 1.27076
0.231491 0.25827 1.26027
0.226423 0.258025 1.24979
0.222712 0.257814 1.23949
0.212878 0.257449 1.22848
0.209331 0.257243 1.21824
0.204378 0.257002 1.20786
0.200978 0.2568 1.19767
0.196078 0.25656 1.18732
0.192826 0.256363 1.17719
0.187982 0.256125 1.16688
0.183156 0.255888 1.1566
0.180091 0.255695 1.14653
0.170648 0.255343 1.13576
0.172408 0.255272 1.12626
0.163057 0.254922 1.11555
0.164935 0.254854 1.10609
0.155676 0.254507 1.09543
0.155652 0.254392 1.08578
0.14851 0.254099 1.07539
0.143951 0.25387 1.06529
0.141559 0.253696 1.05543
0.137063 0.253469 1.04537
0.139328 0.253412 1.03602
0.130392 0.253075 1.02554
0.130458 0.252963 1.01598
0.123941 0.252687 1.00579
0.119594 0.252465 0.995821
0.122129 0.252415 0.986544
0.11343 0.252085 0.976187
0.116084 0.252038 0.966939
0.111857 0.25182 0.957044
0.110262 0.251668 0.947412
0.106103 0.251451 0.937553
0.101967 0.251236 0.927713
0.100573 0.251089 0.918138
0.0965064 0.250876 0.908334
0.0995315 0.250839 0.899177
0.0912719 0.250522 0.889029
0.0944143 0.250488 0.879899
0.0904746 0.250279 0.87016
0.0895232 0.250143 0.860692
0.085655 0.249936 0.850988
0.0859771 0.249833 0.841649
0.0810626 0.2496 0.831886
0.0814181 0.249497 0.82257
0.0807979 0.249371 0.813184
0.0770868 0.249168 0.80356
0.0766201 0.249046 0.794207
0.0729833 0.248846 0.784616
0.0766976 0.248827 0.775606
0.0731208 0.248628 0.766043
0.0729326 0.248513 0.75675
0.0694314 0.248317 0.747219
0.0693934 0.248206 0.737956
0.0699088 0.248108 0.728742
0.0699942 0.248 0.719505
0.0701778 0.247895 0.710282
0.0707456 0.247799 0.701094
0.0710493 0.247697 0.691895
0.0714476 0.247598 0.68271
0.0719385 0.2475 0.673539
0.0725833 0.247407 0.664385
0.0731888 0.247312 0.655235
0.0776383 0.247312 0.646339
0.0821319 0.247313 0.637446
0.0943581 0.247504 0.629034
1.18949 0.306359 2.10067
1.12303 0.304397 2.07681
1.07393 0.302911 2.05633
1.03195 0.301622 2.03727
0.997055 0.300528 2.01961
0.967458 0.299579 2.003
0.937976 0.298634 1.98647
0.910127 0.297735 1.97032
0.886108 0.296941 1.95492
0.859717 0.296083 1.93915
0.837189 0.295332 1.92413
0.817559 0.294659 1.90969
0.796408 0.293946 1.89502
0.774129 0.293203 1.88021
0.757162 0.292606 1.86638
0.738572 0.291964 1.85231
0.720751 0.291344 1.83842
0.703835 0.29075 1.82473
0.68146 0.290007 1.81016
0.669234 0.289541 1.79736
0.651625 0.288929 1.78369
0.639537 0.288468 1.77098
0.626905 0.287992 1.75822
0.605338 0.287274 1.74402
0.593443 0.286819 1.73146
0.581628 0.286367 1.71894
0.569897 0.285917 1.70647
0.558252 0.28547 1.69405
0.546698 0.285026 1.68167
0.535518 0.284593 1.66939
0.519014 0.284016 1.6563
0.512763 0.283716 1.64486
0.50167 0.283286 1.63268
0.485293 0.282714 1.61972
0.479444 0.282426 1.60842
0.468402 0.281999 1.59635
0.457425 0.281573 1.58432
0.451719 0.28129 1.57312
0.435623 0.280728 1.56038
0.430113 0.280451 1.54926
0.419258 0.28003 1.53736
0.413871 0.279757 1.5263
0.403393 0.279348 1.51452
0.392651 0.278931 1.50273
0.387496 0.278665 1.49178
0.37682 0.278251 1.48005
0.371799 0.277989 1.46916
0.361193 0.277578 1.4575
0.35631 0.27732 1.44667
0.345776 0.276911 1.43507
0.341033 0.276658 1.4243
0.335632 0.276387 1.41347
0.325977 0.276002 1.40207
0.320624 0.275733 1.39128
0.311145 0.275355 1.37996
0.310844 0.275221 1.36988
0.301523 0.274847 1.35863
0.296265 0.274581 1.34793
0.287127 0.274213 1.33675
0.283061 0.273979 1.32625
0.277891 0.273717 1.31563
0.272734 0.273455 1.30503
0.26395 0.273097 1.29399
0.260179 0.272873 1.2836
0.255115 0.272614 1.27307
0.250064 0.272356 1.26255
0.241645 0.272009 1.25165
0.241471 0.271881 1.24177
0.233224 0.271539 1.23093
0.2299 0.271328 1.2207
0.225 0.271075 1.2103
0.220117 0.270823 1.19992
0.216976 0.270617 1.18976
0.212147 0.270367 1.17942
0.209152 0.270165 1.16931
0.204379 0.269917 1.15901
0.196868 0.269597 1.14842
0.196816 0.269473 1.13868
0.189486 0.269158 1.12815
0.189459 0.269036 1.11845
0.182311 0.268726 1.10798
0.177724 0.268484 1.0978
0.175345 0.2683 1.08788
0.170819 0.26806 1.07775
0.16859 0.267881 1.06788
0.168643 0.267762 1.05825
0.162047 0.267468 1.04795
0.162127 0.267349 1.03835
0.160176 0.267178 1.02855
0.155825 0.266944 1.01853
0.154024 0.266777 1.00877
0.149737 0.266544 0.998788
0.148087 0.266381 0.989074
0.146542 0.266221 0.979383
0.142365 0.265993 0.969451
0.140969 0.265837 0.959799
0.136859 0.26561 0.949904
0.139911 0.265571 0.94069
0.135854 0.265346 0.930825
0.134732 0.265198 0.921243
0.133712 0.265053 0.911681
0.129769 0.264832 0.901869
0.128894 0.26469 0.892344
0.129215 0.264581 0.882932
0.128462 0.264443 0.873436
0.127807 0.264308 0.863958
0.131377 0.264283 0.854846
0.127639 0.264068 0.845126
0.130493 0.264025 0.835965
0.130922 0.263919 0.82661
0.13064 0.263794 0.817204
0.134481 0.263776 0.808137
0.137796 0.263745 0.799029
0.149237 0.263926 0.790556
1.26897 0.324113 2.12713
1.16636 0.321012 2.09633
1.11028 0.31925 2.07443
1.0684 0.317898 2.0553
1.03018 0.316652 2.03694
0.997138 0.315557 2.01962
0.965819 0.314511 2.0027
0.940067 0.313626 1.98685
0.912376 0.312686 1.97072
0.889918 0.311897 1.9556
0.866157 0.311072 1.9403
0.843851 0.310289 1.92532
0.821598 0.309508 1.9104
0.799407 0.308729 1.89555
0.7825 0.308103 1.88167
0.760454 0.30733 1.86695
0.743149 0.306693 1.8531
0.725365 0.306043 1.83921
0.707652 0.305396 1.82538
0.695469 0.304907 1.81254
0.677906 0.304265 1.79882
0.665862 0.303781 1.78607
0.648468 0.303145 1.77247
0.631733 0.302529 1.75902
0.619881 0.302052 1.74641
0.60811 0.301577 1.73385
0.596422 0.301106 1.72134
0.579824 0.300495 1.70807
0.568267 0.300028 1.69565
0.556803 0.299564 1.68328
0.545657 0.29911 1.67099
0.534324 0.298651 1.65871
0.52309 0.298195 1.64647
0.512031 0.297744 1.63429
0.50094 0.297293 1.62214
0.495214 0.296994 1.61084
0.478995 0.296398 1.59797
0.473407 0.296104 1.58674
0.462671 0.295664 1.57477
0.45181 0.295222 1.5628
0.446439 0.294934 1.55168
0.435637 0.294494 1.53978
0.425214 0.294065 1.52797
0.419651 0.293773 1.51689
0.409383 0.293349 1.50515
0.404374 0.293074 1.4942
0.393751 0.29264 1.48247
0.388877 0.292369 1.47158
0.378323 0.291938 1.45991
0.373588 0.291672 1.44908
0.368178 0.291386 1.43818
0.358513 0.290982 1.42671
0.354015 0.290722 1.41598
0.343658 0.290299 1.40447
0.339307 0.290044 1.3938
0.329029 0.289624 1.38235
0.324826 0.289374 1.37174
0.319594 0.289095 1.36101
0.31058 0.288711 1.34981
0.310337 0.288573 1.33977
0.301484 0.288194 1.32863
0.29767 0.287956 1.31816
0.287687 0.287546 1.30693
0.284029 0.287313 1.29652
0.278988 0.287042 1.28595
0.275469 0.286813 1.27559
0.270477 0.286544 1.26507
0.267098 0.286319 1.25476
0.262157 0.286052 1.24428
0.254149 0.285699 1.23344
0.254031 0.285566 1.22358
0.246194 0.285219 1.21281
0.243224 0.285007 1.20263
0.238437 0.284745 1.19226
0.23561 0.284537 1.18213
0.230878 0.284277 1.17179
0.228195 0.284074 1.16171
0.225616 0.283874 1.15166
0.22098 0.283618 1.14138
0.218546 0.283422 1.13137
0.213968 0.283167 1.12114
0.211678 0.282976 1.11117
0.209491 0.282788 1.10123
0.205013 0.282537 1.09106
0.20297 0.282353 1.08116
0.198553 0.282104 1.07102
0.196654 0.281924 1.06117
0.199315 0.281871 1.05179
0.194989 0.281625 1.04171
0.193312 0.281452 1.03191
0.191734 0.281282 1.02213
0.19191 0.28116 1.01254
0.186078 0.280874 1.00236
0.189088 0.280831 0.99307
0.187822 0.28067 0.983367
0.18665 0.280512 0.973684
0.189858 0.280474 0.964426
0.188848 0.280321 0.954776
0.187927 0.28017 0.945144
0.191319 0.280138 0.935919
0.197884 0.280193 0.926984
0.208744 0.280366 0.918432
1.2196 0.33806 2.11781
1.15341 0.335908 2.0939
1.10453 0.33428 2.07336
1.06469 0.332925 2.05462
1.03003 0.331727 2.03692
0.998902 0.330636 2.01995
0.971309 0.329653 2.0037
0.945768 0.328732 1.98789
0.919809 0.327799 1.97207
0.896094 0.326935 1.95671
0.873895 0.326117 1.94168
0.851745 0.325301 1.92672
0.833663 0.324608 1.91253
0.811714 0.323799 1.89771
0.795007 0.323149 1.88385
0.773207 0.322346 1.86916
0.756658 0.321702 1.85543
0.739287 0.321033 1.8416
0.721693 0.320358 1.82778
0.709618 0.319849 1.81494
0.692183 0.31918 1.80123
0.675441 0.318533 1.78768
0.658137 0.317869 1.77408
0.646331 0.31737 1.76143
0.634605 0.316874 1.74883
0.622963 0.31638 1.73628
0.606392 0.315741 1.72296
0.59488 0.315252 1.7105
0.583461 0.314767 1.69809
0.572136 0.314285 1.68573
0.561046 0.31381 1.67343
0.549856 0.313333 1.66115
0.538768 0.31286 1.64892
0.527766 0.312389 1.63674
0.516823 0.311921 1.62459
0.511137 0.311608 1.61329
0.495086 0.310989 1.60042
0.489634 0.310685 1.5892
0.478784 0.310221 1.57719
0.468251 0.309766 1.56526
0.46302 0.309469 1.55414
0.452276 0.30901 1.54224
0.442012 0.308564 1.53043
0.437013 0.308275 1.51942
0.426382 0.30782 1.50761
0.421517 0.307535 1.49666
0.416062 0.307234 1.48565
0.401134 0.306653 1.47331
0.396515 0.306376 1.46247
0.391138 0.306078 1.45153
0.381599 0.305657 1.44004
0.377217 0.305388 1.42929
0.366901 0.304945 1.41774
0.362664 0.304681 1.40705
0.357412 0.304388 1.39624
0.353304 0.304128 1.3856
0.348095 0.303837 1.37483
0.339178 0.303437 1.36359
0.335319 0.303185 1.35305
0.330195 0.302897 1.34235
0.32158 0.302506 1.33122
0.321392 0.302363 1.3212
0.31294 0.301978 1.31013
0.30947 0.301739 1.29972
0.304483 0.301456 1.28914
0.30115 0.301222 1.27878
0.297918 0.300991 1.26845
0.288238 0.300571 1.25734
0.285164 0.300345 1.24707
0.285074 0.300206 1.23716
0.277388 0.299846 1.22636
0.274555 0.299628 1.21616
0.274504 0.299491 1.2063
0.26711 0.29914 1.19559
0.264516 0.298929 1.18547
0.264506 0.298793 1.17565
0.257404 0.298452 1.16503
0.255048 0.298248 1.15497
0.257373 0.298181 1.14545
0.252842 0.297915 1.13517
0.250701 0.297718 1.12517
0.248657 0.297525 1.1152
0.24671 0.297334 1.10525
0.244857 0.297146 1.09532
0.247567 0.297091 1.08588
0.245879 0.296909 1.07599
0.244282 0.296729 1.06612
0.247184 0.296679 1.05673
0.250137 0.296631 1.04734
0.25314 0.296585 1.03796
0.259032 0.296622 1.02888
0.272271 0.296872 1.02052
1.28645 0.355698 2.142
1.20133 0.352851 2.11436
1.14745 0.350989 2.09278
1.10068 0.349353 2.07264
1.06427 0.348044 2.05454
1.03162 0.346855 2.03721
1.00235 0.345773 2.02058
0.97321 0.344697 2.00405
0.949375 0.343787 1.98854
0.925713 0.342885 1.97313
0.903631 0.342032 1.95806
0.885424 0.341302 1.94374
0.863516 0.340456 1.92881
0.841666 0.339613 1.91394
0.819883 0.338773 1.89914
0.803314 0.338097 1.8853
0.785914 0.337396 1.87137
0.769576 0.336728 1.85766
0.753323 0.336064 1.84401
0.731123 0.335215 1.82939
0.719124 0.334684 1.81655
0.701779 0.333988 1.80284
0.689933 0.333464 1.7901
0.678163 0.332942 1.77741
0.661092 0.332256 1.76387
0.649498 0.331741 1.75128
0.632962 0.331073 1.73792
0.621497 0.330563 1.72542
0.610124 0.330056 1.71296
0.598846 0.329553 1.70056
0.582467 0.328892 1.68738
0.576637 0.328559 1.6759
0.565594 0.328064 1.66363
0.554615 0.327572 1.6514
0.543716 0.327083 1.63922
0.532924 0.326598 1.62708
0.527283 0.326273 1.61577
0.511404 0.325631 1.60291
0.506089 0.325316 1.5917
0.500506 0.324994 1.58046
0.484926 0.324363 1.56775
0.479835 0.324056 1.55664
0.474316 0.323737 1.54549
0.45905 0.323117 1.53292
0.454193 0.322818 1.52192
0.448743 0.322502 1.51084
0.438903 0.322051 1.49916
0.43427 0.32176 1.48825
0.42889 0.321447 1.47724
0.414269 0.320849 1.46496
0.409885 0.320568 1.45415
0.405597 0.320289 1.44337
0.395319 0.319826 1.43178
0.391174 0.319553 1.42106
0.387124 0.319282 1.41037
0.381933 0.318977 1.39954
0.378013 0.318711 1.38891
0.372864 0.318408 1.37812
0.364157 0.317995 1.36689
0.360482 0.317738 1.35634
0.356905 0.317484 1.34582
0.347009 0.317036 1.3345
0.343584 0.316787 1.32404
0.343447 0.316638 1.31401
0.340135 0.316393 1.30359
0.332121 0.316004 1.2926
0.329024 0.315766 1.28224
0.326024 0.315531 1.27191
0.321206 0.315241 1.26137
0.318339 0.31501 1.25109
0.31557 0.314783 1.24083
0.312896 0.314559 1.2306
0.312884 0.314416 1.2207
0.310323 0.314195 1.21051
0.307856 0.313978 1.20034
0.305483 0.313764 1.1902
0.307806 0.313692 1.18061
0.305597 0.313484 1.1705
0.305891 0.313351 1.1607
0.308446 0.313287 1.15115
0.311052 0.313225 1.14161
0.313707 0.313164 1.13209
0.318985 0.313183 1.12285
0.338559 0.313636 1.11515
1.24883 0.369926 2.13486
1.18802 0.367754 2.11185
1.14143 0.366052 2.09165
1.10192 0.364583 2.07287
1.06752 0.363283 2.05514
1.03651 0.362096 2.03811
1.00748 0.360975 2.02152
0.983713 0.360028 2.00596
0.960109 0.359086 1.99049
0.933044 0.358033 1.97446
0.914853 0.35727 1.96008
0.89306 0.356391 1.9451
0.871319 0.355514 1.93019
0.853614 0.35477 1.91605
0.837184 0.354068 1.90218
0.815732 0.353203 1.88747
0.799454 0.352507 1.87372
0.783257 0.351815 1.86002
0.767146 0.351126 1.84638
0.750782 0.35043 1.83274
0.733485 0.349704 1.81898
0.721678 0.349157 1.80619
0.704562 0.348438 1.79255
0.692922 0.347898 1.77987
0.676386 0.347199 1.7664
0.664869 0.346664 1.75381
0.65344 0.346132 1.74126
0.642102 0.345604 1.72876
0.630858 0.345079 1.71631
0.614511 0.34439 1.70307
0.603413 0.343871 1.69071
0.592415 0.343356 1.6784
0.586743 0.343013 1.66696
0.570612 0.342333 1.65391
0.559864 0.341827 1.64173
0.554455 0.341495 1.63041
0.543913 0.340996 1.61832
0.533136 0.340491 1.60622
0.522752 0.339999 1.59422
0.517657 0.339678 1.58304
0.512149 0.339344 1.57182
0.496863 0.338695 1.55917
0.491998 0.338382 1.5481
0.48722 0.338073 1.53705
0.476695 0.337579 1.52519
0.46696 0.337111 1.51348
0.462422 0.33681 1.50254
0.457079 0.336484 1.4915
0.447614 0.336025 1.4799
0.443305 0.335733 1.46905
0.439088 0.335444 1.45823
0.433848 0.335122 1.44729
0.42477 0.334677 1.43584
0.420789 0.334397 1.42511
0.416901 0.334119 1.41441
0.41177 0.333802 1.40357
0.403089 0.333372 1.39226
0.399441 0.333103 1.38165
0.395888 0.332837 1.37107
0.392428 0.332575 1.36052
0.387446 0.332264 1.34979
0.384115 0.332006 1.33929
0.380879 0.331752 1.32881
0.377735 0.331501 1.31837
0.374686 0.331252 1.30795
0.371728 0.331008 1.29755
0.368863 0.330766 1.28719
0.366089 0.330527 1.27684
0.368107 0.330441 1.2671
0.365494 0.330208 1.25681
0.367635 0.330127 1.24709
0.367377 0.329969 1.2371
0.369675 0.329893 1.22742
0.372023 0.329818 1.21775
0.38133 0.329964 1.2089
0.393091 0.330189 1.20031
1.32721 0.388207 2.16135
1.24246 0.385122 2.13365
1.18594 0.383006 2.11146
1.14246 0.381339 2.09184
1.10623 0.379921 2.07368
1.07209 0.378576 2.05599
1.04311 0.377409 2.03933
1.01426 0.376247 2.02277
0.990638 0.375265 2.00723
0.967198 0.37429 1.99178
0.945411 0.373372 1.97669
0.927355 0.372583 1.96232
0.905736 0.371672 1.94737
0.888028 0.370896 1.93316
0.86661 0.369994 1.91835
0.84526 0.369096 1.9036
0.833153 0.368512 1.89051
0.817094 0.367795 1.87678
0.801116 0.367081 1.8631
0.785224 0.366371 1.84948
0.76942 0.365664 1.83591
0.753346 0.364949 1.82235
0.736785 0.364218 1.80874
0.719758 0.363472 1.7951
0.708196 0.362911 1.78241
0.696719 0.362355 1.76977
0.679992 0.361621 1.7563
0.668705 0.361071 1.74376
0.662821 0.360705 1.73213
0.646515 0.359987 1.71884
0.635451 0.359447 1.70643
0.624487 0.358911 1.69408
0.613625 0.358378 1.68176
0.602868 0.35785 1.6695
0.597268 0.357496 1.65808
0.581418 0.356797 1.64508
0.576128 0.356454 1.63376
0.565724 0.355939 1.62167
0.560204 0.35559 1.61035
0.549943 0.355081 1.59834
0.539798 0.354576 1.58637
0.529772 0.354076 1.57446
0.524985 0.353752 1.56335
0.519581 0.353408 1.55217
0.509809 0.352918 1.54036
0.500161 0.352432 1.52861
0.495697 0.352121 1.51763
0.491322 0.351813 1.50669
0.486045 0.351475 1.49563
0.476769 0.351003 1.48403
0.472621 0.350703 1.47317
0.468564 0.350407 1.46235
0.464598 0.350114 1.45155
0.459453 0.349782 1.44062
0.455609 0.349494 1.42987
0.446934 0.349044 1.41849
0.443291 0.348763 1.40782
0.439739 0.348486 1.39717
0.436278 0.348211 1.38655
0.432908 0.34794 1.37596
0.429629 0.347672 1.36539
0.431251 0.347568 1.35548
0.428132 0.347306 1.34496
0.426939 0.347108 1.33471
0.424048 0.346854 1.32425
0.425974 0.34676 1.31441
0.429945 0.346735 1.30484
0.434062 0.346714 1.29528
0.440877 0.346783 1.28606
0.451966 0.346994 1.27735
1.30145 0.402817 2.15644
1.23596 0.400295 2.13242
1.18467 0.398281 2.11122
1.14343 0.396627 2.09202
1.11239 0.395337 2.07483
1.07844 0.393945 2.05717
1.05287 0.392852 2.04113
1.02932 0.391832 2.02553
1.00255 0.390699 2.0094
0.979279 0.389691 1.99398
0.961239 0.388869 1.97955
0.934715 0.387747 1.96365
0.922052 0.387118 1.95028
0.900754 0.386183 1.93542
0.884546 0.385429 1.92151
0.867367 0.384642 1.90748
0.846364 0.38372 1.89282
0.830454 0.382979 1.8791
