ply
format ascii 1.0
comment Created by Open3D
element vertex 1855
property double x
property double y
property double z
end_header
1.28353 0.673125 1.00292
1.42403 0.673547 1.05747
1.34302 0.674119 1.00022
1.48855 0.674688 1.05623
1.44321 0.675348 1.01615
1.47708 0.675679 1.01795
1.45619 0.676475 0.989099
1.53588 0.677266 1.01054
1.4828 0.678052 0.965616
1.48469 0.678703 0.949091
1.51153 0.679479 0.944124
1.59722 0.680251 0.968595
1.60101 0.681017 0.952122
1.50402 0.681899 0.8844
1.43504 0.682652 0.831572
1.65728 0.6834 0.924362
1.72988 0.684144 0.942342
1.54801 0.685094 0.831563
1.52016 0.686149 0.797001
1.80541 0.68687 0.921367
1.89758 0.687587 0.949199
1.80726 0.688613 0.883506
1.85332 0.689316 0.888326
1.83849 0.690323 0.860448
1.87913 0.69101 0.862611
1.90528 0.691998 0.855291
1.85072 0.692671 0.809904
1.97058 0.693638 0.849516
1.96244 0.694106 0.828813
1.89097 0.695055 0.77283
2.00912 0.695995 0.8117
1.924 0.69663 0.751178
2.08748 0.697366 0.814173
2.01726 0.698277 0.758978
2.09879 0.698998 0.781052
1.96569 0.699889 0.694492
2.15116 0.700595 0.768597
2.00237 0.701179 0.676462
2.1652 0.701869 0.739311
2.07863 0.702552 0.67749
2.20857 0.703396 0.722668
2.34668 0.704063 0.77325
2.26538 0.704723 0.714163
2.19173 0.705375 0.658926
2.23182 0.706021 0.660595
2.0482 0.706658 0.55044
2.22291 0.707573 0.617281
2.25033 0.708195 0.612716
2.35134 0.70881 0.644976
2.4129 0.709417 0.657555
2.30152 0.710016 0.583694
2.32025 0.710461 0.576084
2.41022 0.711333 0.600713
2.41537 0.71191 0.585223
2.44935 0.712338 0.585308
2.43207 0.712902 0.558671
2.41869 0.713608 0.532829
2.44016 0.714157 0.525643
2.46566 0.714856 0.519245
2.64595 0.71539 0.591542
2.48053 0.715785 0.492079
2.3534 0.7166 0.408363
2.46383 0.716984 0.446878
2.66402 0.717662 0.527873
2.50858 0.718159 0.432498
2.57763 0.718829 0.447946
2.54627 0.719191 0.415673
2.62357 0.719854 0.435252
2.57049 0.720516 0.389631
2.62448 0.720976 0.399178
2.59032 0.721516 0.363968
2.59339 0.722169 0.346424
2.65542 0.72282 0.358357
2.63871 0.72325 0.332722
2.68426 0.723786 0.337316
2.7615 0.724426 0.356877
2.78631 0.725063 0.350213
2.74039 0.725698 0.308187
2.68985 0.726329 0.263857
2.84153 0.726862 0.321432
2.77441 0.727835 0.265887
2.78751 0.728461 0.25335
2.82254 0.729348 0.249541
2.91796 0.730241 0.275841
2.88348 0.731225 0.236389
2.99923 0.732868 0.266402
5.30332 0.854746 -0.429512
5.23918 0.851795 -0.449852
5.55496 0.84984 -0.289572
5.25067 0.848155 -0.441826
5.20602 0.846647 -0.465883
5.29313 0.845572 -0.428137
5.19961 0.844513 -0.480816
5.22157 0.843239 -0.473655
5.17307 0.842617 -0.507936
5.22783 0.841784 -0.48854
5.26974 0.840978 -0.475793
5.10088 0.840563 -0.572176
5.25068 0.839965 -0.507452
5.29582 0.839585 -0.497136
5.02464 0.839199 -0.644912
5.20303 0.838857 -0.568321
5.1912 0.838531 -0.58698
5.21534 0.838386 -0.589415
5.22837 0.838259 -0.597569
5.00301 0.838151 -0.725101
5.20124 0.838099 -0.641384
5.02597 0.838187 -0.745802
5.16725 0.838276 -0.691953
5.31882 0.838348 -0.632792
5.16499 0.838507 -0.727197
5.17808 0.838785 -0.739338
5.28565 0.838999 -0.703599
5.26895 0.8395 -0.732869
5.25039 0.839913 -0.762212
5.28313 0.840486 -0.767528
5.30661 0.841031 -0.777211
5.36951 0.841604 -0.767478
5.40022 0.842487 -0.776984
5.40658 0.843526 -0.800274
5.36361 0.844674 -0.849366
5.4059 0.846267 -0.860373
5.48714 0.848405 -0.857494
1.53236 0.696383 1.23951
1.60675 0.694234 1.27778
1.41373 0.693086 1.17588
1.33385 0.69195 1.13052
1.25391 0.691286 1.08206
1.4739 0.69069 1.18315
1.34795 0.690301 1.10992
1.40941 0.690174 1.12867
1.49976 0.690053 1.16183
1.43567 0.690121 1.11652
1.44153 0.69019 1.10617
1.47549 0.690332 1.10938
1.42064 0.690727 1.06648
1.50359 0.690802 1.09462
1.39667 0.691446 1.02397
1.38919 0.691767 1.00521
1.50177 0.692331 1.04483
1.42178 0.692731 0.989245
1.58696 0.69329 1.05515
1.6133 0.693847 1.05163
1.44947 0.694401 0.953021
1.60072 0.695186 1.01034
1.55088 0.695965 0.967126
1.41961 0.696738 0.883212
1.61091 0.697505 0.960594
1.6703 0.698266 0.972029
1.69306 0.698798 0.966729
1.65515 0.69955 0.929531
1.66625 0.700296 0.91685
1.69833 0.701037 0.914667
1.72888 0.702123 0.909256
1.80657 0.702849 0.929932
1.75974 0.703569 0.888356
1.97092 0.704625 0.973362
1.9639 0.70533 0.95174
1.81571 0.706029 0.859547
1.89587 0.706851 0.880625
1.89775 0.707739 0.862053
1.88987 0.708544 0.839166
1.82214 0.709542 0.78493
1.92067 0.710005 0.817662
1.98401 0.710985 0.829036
1.96618 0.711954 0.799859
2.02796 0.712398 0.814285
2.02932 0.713348 0.794782
2.03721 0.7141 0.779963
1.99825 0.71503 0.740378
2.08068 0.715449 0.765221
2.05997 0.71636 0.734851
2.20093 0.717081 0.786687
2.10027 0.717794 0.717739
2.23079 0.718676 0.763103
2.1061 0.719373 0.682207
2.12113 0.720062 0.671199
2.0719 0.720744 0.628092
2.24205 0.721419 0.694706
2.2355 0.722086 0.673003
2.32816 0.722746 0.700939
2.20132 0.723398 0.619155
2.10528 0.724042 0.552808
2.34742 0.72499 0.653204
2.07072 0.725618 0.496595
2.27601 0.726238 0.581019
2.10904 0.726698 0.48052
2.20236 0.727305 0.509022
2.37977 0.728217 0.577185
2.44292 0.72866 0.591816
2.32004 0.729243 0.512323
2.46925 0.730136 0.566456
2.44041 0.730562 0.535164
2.44563 0.731121 0.519843
2.451 0.731857 0.503198
2.54043 0.732401 0.530052
2.4589 0.733128 0.469975
2.5312 0.733525 0.489382
2.63592 0.734246 0.522429
2.58347 0.734761 0.478496
2.63988 0.735472 0.487415
2.48959 0.736182 0.392964
2.54744 0.736551 0.405277
2.73883 0.737373 0.480728
2.54073 0.738072 0.362392
2.82067 0.738767 0.483075
2.68356 0.739347 0.396136
2.75199 0.739799 0.412974
2.74626 0.740729 0.388861
2.63953 0.741416 0.316177
2.66973 0.741737 0.314898
2.76396 0.742778 0.339772
2.68825 0.743454 0.282613
2.79307 0.744397 0.313507
2.83961 0.745445 0.314368
2.68685 0.746782 0.213167
2.86964 0.748224 0.278827
5.48737 0.876649 -0.364394
5.40464 0.872981 -0.388047
5.20921 0.870555 -0.479444
5.34324 0.868993 -0.414062
5.38375 0.867444 -0.395503
5.18654 0.865915 -0.495937
5.3845 0.864827 -0.402849
5.21272 0.863757 -0.494771
5.28294 0.862868 -0.467351
5.24259 0.862004 -0.495411
5.15643 0.861166 -0.546599
5.22893 0.860729 -0.522208
5.20971 0.860099 -0.541835
5.13969 0.859697 -0.589006
5.11346 0.859124 -0.612639
5.20836 0.858916 -0.579163
5.05419 0.858558 -0.668783
5.34881 0.858242 -0.534394
5.17718 0.858095 -0.634741
5.0775 0.857985 -0.699459
5.1285 0.857886 -0.688946
5.18752 0.857918 -0.675673
5.20142 0.857898 -0.684463
5.03226 0.858007 -0.786034
5.30245 0.85821 -0.668841
5.31991 0.858373 -0.677626
5.19086 0.858659 -0.760877
5.34988 0.858997 -0.70061
5.38957 0.859385 -0.70052
5.32558 0.85968 -0.751351
5.37973 0.860293 -0.746259
5.23582 0.860957 -0.840718
5.25492 0.861632 -0.853798
5.25493 0.862532 -0.878668
5.45634 0.86363 -0.804837
5.56244 0.864919 -0.780589
5.23967 0.866664 -0.975333
5.47761 0.869853 -0.904149
1.60533 0.71375 1.22289
1.67518 0.712307 1.25414
1.47639 0.710658 1.15243
1.45754 0.71023 1.13286
1.54253 0.709808 1.16518
1.54358 0.709392 1.15551
1.46098 0.708984 1.10398
1.44741 0.709037 1.08396
1.46004 0.708894 1.07833
1.43991 0.709009 1.05462
1.44971 0.709318 1.04459
1.4887 0.709438 1.0504
1.61325 0.709811 1.0973
1.51261 0.710121 1.03202
1.58498 0.71043 1.05323
1.59553 0.711225 1.04028
1.57862 0.711597 1.0164
1.73851 0.712143 1.07974
1.6714 0.712686 1.02958
1.54767 0.713226 0.951108
1.71419 0.713997 1.01617
1.51967 0.71453 0.902312
1.8258 0.715291 1.0372
1.60351 0.716045 0.907901
1.7011 0.716793 0.938557
1.84432 0.717693 0.990952
1.68893 0.718427 0.895156
1.68048 0.718934 0.874372
1.86735 0.719876 0.948214
1.69871 0.720745 0.844775
1.86349 0.721453 0.909137
1.83767 0.722519 0.87567
1.71949 0.723 0.800082
2.00783 0.724048 0.923757
1.97139 0.724724 0.887621
1.89843 0.725546 0.832164
1.86774 0.726208 0.798955
1.92171 0.727015 0.807016
1.96419 0.728014 0.807943
2.02935 0.728454 0.824155
2.14017 0.729433 0.85933
2.06395 0.730208 0.802411
1.99429 0.731167 0.74742
1.91566 0.73158 0.691844
2.07122 0.732519 0.749552
2.21493 0.733262 0.802715
2.15059 0.733997 0.751884
1.98208 0.734725 0.648995
2.1849 0.735624 0.730498
2.18529 0.736335 0.712125
2.15314 0.737038 0.677517
2.11984 0.737734 0.642359
2.29217 0.738422 0.710055
2.23454 0.739101 0.662797
2.3024 0.739773 0.678325
2.30315 0.740437 0.660328
2.36036 0.741272 0.669273
2.35297 0.741921 0.647264
2.41766 0.742562 0.661329
2.30564 0.743195 0.58708
2.45516 0.74382 0.643642
2.37444 0.744627 0.583688
2.3209 0.745237 0.538783
2.26422 0.746036 0.490853
2.5787 0.74663 0.630031
2.39702 0.747216 0.521169
2.5179 0.748 0.562054
2.5922 0.74857 0.581263
2.47537 0.749345 0.503308
2.35074 0.749761 0.424177
2.40928 0.750664 0.432876
2.31981 0.751068 0.371383
2.50488 0.751827 0.444408
2.72148 0.752583 0.533182
2.76423 0.753337 0.535029
2.50094 0.754214 0.382866
2.5937 0.754587 0.412626
2.63821 0.755328 0.415375
2.65343 0.756065 0.40348
2.84939 0.757181 0.478955
2.69236 0.757914 0.380909
2.79495 0.758643 0.412675
2.80018 0.759648 0.39355
2.86468 0.760769 0.403113
2.98137 0.762292 0.43553
2.79205 0.765671 0.30011
5.3005 0.894642 -0.464453
5.28114 0.891744 -0.464056
5.47037 0.889709 -0.367117
5.32555 0.888121 -0.441205
5.21119 0.88655 -0.500165
5.29705 0.88516 -0.460618
5.29901 0.884061 -0.465642
5.24709 0.88314 -0.499194
4.98231 0.882243 -0.639374
5.25175 0.881374 -0.512671
5.16519 0.880914 -0.567715
5.21089 0.880098 -0.553309
5.33008 0.879675 -0.505782
5.20768 0.879222 -0.578755
5.32978 0.87884 -0.530125
5.2274 0.878451 -0.593651
5.24897 0.878263 -0.597077
5.34536 0.877944 -0.561859
5.26845 0.8778 -0.614913
5.36475 0.877688 -0.581664
5.43221 0.877623 -0.563277
5.33048 0.877659 -0.630437
5.25677 0.877607 -0.682754
5.22557 0.877782 -0.715969
5.21636 0.877927 -0.737902
5.45068 0.878051 -0.637886
5.44755 0.878367 -0.658419
5.30895 0.878607 -0.74599
5.22965 0.879015 -0.805508
5.258 0.879606 -0.812987
5.41832 0.880125 -0.753808
5.39993 0.880824 -0.785732
5.3052 0.881556 -0.856175
5.37665 0.882511 -0.845708
5.40843 0.883749 -0.857857
5.3762 0.885259 -0.904692
5.66718 0.887334 -0.795467
1.50713 0.733402 1.10658
1.53704 0.731436 1.12098
1.39259 0.730231 1.04341
1.60962 0.729297 1.14489
1.61932 0.728854 1.1396
1.41958 0.728417 1.02957
1.58082 0.728457 1.09697
1.51698 0.728284 1.0532
1.67243 0.72837 1.1174
1.6029 0.728414 1.06939
1.65204 0.728755 1.07877
1.45865 0.72905 0.967179
1.70598 0.72959 1.07433
1.66813 0.72993 1.04019
1.54434 0.730222 0.96338
1.6836 0.730754 1.0165
1.72603 0.731283 1.0212
1.72568 0.731809 1.00452
1.66755 0.732568 0.957384
1.72941 0.733085 0.971818
1.64512 0.7336 0.91318
1.53445 0.734342 0.839812
1.64201 0.735305 0.874042
1.70505 0.735985 0.887885
1.90704 0.736705 0.970916
1.93106 0.737196 0.96648
1.8371 0.738303 0.89886
1.85449 0.738782 0.891144
1.80015 0.739692 0.844608
1.93972 0.740337 0.896805
1.97358 0.741228 0.894443
1.92758 0.741861 0.853884
1.85196 0.742909 0.79564
2.06811 0.743354 0.887409
1.80398 0.744381 0.734981
1.90113 0.745195 0.764647
2.06325 0.745822 0.82807
2.04564 0.746619 0.800414
2.10321 0.747409 0.810373
2.02806 0.748385 0.752628
2.04304 0.749158 0.74135
2.00853 0.749549 0.707997
2.19676 0.750307 0.783405
2.21401 0.751243 0.772024
2.15896 0.751984 0.72586
2.21832 0.752716 0.736925
2.20123 0.753441 0.709799
2.1815 0.754158 0.681386
2.23437 0.754866 0.6893
2.20774 0.755567 0.657499
2.25675 0.75663 0.660875
2.22224 0.757314 0.625198
2.37484 0.757821 0.684337
2.46496 0.758491 0.711035
2.19058 0.759151 0.555524
2.35619 0.760177 0.617315
2.53385 0.76066 0.689069
2.46527 0.761297 0.636561
2.36371 0.762301 0.564833
2.43396 0.762766 0.582954
2.49144 0.763758 0.590778
2.44088 0.764211 0.548542
2.508 0.765189 0.561225
2.52211 0.76563 0.551371
2.57406 0.766594 0.556509
2.39142 0.767411 0.445428
2.63588 0.767833 0.550827
2.40641 0.768778 0.415308
2.61506 0.769582 0.499888
2.71853 0.770382 0.531874
2.67864 0.771178 0.492177
2.65793 0.771972 0.462071
2.68164 0.772761 0.454171
2.64118 0.773956 0.411063
2.56069 0.775153 0.347882
2.82184 0.77635 0.455479
2.74433 0.779989 0.374927
5.26667 0.916618 -0.507483
5.32986 0.91238 -0.454494
5.22632 0.910307 -0.504014
5.26828 0.908392 -0.482126
5.19267 0.906785 -0.521712
5.35383 0.905634 -0.446946
5.18955 0.904228 -0.532567
5.22977 0.903275 -0.519965
5.18621 0.902602 -0.551759
5.26535 0.901693 -0.520026
5.28587 0.900964 -0.519212
5.19794 0.900267 -0.572883
5.19249 0.899821 -0.587579
5.3853 0.899184 -0.501384
5.28846 0.898782 -0.562133
5.14235 0.898359 -0.647319
5.33672 0.898149 -0.564195
5.04357 0.897814 -0.723689
5.28579 0.897638 -0.616939
5.21899 0.897496 -0.664996
5.25462 0.897369 -0.661982
5.06988 0.89729 -0.769594
5.36725 0.897311 -0.637074
5.25671 0.897365 -0.708813
5.23228 0.897489 -0.738165
5.27458 0.897589 -0.733916
5.24297 0.897775 -0.767436
5.17511 0.898101 -0.820391
5.26924 0.898483 -0.792899
5.35467 0.898924 -0.770315
5.2671 0.899422 -0.834792
5.30156 0.899979 -0.838828
5.50079 0.900594 -0.761047
5.4778 0.901504 -0.79718
5.5136 0.902589 -0.805623
5.40309 0.903945 -0.889828
5.62445 0.905545 -0.810473
5.61974 0.909338 -0.865129
1.80264 0.752636 1.1773
1.73977 0.750635 1.14533
1.63761 0.749403 1.08894
1.72396 0.748697 1.12352
1.79264 0.748488 1.14614
1.75303 0.748511 1.11313
1.64413 0.748309 1.04692
1.68159 0.748586 1.05084
1.70682 0.748612 1.05023
1.83242 0.748915 1.09803
1.70605 0.749189 1.02002
1.56098 0.749707 0.931068
1.73092 0.750006 1.00103
1.78025 0.750518 1.00929
1.72096 0.751025 0.963252
1.77364 0.751529 0.973202
1.66337 0.752237 0.900326
1.86579 0.752731 0.985164
2.07972 0.753454 1.07425
1.76125 0.75394 0.898663
1.74102 0.75465 0.870696
1.89468 0.755556 0.928353
1.76046 0.756026 0.844937
1.84568 0.756715 0.869768
1.98685 0.757597 0.921252
2.13961 0.758052 0.981371
1.92619 0.75892 0.855605
1.99296 0.759791 0.869875
1.95218 0.760429 0.831927
2.00364 0.761483 0.837255
2.00045 0.761905 0.819507
1.90568 0.762732 0.753205
2.05101 0.763551 0.80697
2.15854 0.764564 0.840478
2.05896 0.764959 0.774649
2.27315 0.765753 0.862935
1.97307 0.76654 0.694117
2.06943 0.767318 0.723542
2.12964 0.768089 0.734924
2.13287 0.768851 0.717845
2.25208 0.769605 0.758781
2.22519 0.770351 0.726705
2.17678 0.771089 0.683893
1.99568 0.771819 0.574777
2.14827 0.77254 0.632532
2.20968 0.773656 0.641887
2.40991 0.77436 0.723532
2.33065 0.775055 0.665465
2.32139 0.775742 0.642439
2.2013 0.776657 0.562345
2.29747 0.777328 0.592094
2.42135 0.777989 0.635739
2.31243 0.778888 0.561261
2.34898 0.779534 0.561306
2.33756 0.780423 0.535586
2.55366 0.781052 0.62548
2.41718 0.781931 0.537245
2.49943 0.782959 0.557263
2.46252 0.78383 0.518809
2.65382 0.784845 0.593373
2.57702 0.785284 0.538078
2.65398 0.786566 0.553457
2.53519 0.787561 0.473026
2.6334 0.788842 0.498954
2.76878 0.790124 0.543416
2.65356 0.791846 0.459267
5.38525 0.933942 -0.449063
5.50748 0.93139 -0.381941
5.3246 0.928978 -0.468507
5.37537 0.927482 -0.446197
5.30585 0.925858 -0.482853
5.33286 0.924845 -0.476573
5.19445 0.923852 -0.553144
5.31472 0.922735 -0.499244
5.12593 0.921941 -0.602695
5.28076 0.92103 -0.533267
5.23729 0.920539 -0.566694
5.30965 0.919831 -0.540256
5.1667 0.919161 -0.621788
5.10911 0.918737 -0.662817
5.16449 0.91828 -0.647048
5.22654 0.917905 -0.628666
5.18914 0.917523 -0.659932
5.16079 0.917342 -0.68847
5.32851 0.917182 -0.619167
5.22978 0.917045 -0.683285
5.35903 0.916952 -0.633801
5.24439 0.916912 -0.706742
5.44189 0.916955 -0.624375
5.33047 0.91699 -0.696386
5.2689 0.917131 -0.744451
5.22362 0.917298 -0.784606
5.2936 0.917582 -0.768217
5.28132 0.917825 -0.792592
5.22581 0.918098 -0.838859
5.35197 0.918555 -0.796
5.54718 0.919189 -0.720269
5.30104 0.919853 -0.865509
5.26673 0.920508 -0.904778
5.5798 0.921471 -0.773245
5.44992 0.922641 -0.865144
5.40636 0.924201 -0.917556
5.60589 0.92646 -0.855023
1.68657 0.772135 1.02784
1.80802 0.770864 1.08332
1.8152 0.770108 1.07848
1.69193 0.76961 1.00682
1.65764 0.769613 0.976504
1.96123 0.769619 1.11511
1.7238 0.769623 0.983215
1.83557 0.769874 1.02436
1.77839 0.770126 0.981006
1.79461 0.770374 0.974375
1.89315 0.770619 1.00891
1.92834 0.771103 1.01024
1.91506 0.771581 0.987336
1.97107 0.77229 0.997574
1.90591 0.772759 0.948768
1.7741 0.773683 0.863655
1.9172 0.774142 0.919004
1.97695 0.774595 0.932694
2.09166 0.775498 0.970903
1.92367 0.775939 0.870763
2.09311 0.776818 0.936442
2.01591 0.777257 0.881676
2.06893 0.778347 0.887699
1.95484 0.778763 0.814593
2.05241 0.779618 0.844386
2.34169 0.780466 0.97006
2.01733 0.780863 0.791893
1.99796 0.781694 0.763294
2.12896 0.782722 0.808535
2.1243 0.783536 0.787357
2.00095 0.784341 0.706859
1.98042 0.785138 0.6778
2.22161 0.785926 0.77963
2.28654 0.786706 0.793361
2.18014 0.787478 0.721461
2.28036 0.788241 0.752898
2.30946 0.788996 0.748814
2.07243 0.789556 0.612968
2.2703 0.790296 0.693317
2.27582 0.791464 0.674511
2.32021 0.792185 0.678191
2.32004 0.792897 0.659628
2.40557 0.793865 0.682115
2.35681 0.794561 0.63932
2.27639 0.79569 0.577649
2.42926 0.796198 0.636928
2.33626 0.797312 0.569001
2.37996 0.798417 0.569443
2.58558 0.799354 0.652005
2.52947 0.800445 0.602571
2.57195 0.801371 0.603571
2.43008 0.802903 0.508056
2.47425 0.804278 0.506624
5.56494 0.955839 -0.383451
5.36096 0.9522 -0.47062
5.42552 0.949598 -0.432294
5.32666 0.948062 -0.484749
5.37332 0.946543 -0.46454
5.35022 0.945348 -0.481948
5.34911 0.943882 -0.485978
5.41853 0.942881 -0.45873
5.37221 0.941908 -0.489553
5.25434 0.94111 -0.557639
5.11436 0.940595 -0.639224
5.29895 0.939711 -0.555283
5.31002 0.939238 -0.561666
5.27624 0.938703 -0.589914
5.54536 0.938071 -0.465845
5.13657 0.937814 -0.684
5.21175 0.93744 -0.659138
5.16429 0.937193 -0.696702
5.26082 0.93701 -0.662834
5.38906 0.936714 -0.612098
5.11129 0.936591 -0.7659
5.42716 0.93652 -0.62333
5.40737 0.936551 -0.64951
5.32699 0.936505 -0.705291
5.41475 0.936613 -0.678377
5.33849 0.936697 -0.733261
5.47466 0.936966 -0.683604
5.49046 0.937179 -0.693625
5.31309 0.937428 -0.800575
5.29707 0.93786 -0.828506
5.52345 0.938354 -0.73581
5.44422 0.938908 -0.796485
5.45001 0.939633 -0.816224
5.3993 0.940437 -0.864951
5.45319 0.941453 -0.863349
5.54106 0.942768 -0.847524
5.48865 0.94451 -0.905786
5.68256 0.948459 -0.86121
1.8035 0.794319 0.951946
1.99773 0.793261 1.04237
1.88205 0.792723 0.974604
1.97651 0.792671 1.00888
1.93814 0.792645 0.976584
1.97762 0.79262 0.983206
1.86788 0.793068 0.91222
1.91569 0.793276 0.92152
1.96675 0.793715 0.930964
2.10159 0.79415 0.982317
2.13649 0.794808 0.982254
1.97598 0.795456 0.884524
2.06852 0.795907 0.914567
2.1681 0.796541 0.946933
2.1962 0.797206 0.943342
2.13035 0.798042 0.891647
2.1707 0.798259 0.897037
2.20446 0.79934 0.893506
2.16871 0.800194 0.856658
2.08384 0.800353 0.799775
2.11859 0.801194 0.798228
2.19788 0.802026 0.818973
2.22247 0.802849 0.812401
2.11055 0.803663 0.737602
2.22 0.804469 0.773518
2.28677 0.805266 0.788129
2.18176 0.806055 0.716878
2.30719 0.807307 0.757721
2.14916 0.808077 0.660024
2.26865 0.808837 0.701122
2.69115 0.810063 0.890569
2.53767 0.81062 0.796499
2.28158 0.81183 0.646687
2.48199 0.813031 0.725144
2.44263 0.814224 0.683735
2.5478 0.815713 0.712528
2.2799 0.817858 0.550256
5.53859 0.973664 -0.402114
5.56513 0.970708 -0.380304
5.47217 0.968672 -0.425887
5.43538 0.967112 -0.447337
5.46724 0.965575 -0.434605
5.39128 0.964372 -0.478561
5.36862 0.963332 -0.497217
5.44038 0.962318 -0.468843
5.49274 0.961474 -0.451582
5.121 0.960522 -0.64543
5.47936 0.959746 -0.475697
5.48563 0.95925 -0.484386
5.20449 0.958541 -0.634928
5.38889 0.958228 -0.556094
5.39069 0.957594 -0.565776
5.3407 0.957333 -0.604555
5.24154 0.956915 -0.666554
5.2968 0.95671 -0.65317
5.39802 0.956382 -0.615735
5.2513 0.956237 -0.703856
5.27756 0.956238 -0.706753
5.35681 0.956132 -0.682219
5.28695 0.956086 -0.732761
5.43428 0.9561 -0.67523
5.36137 0.956224 -0.728797
5.33326 0.956342 -0.759908
5.34292 0.956535 -0.7728
5.15346 0.956875 -0.886565
5.40088 0.957137 -0.781204
5.40256 0.957581 -0.800342
5.45349 0.958089 -0.795432
5.55033 0.958757 -0.769014
5.44146 0.959411 -0.84535
5.39912 0.960326 -0.890774
5.53209 0.961445 -0.850408
5.56906 0.962797 -0.860164
5.59738 0.965209 -0.883831
5.55952 0.995612 -0.415163
5.5462 0.99185 -0.407151
5.37602 0.989307 -0.487524
5.43209 0.987709 -0.462513
5.26612 0.986129 -0.548616
5.2759 0.984578 -0.547027
5.57824 0.983507 -0.403113
5.21679 0.982461 -0.591272
5.29266 0.981445 -0.560984
5.31406 0.980598 -0.559309
5.36612 0.980052 -0.544808
5.34998 0.979267 -0.56237
5.32701 0.978523 -0.58367
5.45836 0.978052 -0.530096
5.25142 0.977515 -0.645099
5.3712 0.977099 -0.597736
5.42905 0.976646 -0.581022
5.19649 0.976417 -0.71139
5.2381 0.976211 -0.704874
5.29077 0.975888 -0.691817
5.39648 0.975747 -0.653788
5.39943 0.975647 -0.667484
5.23471 0.975667 -0.76605
5.37903 0.975607 -0.709404
5.48852 0.975631 -0.670898
5.28045 0.975761 -0.792078
5.23113 0.975892 -0.83391
5.28371 0.976092 -0.825386
5.38112 0.976445 -0.795786
5.41178 0.976754 -0.799188
5.33365 0.977237 -0.858516
5.40645 0.977785 -0.842955
5.61476 0.978495 -0.761082
5.63316 0.979208 -0.774214
5.45145 0.980229 -0.890129
5.41879 0.981531 -0.934033
5.69637 0.983213 -0.826205
5.51542 0.986865 -0.965112
5.48929 1.01335 -0.455254
5.48698 1.0103 -0.448033
5.40607 1.0082 -0.487652
5.37972 1.00658 -0.503889
5.37321 1.00511 -0.511438
5.44085 1.004 -0.484754
5.3019 1.00248 -0.557897
5.29164 1.00186 -0.57415
5.31584 1.00084 -0.569765
5.40427 0.999977 -0.534607
5.14163 0.999156 -0.675271
5.36229 0.998632 -0.576717
5.33886 0.997884 -0.598325
5.2209 0.997411 -0.669472
5.17968 0.996871 -0.701667
5.22191 0.996581 -0.694199
5.38064 0.996128 -0.627114
5.49708 0.995898 -0.583029
5.41329 0.995541 -0.637984
5.30991 0.995376 -0.704336
5.57271 0.995239 -0.58783
5.38186 0.99513 -0.698382
5.38499 0.995079 -0.71242
5.46787 0.995114 -0.687316
5.39335 0.995148 -0.740912
5.38549 0.995336 -0.762475
5.21975 0.995429 -0.86218
5.4898 0.99575 -0.745938
5.41201 0.996033 -0.803304
5.51859 0.996431 -0.769474
5.3701 0.996909 -0.86388
5.57529 0.997487 -0.782324
5.30189 0.998148 -0.940787
5.32411 0.999042 -0.953478
5.45702 1.00008 -0.912096
5.51477 1.00166 -0.913042
5.67503 1.00382 -0.867735
5.6566 1.03475 -0.389661
5.48351 1.03133 -0.465424
5.51703 1.02884 -0.445079
5.41378 1.02718 -0.499747
5.43566 1.02554 -0.491951
5.25881 1.02406 -0.58473
5.44707 1.02295 -0.497837
5.32301 1.02186 -0.567285
5.38505 1.0208 -0.543905
5.42727 1.01991 -0.531714
5.35254 1.01905 -0.578282
5.54931 1.01851 -0.491572
5.38433 1.01772 -0.583808
5.37269 1.01735 -0.602691
5.37321 1.01665 -0.612807
5.33549 1.01633 -0.645161
5.25824 1.01584 -0.695849
5.19335 1.01547 -0.7413
5.43255 1.01524 -0.635883
5.35817 1.015 -0.687195
5.24104 1.01484 -0.760491
5.40453 1.01471 -0.693706
5.49601 1.01461 -0.663165
5.43096 1.01456 -0.711379
5.34819 1.01459 -0.769016
5.40384 1.01465 -0.757734
5.45918 1.01476 -0.747081
5.32058 1.01505 -0.834832
5.62884 1.01518 -0.697856
5.41916 1.01558 -0.822134
5.24615 1.01596 -0.927847
5.53901 1.01649 -0.802024
5.49364 1.01719 -0.846648
5.45642 1.01791 -0.887511
5.53034 1.01892 -0.875162
5.50721 1.02014 -0.913198
5.55798 1.02185 -0.918538
5.65913 1.02621 -0.921273
5.36636 1.05239 -0.539254
5.42737 1.04985 -0.505279
5.44661 1.04768 -0.494907
5.41034 1.04613 -0.517107
5.41893 1.04447 -0.516062
5.31938 1.04332 -0.572961
5.35284 1.04186 -0.560916
5.44195 1.0409 -0.524893
5.54124 1.03985 -0.483063
5.39474 1.03925 -0.567701
5.38811 1.03838 -0.580273
5.3002 1.03756 -0.633825
5.35725 1.03705 -0.617267
5.28156 1.03643 -0.666271
5.41725 1.03597 -0.61083
5.29958 1.03544 -0.681523
5.29131 1.03516 -0.699474
5.3937 1.03491 -0.662299
5.38478 1.03452 -0.679711
5.2706 1.03434 -0.751373
5.21906 1.03417 -0.791834
5.29506 1.03406 -0.768998
5.34139 1.03397 -0.761236
5.3492 1.03396 -0.773308
5.59833 1.03401 -0.665182
5.34212 1.03409 -0.810032
5.43412 1.03425 -0.781417
5.28296 1.03446 -0.874723
5.63844 1.03473 -0.715323
5.40852 1.03517 -0.84999
5.46621 1.03559 -0.84069
5.42672 1.03608 -0.880595
5.42471 1.03681 -0.903767
5.56686 1.03768 -0.85601
5.57929 1.03876 -0.874945
5.54811 1.04024 -0.919065
5.59335 1.04243 -0.930913
5.53457 1.07476 -0.48002
5.50308 1.07089 -0.482428
5.35803 1.06831 -0.551425
5.53397 1.0666 -0.466539
5.50573 1.06491 -0.483845
5.33281 1.06337 -0.574606
5.27256 1.06221 -0.61196
5.36997 1.0612 -0.571587
5.35423 1.0601 -0.587103
5.58522 1.05916 -0.48043
5.40351 1.05826 -0.5804
5.30467 1.05769 -0.641456
5.45235 1.05687 -0.577293
5.40532 1.05646 -0.613727
5.54235 1.05572 -0.555542
5.35572 1.05538 -0.662222
5.48395 1.05485 -0.610031
5.52192 1.05457 -0.604902
5.4635 1.05415 -0.646836
5.35947 1.05393 -0.713254
5.54209 1.05375 -0.636575
5.39513 1.05359 -0.72482
5.37984 1.05348 -0.747682
5.41161 1.05339 -0.747162
5.52376 1.05337 -0.706971
5.45301 1.05342 -0.758813
5.3051 1.05354 -0.849823
5.41722 1.05372 -0.811293
5.49315 1.05394 -0.791175
5.39405 1.05423 -0.859178
5.36919 1.0546 -0.890684
5.45548 1.05513 -0.867896
5.37822 1.05572 -0.927458
5.50428 1.05653 -0.88714
5.61644 1.05743 -0.854552
5.51987 1.05866 -0.929123
5.75801 1.0604 -0.840501
5.54082 1.09184 -0.477298
5.53454 1.08922 -0.477036
5.57219 1.0871 -0.458424
5.45298 1.08537 -0.521181
5.28466 1.08378 -0.609504
5.29503 1.08223 -0.608729
5.46854 1.08107 -0.529331
5.48269 1.08006 -0.530695
5.48331 1.07908 -0.539071
5.502 1.07845 -0.541061
5.35263 1.07754 -0.624928
5.34298 1.07668 -0.639277
5.36094 1.07614 -0.64223
5.47696 1.07548 -0.595218
5.37651 1.075 -0.657833
5.4827 1.07443 -0.61645
5.35271 1.07412 -0.695143
5.37397 1.07384 -0.698421
5.3488 1.07343 -0.723843
5.4453 1.07322 -0.690062
5.49604 1.07302 -0.679177
5.33982 1.07289 -0.772357
5.44964 1.07279 -0.732744
5.30479 1.07273 -0.820771
5.34708 1.07274 -0.815809
5.30085 1.07283 -0.855694
5.52895 1.0729 -0.758322
5.30421 1.07309 -0.888272
5.50718 1.07336 -0.804975
5.61879 1.07371 -0.768077
5.53285 1.07417 -0.830857
5.47095 1.07468 -0.881957
5.71523 1.07538 -0.781553
5.46023 1.07615 -0.931379
5.58234 1.07711 -0.894213
5.63708 1.07868 -0.895638
5.52221 1.11414 -0.509971
5.46063 1.11027 -0.528371
5.75167 1.10761 -0.379406
5.55692 1.10585 -0.479926
5.39541 1.10421 -0.564735
5.44976 1.10261 -0.541818
5.33974 1.10141 -0.604064
5.48894 1.10035 -0.5377
5.32504 1.09932 -0.628118
5.48828 1.09823 -0.554435
5.50281 1.09729 -0.556213
5.3261 1.09679 -0.65695
5.47456 1.09593 -0.592337
5.47666 1.09513 -0.601299
5.33277 1.09472 -0.686294
5.40633 1.09434 -0.662751
5.42762 1.09368 -0.663144
5.30176 1.09337 -0.739826
5.53738 1.09301 -0.635353
5.33452 1.09269 -0.750363
5.2247 1.09248 -0.81981
5.46332 1.09229 -0.715071
5.45362 1.09217 -0.73507
5.57485 1.09208 -0.689864
5.50247 1.09205 -0.741949
5.39874 1.09209 -0.810188
5.35898 1.09217 -0.846748
5.56238 1.09232 -0.762336
5.52313 1.09252 -0.7996
5.41455 1.0928 -0.872192
5.50927 1.09316 -0.843751
5.36852 1.09359 -0.933657
5.37101 1.09424 -0.953632
5.58677 1.09495 -0.867462
5.50775 1.09579 -0.929758
5.68429 1.09704 -0.867587
5.41863 1.13161 -0.565464
5.54743 1.12853 -0.494878
5.39336 1.12634 -0.572152
5.59861 1.12466 -0.473499
5.51173 1.12301 -0.521067
5.52863 1.12177 -0.519752
5.32423 1.1203 -0.627323
5.36893 1.11914 -0.612574
5.54795 1.11812 -0.531674
5.4013 1.11746 -0.616289
5.42264 1.11651 -0.614734
5.44962 1.11562 -0.610714
5.48544 1.11515 -0.605435
5.46394 1.11434 -0.626312
5.50175 1.11394 -0.620486
5.48858 1.11333 -0.63864
5.33452 1.11299 -0.72925
5.31207 1.1126 -0.753584
5.52665 1.11224 -0.659691
5.53508 1.11201 -0.669839
5.57795 1.11168 -0.662031
5.26317 1.11154 -0.834401
5.46978 1.11142 -0.746313
5.50467 1.11136 -0.744496
5.41092 1.11133 -0.80726
5.40448 1.1114 -0.827083
5.57069 1.11146 -0.760572
5.45781 1.11164 -0.834418
5.39034 1.11188 -0.886177
5.35171 1.11221 -0.924104
5.56979 1.11259 -0.834092
5.47167 1.1131 -0.903279
5.60238 1.11375 -0.85906
5.43889 1.11453 -0.963
5.48911 1.11549 -0.961529
5.52003 1.15394 -0.537388
5.6153 1.14956 -0.474678
5.50858 1.14683 -0.524702
5.63202 1.14512 -0.4669
5.51526 1.14342 -0.529305
5.39273 1.14176 -0.594806
5.30961 1.14053 -0.643623
5.487 1.13942 -0.563079
5.32938 1.13834 -0.650274
5.61486 1.13731 -0.516194
5.45363 1.13633 -0.605785
5.33131 1.1357 -0.678505
5.40545 1.1348 -0.651001
5.28858 1.13433 -0.72208
5.41577 1.13353 -0.668736
5.56852 1.13312 -0.60547
5.49762 1.13252 -0.652584
5.27171 1.13218 -0.779164
5.49406 1.13169 -0.680479
5.52969 1.13144 -0.676861
5.5293 1.13121 -0.691486
5.49243 1.1309 -0.72369
5.26164 1.13076 -0.854145
5.37815 1.13065 -0.811206
5.42317 1.1306 -0.804413
5.47274 1.13063 -0.795907
5.44925 1.13067 -0.824074
5.35454 1.13081 -0.888559
5.61829 1.13093 -0.773695
5.42393 1.1312 -0.889021
5.50876 1.13154 -0.865374
5.40871 1.13197 -0.934776
5.48353 1.13259 -0.918213
5.7347 1.13322 -0.813573
5.44371 1.13412 -0.982097
5.43802 1.17092 -0.578881
5.47036 1.16775 -0.556618
5.5709 1.16549 -0.506642
5.50468 1.16376 -0.543707
5.61105 1.16205 -0.494636
5.65253 1.16087 -0.481689
5.52985 1.15924 -0.547652
5.62457 1.15814 -0.508562
5.3829 1.15707 -0.637934
5.37599 1.15638 -0.652642
5.51068 1.15539 -0.594354
5.27971 1.15454 -0.719869
5.40141 1.15395 -0.670902
5.27515 1.1532 -0.74472
5.40043 1.15268 -0.694434
5.64616 1.15204 -0.583011
5.34194 1.15167 -0.748585
5.6036 1.15134 -0.631434
5.43549 1.15086 -0.728096
5.38792 1.1506 -0.766145
5.37786 1.15025 -0.784703
5.53175 1.15009 -0.72264
5.50603 1.14994 -0.750522
5.45678 1.14986 -0.790683
5.51064 1.14982 -0.779565
5.3544 1.14987 -0.874101
5.39863 1.14992 -0.868477
5.54602 1.15007 -0.812014
5.48008 1.1503 -0.86283
5.62101 1.15054 -0.810256
5.46744 1.15091 -0.905909
5.5293 1.1514 -0.894833
5.64282 1.15197 -0.858484
5.47597 1.15276 -0.963972
5.62064 1.19318 -0.508925
5.49302 1.18868 -0.55778
5.46905 1.18597 -0.567147
5.62668 1.18419 -0.492236
5.54033 1.18244 -0.539428
5.67552 1.18073 -0.476066
5.48847 1.17954 -0.577461
5.4636 1.1783 -0.597391
5.19724 1.17718 -0.73889
5.52812 1.17611 -0.582052
5.35105 1.17517 -0.680075
5.61934 1.17451 -0.557461
5.42832 1.17358 -0.66249
5.48775 1.17307 -0.64529
5.50438 1.17224 -0.647192
5.42412 1.1718 -0.700312
5.35373 1.17115 -0.74704
5.61989 1.17079 -0.62747
5.56192 1.17027 -0.668829
5.43846 1.16999 -0.744653
5.51431 1.16974 -0.721055
5.5071 1.1694 -0.738329
5.45984 1.16925 -0.776923
5.45217 1.16911 -0.795872
5.51741 1.16904 -0.77888
5.45767 1.16901 -0.824649
5.40098 1.16902 -0.869174
5.47678 1.16914 -0.848212
5.50944 1.16929 -0.849151
5.40249 1.16949 -0.92021
5.60182 1.16983 -0.839143
5.44488 1.17025 -0.936825
5.61794 1.17073 -0.869971
5.60077 1.17144 -0.899998
5.70072 1.21005 -0.469004
5.61005 1.20687 -0.508885
5.4828 1.20456 -0.572878
5.56653 1.20277 -0.534966
5.37515 1.20108 -0.635301
5.4758 1.19977 -0.592166
5.47904 1.19857 -0.598447
5.47699 1.1974 -0.607586
5.41441 1.19628 -0.647252
5.46406 1.1952 -0.631099
5.39591 1.19417 -0.674175
5.45893 1.1932 -0.652038
5.35788 1.19265 -0.714925
5.54952 1.19207 -0.631148
5.31897 1.19132 -0.757268
5.50363 1.19063 -0.676249
5.33073 1.19024 -0.776046
5.37633 1.18987 -0.766811
5.44116 1.18936 -0.74689
5.34648 1.18909 -0.808386
5.54701 1.18871 -0.721544
5.62544 1.18852 -0.697116
5.50119 1.18837 -0.774288
5.63268 1.18825 -0.723754
5.47448 1.18819 -0.818543
5.47741 1.18818 -0.833097
5.35087 1.1882 -0.912636
5.4143 1.18833 -0.897973
5.58924 1.18853 -0.828129
5.55528 1.18876 -0.862858
5.54509 1.18911 -0.886643
5.64519 1.18958 -0.85616
5.59397 1.19013 -0.901888
5.58551 1.23232 -0.547385
5.59508 1.22823 -0.531262
5.49559 1.22544 -0.578462
5.50899 1.22317 -0.57267
5.54956 1.22137 -0.556411
5.61378 1.2196 -0.528543
5.42268 1.21836 -0.631901
5.50789 1.21716 -0.597312
5.38171 1.216 -0.668658
5.42739 1.21488 -0.654363
5.46202 1.21382 -0.645918
5.49899 1.21314 -0.638943
5.54277 1.21224 -0.626988
5.4546 1.21163 -0.68301
5.55555 1.21083 -0.643168
5.48282 1.21036 -0.692398
5.54727 1.20967 -0.671577
5.49864 1.20928 -0.70929
5.45913 1.20886 -0.742269
5.60558 1.20842 -0.68206
5.51007 1.20815 -0.744037
5.51364 1.20778 -0.755817
5.35157 1.20761 -0.851715
5.53091 1.20744 -0.776952
5.5285 1.20735 -0.793687
5.46116 1.20728 -0.842954
5.4556 1.2073 -0.862026
5.65378 1.20738 -0.779595
5.36597 1.20748 -0.940364
5.55252 1.20769 -0.86468
5.61583 1.20797 -0.851185
5.53238 1.20834 -0.911686
5.64183 1.20882 -0.87653
5.6838 1.24908 -0.497999
5.38509 1.24582 -0.641946
5.63093 1.24351 -0.519912
5.60645 1.24166 -0.536117
5.61464 1.23991 -0.536575
5.35394 1.23857 -0.674162
5.36496 1.23732 -0.676489
5.60377 1.23611 -0.565148
5.42171 1.23494 -0.664502
5.47945 1.23382 -0.644252
5.42001 1.23282 -0.683341
5.46224 1.23214 -0.673802
5.50523 1.23123 -0.662298
5.46414 1.23033 -0.692866
5.60457 1.22983 -0.635362
5.57354 1.2293 -0.663411
5.46943 1.22862 -0.726981
5.50629 1.22823 -0.72201
5.51354 1.22769 -0.730775
5.49197 1.22739 -0.755615
5.37791 1.22713 -0.826945
5.47905 1.22682 -0.790399
5.39752 1.22666 -0.846108
5.33617 1.22645 -0.891504
5.49807 1.22638 -0.826178
5.37179 1.22637 -0.905347
5.44582 1.2264 -0.884644
5.47388 1.22647 -0.887221
5.39189 1.22661 -0.945322
5.47095 1.22684 -0.923533
5.57502 1.22714 -0.889739
5.59838 1.22752 -0.896913
5.77025 1.2718 -0.477814
5.60864 1.26716 -0.544543
5.647 1.26431 -0.522894
5.5724 1.26197 -0.561098
5.74086 1.26017 -0.481289
5.70576 1.25836 -0.503108
5.51571 1.25707 -0.605883
5.44271 1.25583 -0.650347
5.34897 1.25462 -0.705424
5.41538 1.25347 -0.680721
5.54484 1.25278 -0.627598
5.43065 1.25171 -0.693753
5.52517 1.25076 -0.65628
5.37433 1.25013 -0.743623
5.44133 1.24928 -0.720616
5.33551 1.24873 -0.785954
5.61183 1.24801 -0.659078
5.46142 1.24759 -0.747576
5.41274 1.2472 -0.785434
5.44085 1.24667 -0.783887
5.4545 1.24638 -0.791185
5.4734 1.24599 -0.795201
5.52365 1.24579 -0.784844
5.36096 1.24558 -0.880897
5.48469 1.24548 -0.834471
5.53258 1.24542 -0.826235
5.47897 1.2454 -0.86903
5.53046 1.24543 -0.859558
5.43851 1.24555 -0.922496
5.54503 1.24571 -0.886522
5.37951 1.24596 -0.987115
5.57862 1.24631 -0.906157
5.53936 1.28851 -0.593094
5.86629 1.28517 -0.42436
5.50735 1.28279 -0.604714
5.64861 1.28043 -0.535058
5.51914 1.27858 -0.603957
5.54198 1.27725 -0.600143
5.43446 1.27595 -0.661693
5.47298 1.2747 -0.650447
5.67952 1.27349 -0.555459
5.3753 1.27238 -0.716453
5.46883 1.27127 -0.678613
5.3814 1.27057 -0.733885
5.49179 1.26962 -0.688547
5.52193 1.26899 -0.685492
5.63794 1.26815 -0.638069
5.60807 1.26765 -0.665797
5.50555 1.26693 -0.728447
5.6031 1.26651 -0.693015
5.52764 1.26594 -0.743013
5.52474 1.26561 -0.758409
5.49599 1.26532 -0.786972
5.45468 1.26495 -0.821233
5.44645 1.26476 -0.840196
5.44669 1.26456 -0.854872
5.44491 1.26447 -0.871284
5.55928 1.2644 -0.829764
5.543 1.26442 -0.854113
5.57906 1.26447 -0.852564
5.57622 1.26457 -0.870816
5.55823 1.26476 -0.897232
5.68817 1.26503 -0.850247
5.71065 1.31118 -0.52945
5.72322 1.30599 -0.506374
5.73654 1.3031 -0.497604
5.49407 1.3007 -0.619773
5.42574 1.2988 -0.658023
5.56587 1.29743 -0.595439
5.50619 1.29566 -0.630081
5.64918 1.29437 -0.5665
5.38687 1.29312 -0.705827
5.62168 1.29232 -0.59944
5.49776 1.2912 -0.670326
5.43713 1.2901 -0.709671
5.62898 1.28909 -0.6234
5.39321 1.28844 -0.753197
5.56227 1.28756 -0.679036
5.48746 1.28702 -0.729071
5.56105 1.28648 -0.704912
5.63761 1.28581 -0.678327
5.48203 1.28536 -0.769336
5.50664 1.28482 -0.769602
5.40556 1.28448 -0.833993
5.54938 1.2842 -0.776353
5.54936 1.28386 -0.790264
5.61983 1.2836 -0.76939
5.55354 1.28348 -0.817874
5.48922 1.2834 -0.865644
5.46181 1.28337 -0.89524
5.5866 1.28338 -0.84902
5.4937 1.28344 -0.912057
5.56724 1.28359 -0.892386
5.34296 1.28375 -1.02172
5.75022 1.32778 -0.509197
5.63231 1.32389 -0.560002
5.65989 1.32145 -0.54713
5.47736 1.31903 -0.639389
5.62267 1.31762 -0.574113
5.46627 1.31579 -0.656925
5.51825 1.31445 -0.638684
5.42243 1.31316 -0.694568
5.42741 1.31191 -0.700323
5.54565 1.31074 -0.649952
5.40174 1.3096 -0.730806
5.50338 1.30891 -0.69171
5.35103 1.30787 -0.777428
5.45068 1.30725 -0.739779
5.56245 1.30637 -0.694345
5.38454 1.30581 -0.795823
5.52125 1.30506 -0.738736
5.44187 1.30461 -0.791665
5.56297 1.3042 -0.74458
5.40986 1.30364 -0.833664
5.40691 1.30333 -0.849225
5.57023 1.30293 -0.781067
5.57734 1.30272 -0.792257
5.38647 1.30249 -0.90228
5.53314 1.30238 -0.844362
5.46973 1.30229 -0.891631
5.5852 1.30229 -0.850003
5.51162 1.3023 -0.902977
5.49242 1.30237 -0.929146
5.62395 1.30253 -0.880613
5.83734 1.3509 -0.489783
5.73249 1.34517 -0.52295
5.60158 1.34221 -0.586345
5.4339 1.33975 -0.671127
5.69588 1.33782 -0.544391
5.60777 1.33593 -0.5929
5.65458 1.33455 -0.577092
5.5176 1.33276 -0.650617
5.44702 1.33148 -0.694047
5.58746 1.33065 -0.634824
5.49672 1.32947 -0.688984
5.439 1.32834 -0.726851
5.31674 1.32764 -0.799732
5.35434 1.32664 -0.790733
5.64852 1.32569 -0.653766
5.49706 1.32512 -0.742017
5.50298 1.32458 -0.751783
5.45965 1.32383 -0.784825
5.51028 1.32339 -0.772799
5.49977 1.32297 -0.791517
5.45543 1.32244 -0.826411
5.68737 1.32214 -0.724598
5.50636 1.32175 -0.828741
5.50799 1.32155 -0.842748
5.43296 1.32133 -0.894932
5.50526 1.32123 -0.874241
5.57493 1.32116 -0.855115
5.43906 1.32114 -0.939058
5.55123 1.32115 -0.899128
5.54066 1.32124 -0.921162
5.8184 1.36694 -0.495683
5.69866 1.36298 -0.547605
5.5181 1.35998 -0.635787
5.57809 1.35801 -0.609966
5.58615 1.35607 -0.610252
5.71087 1.35418 -0.552463
5.55501 1.3528 -0.638113
5.59713 1.35146 -0.624999
5.45346 1.35017 -0.705053
5.39695 1.34896 -0.741925
5.60336 1.34817 -0.65
5.71488 1.34705 -0.603441
5.72058 1.34599 -0.610117
5.45969 1.34533 -0.752623
5.44884 1.3444 -0.768378
5.44158 1.34382 -0.784522
5.47715 1.34329 -0.779518
5.49534 1.34256 -0.781924
5.50374 1.34212 -0.791083
5.54159 1.34153 -0.784574
5.37807 1.34119 -0.880293
5.38569 1.34088 -0.890662
5.48774 1.34052 -0.853445
5.49742 1.34032 -0.86343
5.45076 1.34012 -0.901626
5.5782 1.34001 -0.85331
5.62945 1.33995 -0.843404
5.43376 1.33994 -0.957347
5.53669 1.33998 -0.922266
5.72419 1.38374 -0.544327
5.6033 1.38071 -0.602762
5.54285 1.37819 -0.634037
5.60865 1.3762 -0.6053
5.52773 1.37425 -0.650174
5.68614 1.37283 -0.578548
5.42081 1.37145 -0.719039
5.56589 1.37011 -0.654518
5.55752 1.36882 -0.667004
5.42675 1.3676 -0.741053
5.61824 1.36643 -0.654294
5.39462 1.36569 -0.777743
5.68055 1.36464 -0.644454
5.55014 1.36398 -0.721729
5.56288 1.36306 -0.725807
5.53531 1.36249 -0.752166
5.54169 1.36171 -0.760279
5.70725 1.36123 -0.690644
5.45519 1.36078 -0.830026
5.52874 1.36023 -0.805897
5.3426 1.35987 -0.912871
5.43431 1.35949 -0.880693
5.59523 1.35923 -0.814749
5.70449 1.35901 -0.774869
5.44335 1.35886 -0.920603
5.61483 1.35874 -0.850214
5.4418 1.35871 -0.952622
5.54939 1.35869 -0.914869
5.56537 1.40548 -0.638848
5.62339 1.40143 -0.602015
5.61358 1.39837 -0.604882
5.77449 1.39634 -0.528561
5.53358 1.39434 -0.653312
5.53725 1.39288 -0.658908
5.58343 1.39098 -0.640626
5.67215 1.3896 -0.604192
5.56774 1.38828 -0.664591
5.49695 1.38741 -0.710956
5.53333 1.38618 -0.701501
5.45108 1.38503 -0.751766
5.67005 1.38394 -0.651794
5.61425 1.38324 -0.691593
5.41596 1.38257 -0.802791
5.57291 1.38167 -0.734972
5.40324 1.38107 -0.832301
5.52117 1.38034 -0.784959
5.41473 1.37984 -0.851236
5.35418 1.37925 -0.894007
5.51191 1.37887 -0.828901
5.41102 1.3785 -0.893183
5.56355 1.37815 -0.830862
5.47364 1.37791 -0.890444
5.48986 1.37768 -0.897016
5.53964 1.37755 -0.887409
5.48436 1.37742 -0.930345
5.61397 1.37742 -0.88167
5.63652 1.42266 -0.607468
5.51517 1.41905 -0.663161
5.44159 1.41647 -0.700971
5.56868 1.41443 -0.641617
5.70505 1.4129 -0.580647
5.67103 1.41096 -0.602335
5.57962 1.40952 -0.655729
5.54581 1.40814 -0.680644
5.49406 1.40682 -0.714805
5.55412 1.40555 -0.693389
5.55512 1.40435 -0.701863
5.48447 1.40356 -0.748619
5.42715 1.40278 -0.78873
5.52309 1.40177 -0.750828
5.69255 1.40084 -0.676625
5.60158 1.40022 -0.734491
5.47171 1.39963 -0.811995
5.49893 1.39891 -0.810157
5.6435 1.3984 -0.750867
5.57787 1.39794 -0.797026
5.51925 1.39746 -0.839497
5.54625 1.39711 -0.839985
5.61533 1.39676 -0.819447
5.40633 1.39652 -0.938581
5.45548 1.39628 -0.928625
5.55368 1.39616 -0.894893
5.57391 1.39608 -0.900428
5.48627 1.44437 -0.697108
5.53032 1.44023 -0.667314
5.64105 1.43711 -0.61001
5.47316 1.43452 -0.695117
5.54618 1.43247 -0.66288
5.6494 1.43093 -0.618486
5.62245 1.42944 -0.639453
5.58761 1.42759 -0.662187
5.67573 1.42661 -0.628598
5.47332 1.42529 -0.73819
5.44705 1.42403 -0.76005
5.50832 1.42285 -0.738642
5.58586 1.42203 -0.711132
5.44308 1.42098 -0.792468
5.51092 1.42026 -0.770406
5.50796 1.41954 -0.783721
5.39097 1.4187 -0.853327
5.59572 1.41795 -0.762578
5.53015 1.41742 -0.80831
5.55213 1.41693 -0.81047
5.59301 1.41641 -0.803017
5.46198 1.41598 -0.882082
5.50615 1.41563 -0.873983
5.63846 1.41532 -0.822049
5.54094 1.41507 -0.885433
5.65895 1.41487 -0.841307
5.69126 1.41475 -0.840532
5.6374 1.46144 -0.62535
5.6622 1.45777 -0.60811
5.59409 1.45508 -0.642994
5.65844 1.45298 -0.614967
5.59414 1.45092 -0.651435
5.70608 1.44894 -0.600219
5.42764 1.44745 -0.747036
5.62699 1.44601 -0.655187
5.60672 1.44465 -0.673605
5.53539 1.44335 -0.717875
5.60732 1.44243 -0.692692
5.50789 1.44128 -0.75183
5.46976 1.44042 -0.782054
5.48644 1.43941 -0.783864
5.35149 1.43867 -0.86318
5.45487 1.4378 -0.822454
5.51536 1.43716 -0.804584
5.57207 1.43652 -0.788525
5.31402 1.43587 -0.929813
5.50565 1.43537 -0.847147
5.48827 1.43489 -0.869078
5.36748 1.4345 -0.943261
5.48674 1.43409 -0.897321
5.54621 1.43383 -0.882156
5.50914 1.43356 -0.915172
5.46587 1.43342 -0.952056
5.79835 1.48362 -0.561701
5.62462 1.47889 -0.637977
5.54203 1.4752 -0.674596
5.66772 1.47303 -0.615632
5.49894 1.47088 -0.704025
5.42428 1.46885 -0.746019
5.63785 1.46731 -0.64663
5.57928 1.46581 -0.683518
5.48548 1.46436 -0.738272
5.54892 1.463 -0.714935
5.72925 1.46171 -0.633489
5.546 1.4608 -0.736045
5.50916 1.45963 -0.763823
5.61966 1.4588 -0.719915
5.64304 1.45781 -0.718583
5.59902 1.45702 -0.752139
5.56997 1.45617 -0.777861
5.56053 1.45553 -0.79494
5.51173 1.45484 -0.831445
5.50553 1.4543 -0.847499
5.60813 1.4538 -0.80936
5.31205 1.45334 -0.970784
5.43405 1.45291 -0.923346
5.59441 1.45255 -0.857183
5.51078 1.4523 -0.913602
5.58868 1.45199 -0.888908
5.58752 1.49957 -0.664885
5.6243 1.49628 -0.644295
5.66489 1.49307 -0.622201
5.65352 1.49087 -0.63177
5.67036 1.48876 -0.627676
5.52871 1.48716 -0.70572
5.53484 1.48521 -0.707787
5.46829 1.48409 -0.75095
5.52515 1.48232 -0.728646
5.52362 1.48128 -0.739667
5.42135 1.48005 -0.799933
5.5324 1.47883 -0.753628
5.47567 1.47796 -0.793174
5.5965 1.47688 -0.742695
5.41203 1.4761 -0.846573
5.59009 1.47535 -0.769357
5.48473 1.47454 -0.833455
5.57913 1.47389 -0.798623
5.42194 1.47321 -0.889403
5.39642 1.47263 -0.914912
5.42395 1.47212 -0.914307
5.47178 1.47166 -0.903773
5.53359 1.4713 -0.886913
5.5711 1.4709 -0.881888
5.64216 1.47066 -0.86107
5.78706 1.52225 -0.584335
5.8053 1.51695 -0.56208
5.61541 1.51359 -0.654677
5.51966 1.51091 -0.703903
5.57606 1.5087 -0.679623
5.53085 1.50659 -0.706682
5.62723 1.50499 -0.66579
5.61994 1.50344 -0.676947
5.59346 1.502 -0.69828
5.5864 1.50055 -0.709864
5.56227 1.49954 -0.732426
5.55597 1.49827 -0.744541
5.52209 1.49707 -0.770838
5.61663 1.49618 -0.734718
5.50768 1.49518 -0.799641
5.51769 1.49432 -0.805893
5.49737 1.49348 -0.827338
5.68245 1.49278 -0.746964
5.35496 1.49213 -0.923068
5.49326 1.49151 -0.866481
5.50145 1.49096 -0.87537
5.53324 1.49046 -0.872655
5.49615 1.48999 -0.904602
5.5549 1.48962 -0.889178
5.72461 1.48926 -0.81836
5.54129 1.53857 -0.70744
5.66232 1.53416 -0.639025
5.82502 1.53139 -0.5587
5.68656 1.52864 -0.629035
5.54861 1.52648 -0.702348
5.69642 1.52476 -0.635208
5.69015 1.52315 -0.645653
5.55566 1.52159 -0.720432
5.59864 1.52015 -0.707137
5.58913 1.51877 -0.720388
5.62462 1.51746 -0.711487
5.43517 1.51641 -0.81652
5.61464 1.5153 -0.736688
5.43595 1.51433 -0.836745
5.56836 1.51335 -0.781212
5.43033 1.51255 -0.861848
5.55214 1.51174 -0.812447
5.57644 1.51104 -0.812472
5.40828 1.51038 -0.908926
5.58168 1.50967 -0.8343
5.43684 1.50917 -0.919956
5.56959 1.50865 -0.866755
5.51208 1.50827 -0.909444
5.41901 1.50784 -0.969589
5.78777 1.56125 -0.60298
5.61129 1.55529 -0.675143
5.74513 1.55185 -0.605838
5.59809 1.54905 -0.68041
5.67629 1.54676 -0.645099
5.62996 1.54459 -0.672673
5.49033 1.54285 -0.749195
5.63002 1.54096 -0.685198
5.54449 1.53941 -0.735642
5.52973 1.53823 -0.752687
5.61874 1.53685 -0.716797
5.46292 1.53555 -0.803673
5.43775 1.53456 -0.826939
5.43525 1.53339 -0.837829
5.51731 1.53248 -0.807915
5.52314 1.53154 -0.815877
5.47204 1.53064 -0.852555
5.38795 1.52986 -0.906342
5.41542 1.52915 -0.904766
5.60043 1.52849 -0.824626
5.50961 1.52786 -0.882608
5.54658 1.52737 -0.877471
5.56229 1.52688 -0.882935
5.56672 1.52641 -0.894134
5.49314 1.57638 -0.744424
5.67097 1.57237 -0.65026
5.60083 1.56906 -0.683816
5.59715 1.56663 -0.688881
5.51986 1.56442 -0.731843
5.64863 1.56226 -0.672018
5.47705 1.5606 -0.765046
5.47987 1.55899 -0.771097
5.50682 1.55744 -0.765343
5.44074 1.55603 -0.806893
5.68712 1.55485 -0.693472
5.56027 1.55366 -0.766506
5.51187 1.55244 -0.800208
5.61051 1.5515 -0.76184
5.56688 1.55049 -0.794221
5.66066 1.54957 -0.758433
5.55944 1.54876 -0.820653
5.4741 1.54798 -0.875116
5.45459 1.5473 -0.897218
5.55412 1.54663 -0.85983
5.60525 1.546 -0.846849
5.3109 1.54546 -1.00713
5.48957 1.54494 -0.930985
5.61672 1.59297 -0.684985
5.65922 1.58944 -0.661315
5.66958 1.58659 -0.657237
5.51775 1.58424 -0.736881
5.51061 1.58204 -0.74489
5.58397 1.58023 -0.714758
5.62661 1.57856 -0.700695
5.63507 1.57694 -0.703962
5.57325 1.57547 -0.743182
5.54869 1.57407 -0.764088
5.66374 1.57288 -0.716264
5.49932 1.5716 -0.80771
5.39496 1.57051 -0.870091
5.55704 1.56945 -0.799423
5.67726 1.5685 -0.750287
5.47268 1.56763 -0.86395
5.46804 1.56682 -0.877945
5.60216 1.56592 -0.822051
5.48355 1.56539 -0.894565
5.53804 1.5646 -0.879063
5.36255 1.56408 -0.980055
5.39634 1.56358 -0.976449
5.79115 1.61458 -0.610505
5.55831 1.61048 -0.721739
5.5372 1.60692 -0.729811
5.59319 1.60405 -0.702987
5.40706 1.6018 -0.800408
5.63857 1.59993 -0.691005
5.465 1.5981 -0.784286
5.50714 1.59642 -0.770505
5.56626 1.59463 -0.747613
5.57033 1.59334 -0.754876
5.48538 1.59195 -0.806099
5.54571 1.59064 -0.785048
5.6013 1.58958 -0.767733
5.43337 1.5884 -0.861495
5.6101 1.58743 -0.784051
5.47638 1.5865 -0.861997
5.54205 1.5856 -0.840425
5.52887 1.5847 -0.858247
5.50144 1.58391 -0.88375
5.5526 1.58328 -0.870865
5.54468 1.58262 -0.887327
5.5007 1.58198 -0.921904
5.59922 1.6315 -0.71089
5.5881 1.62733 -0.711058
5.61402 1.62431 -0.698627
5.47851 1.62156 -0.768279
5.5299 1.61963 -0.748763
5.63158 1.61743 -0.702626
5.60328 1.61571 -0.723971
5.51661 1.61405 -0.774735
5.50587 1.61244 -0.787807
5.44607 1.61102 -0.826354
5.50092 1.60974 -0.80835
5.50335 1.60856 -0.81704
5.54281 1.60737 -0.807106
5.53551 1.60633 -0.821354
5.452 1.60523 -0.873359
5.46091 1.60429 -0.879975
5.43345 1.60348 -0.905471
5.48361 1.60264 -0.892
5.63648 1.60184 -0.827362
5.43994 1.60122 -0.938391
5.4964 1.60059 -0.922838
5.61133 1.65414 -0.722619
5.71354 1.64785 -0.655454
5.50708 1.64466 -0.758545
5.5931 1.64175 -0.716762
5.82255 1.63932 -0.605729
5.4769 1.63707 -0.783131
5.59486 1.63517 -0.730508
5.60716 1.63344 -0.731584
5.5544 1.63177 -0.765442
5.56349 1.63029 -0.769344
5.4981 1.62888 -0.810814
5.46084 1.62758 -0.838791
5.65157 1.6263 -0.752819
5.578 1.62522 -0.800047
5.38556 1.62403 -0.906108
5.59439 1.62309 -0.812851
5.47278 1.62214 -0.884726
5.69529 1.62136 -0.785456
5.62237 1.62052 -0.833531
5.43116 1.61972 -0.940948
5.59389 1.61911 -0.872404
5.57444 1.66938 -0.737119
5.67794 1.66514 -0.680056
5.60462 1.6616 -0.714935
5.6571 1.65899 -0.691581
5.46962 1.6567 -0.789814
5.67773 1.65473 -0.691921
5.54373 1.65281 -0.765236
5.53556 1.65108 -0.776589
5.56956 1.64955 -0.767864
5.33459 1.64794 -0.893176
5.38635 1.64654 -0.876198
5.52185 1.64521 -0.817702
5.71771 1.64406 -0.729909
5.34772 1.64285 -0.924725
5.31062 1.64179 -0.953845
5.61111 1.64089 -0.81497
5.53012 1.63993 -0.866538
5.43503 1.63901 -0.925341
5.64991 1.63819 -0.829645
5.56338 1.63738 -0.884704
5.75376 1.69306 -0.670133
5.45622 1.68562 -0.79767
5.68307 1.6819 -0.681786
5.78056 1.67879 -0.633582
5.72547 1.67631 -0.66479
5.49827 1.67429 -0.784372
5.48384 1.67206 -0.796456
5.71585 1.67029 -0.687629
5.45988 1.66857 -0.823039
5.49995 1.6671 -0.811652
5.67612 1.66565 -0.732261
5.45009 1.66425 -0.854214
5.54649 1.66292 -0.815302
5.32683 1.66167 -0.934815
5.53537 1.66056 -0.840959
5.31137 1.6595 -0.96353
5.48162 1.65846 -0.889134
5.41799 1.65749 -0.932011
5.37832 1.65674 -0.963977
5.58881 1.65594 -0.870644
5.59288 1.70708 -0.740897
5.5215 1.70218 -0.768402
5.5784 1.69903 -0.740466
5.47336 1.69633 -0.795717
5.53391 1.69383 -0.76914
5.69222 1.69155 -0.694734
5.41435 1.68956 -0.839854
