ply
format ascii 1.0
comment Created by Open3D
element vertex 1827
property double x
property double y
property double z
end_header
3.15962 0.327094 -0.182714
3.17132 0.327246 -0.193982
3.18521 0.327452 -0.205294
3.19725 0.327612 -0.21659
3.21138 0.327824 -0.227932
3.22377 0.327992 -0.239258
3.23933 0.328239 -0.250655
3.25385 0.32846 -0.262048
3.26988 0.328718 -0.273487
3.28467 0.328945 -0.284917
3.29804 0.329137 -0.296331
3.31623 0.329448 -0.307869
3.32998 0.329649 -0.319321
3.34851 0.329968 -0.330906
3.36264 0.330177 -0.3424
3.38153 0.330505 -0.354033
3.39939 0.330806 -0.365661
3.41868 0.331143 -0.377349
3.43704 0.331456 -0.389033
3.45672 0.331802 -0.400777
3.47557 0.332126 -0.412519
3.49926 0.33257 -0.424435
3.51864 0.332908 -0.436242
3.54286 0.333364 -0.448232
3.56359 0.333734 -0.460134
3.5875 0.334182 -0.472171
3.61253 0.334657 -0.484278
3.63711 0.33512 -0.496401
3.66271 0.335608 -0.508593
3.68793 0.336087 -0.520803
3.71821 0.336689 -0.533242
3.74887 0.3373 -0.545736
3.77934 0.337906 -0.558263
3.81509 0.338641 -0.57105
3.84697 0.33928 -0.583722
3.88313 0.340024 -0.596621
3.92484 0.340902 -0.609813
3.96718 0.341796 -0.623091
4.01434 0.342807 -0.636648
4.06275 0.343847 -0.650331
4.12162 0.345143 -0.664575
4.19152 0.346706 -0.679434
4.27816 0.348677 -0.695212
4.42024 0.352 -0.713866
0.830825 0.302865 1.38641
0.765303 0.300896 1.3676
0.720098 0.299496 1.35149
0.684784 0.298374 1.33672
0.65698 0.297462 1.32295
0.62491 0.296432 1.30873
0.597166 0.295524 1.2951
0.571014 0.294661 1.28173
0.555236 0.294088 1.26966
0.535103 0.293394 1.25712
0.51503 0.292702 1.24463
0.49503 0.292013 1.23219
0.480971 0.29149 1.2205
0.465854 0.290938 1.20872
0.452016 0.290422 1.19712
0.438271 0.289909 1.18557
0.424626 0.289399 1.17407
0.411089 0.288893 1.16261
0.397664 0.28839 1.1512
0.385085 0.287911 1.13992
0.37183 0.287414 1.1286
0.358704 0.286921 1.11733
0.351407 0.28659 1.10671
0.34421 0.286261 1.09612
0.331462 0.28578 1.08498
0.324493 0.285459 1.07447
0.312256 0.284992 1.06344
0.29986 0.284522 1.05242
0.293198 0.28421 1.04202
0.286653 0.283902 1.03165
0.280181 0.283596 1.02131
0.268286 0.28314 1.01045
0.262052 0.282842 1.00018
0.255945 0.282546 0.989943
0.24963 0.282246 0.979704
0.238279 0.281807 0.969009
0.2379 0.281671 0.959372
0.2317 0.281374 0.949205
0.220731 0.280947 0.93862
0.215282 0.280671 0.928565
0.209969 0.2804 0.918542
0.209242 0.280255 0.908945
0.198843 0.279844 0.898506
0.193868 0.279583 0.888568
0.193201 0.27944 0.879019
0.183219 0.279042 0.868685
0.178591 0.278791 0.85883
0.17922 0.278684 0.84943
0.173534 0.278404 0.839517
0.164163 0.278024 0.829322
0.165068 0.277925 0.819981
0.161056 0.277692 0.810256
0.155586 0.277419 0.800431
0.151788 0.277192 0.790755
0.15306 0.277103 0.781484
0.149526 0.276884 0.771854
0.144267 0.276618 0.762109
0.14095 0.276405 0.752526
0.137783 0.276196 0.742969
0.139534 0.276121 0.733781
0.136629 0.27592 0.724266
0.136385 0.275791 0.714952
0.133662 0.275595 0.705474
0.131086 0.275403 0.69602
0.133281 0.275341 0.686902
0.130963 0.275156 0.677486
0.133347 0.275099 0.668393
0.133875 0.274992 0.659183
0.133848 0.27487 0.649944
0.13474 0.274773 0.640772
0.140316 0.274803 0.631898
0.146073 0.274838 0.623034
0.153415 0.274915 0.614263
0.173816 0.275346 0.606264
2.73176 0.341567 0.529741
2.72191 0.341153 0.517997
2.71391 0.34079 0.506354
2.71614 0.340701 0.495134
2.71507 0.340524 0.483794
2.7173 0.340435 0.472588
2.71799 0.340306 0.461332
2.72195 0.340263 0.450201
2.7259 0.340221 0.439072
2.72983 0.340178 0.427946
2.73375 0.340135 0.416822
2.73766 0.340091 0.4057
2.74316 0.340091 0.394631
2.74705 0.340047 0.383513
2.75249 0.340044 0.372443
2.75636 0.34 0.361329
2.76174 0.339996 0.350259
2.76709 0.339991 0.339189
2.77408 0.34003 0.328161
2.77793 0.339985 0.317053
2.78321 0.339978 0.305982
2.78845 0.339971 0.294911
2.79368 0.339962 0.283839
2.79888 0.339954 0.272768
2.80573 0.339989 0.261731
2.80959 0.339944 0.250633
2.81475 0.339934 0.239563
2.8199 0.339924 0.228492
2.8265 0.339953 0.217447
2.8335 0.339992 0.206407
2.83803 0.339965 0.195327
2.8427 0.339942 0.18425
2.84908 0.339965 0.173198
2.8562 0.340006 0.162153
2.86121 0.339993 0.151082
2.8697 0.340071 0.140049
2.87691 0.340115 0.128998
2.88231 0.340112 0.117927
2.88961 0.340158 0.106873
2.89869 0.340252 0.0958284
2.90447 0.340258 0.0847563
2.91226 0.340318 0.0736953
2.92218 0.340433 0.0626407
2.92963 0.340483 0.0515688
2.93796 0.340557 0.0404963
2.94745 0.340661 0.0294217
2.95406 0.340689 0.0183362
2.96495 0.340829 0.00725134
2.97258 0.340884 -0.00384173
2.98171 0.340978 -0.0149401
2.99325 0.341135 -0.0260494
3.00099 0.341193 -0.0371581
3.01066 0.341301 -0.0482777
3.02072 0.341419 -0.059406
3.03071 0.341535 -0.0705417
3.04323 0.341718 -0.0817008
3.0512 0.341781 -0.0928393
3.06415 0.341974 -0.104022
3.07459 0.342102 -0.115194
3.08548 0.342241 -0.126379
3.09857 0.342438 -0.137597
3.10981 0.342586 -0.148806
3.12315 0.342788 -0.16005
3.13474 0.342945 -0.171285
3.14832 0.343154 -0.182557
3.16026 0.34332 -0.193819
3.17243 0.343492 -0.205095
3.18637 0.343709 -0.216411
3.19888 0.34389 -0.227717
3.21305 0.344113 -0.239064
3.22592 0.344302 -0.250401
3.24328 0.344608 -0.261839
3.25653 0.344807 -0.273212
3.27425 0.345122 -0.284694
3.28787 0.34533 -0.296104
3.30596 0.345653 -0.307631
3.31995 0.345871 -0.319081
3.33839 0.346203 -0.330655
3.35602 0.346515 -0.34223
3.37486 0.346857 -0.353857
3.38962 0.347093 -0.365394
3.41222 0.347532 -0.377167
3.42738 0.347779 -0.388753
3.45046 0.34823 -0.40059
3.46957 0.348577 -0.412335
3.48957 0.348948 -0.424131
3.50916 0.349308 -0.435936
3.53325 0.349784 -0.447914
3.55711 0.350253 -0.459914
3.58178 0.350743 -0.471972
3.60243 0.351129 -0.483919
3.63153 0.351732 -0.496198
3.6567 0.352234 -0.508369
3.6825 0.352751 -0.520596
3.71267 0.353381 -0.533026
3.74295 0.354012 -0.545501
3.7739 0.354661 -0.558043
3.80523 0.355319 -0.570642
3.84107 0.356092 -0.583473
3.87763 0.356883 -0.596385
3.91921 0.357803 -0.609566
3.9612 0.358732 -0.622825
4.00868 0.359802 -0.636391
4.05693 0.36089 -0.650062
4.11562 0.362246 -0.664293
4.18529 0.363882 -0.679136
4.26657 0.365814 -0.694647
4.39725 0.369011 -0.712728
0.839024 0.317527 1.38746
0.779333 0.315635 1.36938
0.738368 0.314292 1.3538
0.698999 0.312998 1.3385
0.665427 0.311874 1.324
0.639349 0.31097 1.3105
0.611703 0.310021 1.29687
0.590035 0.309248 1.28403
0.569956 0.308522 1.27143
0.544077 0.307627 1.25819
0.52996 0.307076 1.24639
0.514643 0.30649 1.2345
0.494901 0.305776 1.22212
0.481065 0.305235 1.21047
0.467317 0.304697 1.19887
0.447885 0.303994 1.18666
0.434348 0.303463 1.17516
0.42667 0.303103 1.16435
0.413342 0.302579 1.15294
0.400135 0.302058 1.14157
0.39275 0.301708 1.13088
0.379783 0.301196 1.1196
0.367437 0.300702 1.10842
0.3599 0.300348 1.09779
0.347668 0.299858 1.08668
0.335171 0.299361 1.07558
0.328412 0.299031 1.0651
0.321765 0.298704 1.05466
0.315232 0.298381 1.04425
0.303271 0.297901 1.03332
0.296924 0.297584 1.02297
0.285225 0.297113 1.01212
0.284597 0.296961 1.00238
0.278314 0.296647 0.992102
0.266972 0.296187 0.981362
0.2612 0.295887 0.971179
0.25556 0.295592 0.961027
0.250052 0.295301 0.950907
0.244678 0.295015 0.940819
0.23867 0.29471 0.930691
0.233486 0.294429 0.920657
0.22844 0.294152 0.910654
0.223534 0.29388 0.900681
0.218767 0.293612 0.890738
0.213001 0.293315 0.880726
0.208435 0.293053 0.870836
0.204011 0.292796 0.860974
0.204794 0.292688 0.851564
0.199216 0.292398 0.841636
0.195108 0.29215 0.831847
0.191144 0.291906 0.822085
0.187326 0.291667 0.81235
0.183651 0.291432 0.802643
0.185012 0.291342 0.793342
0.181593 0.291114 0.78368
0.178317 0.290892 0.774043
0.17998 0.29081 0.764792
0.176957 0.290595 0.755198
0.178808 0.290519 0.745975
0.180739 0.290445 0.736763
0.180326 0.290305 0.727388
0.18249 0.290238 0.718204
0.184729 0.290173 0.709029
0.187041 0.290111 0.699864
0.194401 0.290192 0.691045
0.203973 0.290336 0.682368
2.61843 0.355889 0.615314
2.61604 0.355666 0.603879
2.61363 0.355443 0.592457
2.61328 0.355277 0.581144
2.61788 0.355251 0.570066
2.62045 0.355168 0.558899
2.625 0.355141 0.547823
2.62954 0.355114 0.536749
2.63405 0.355085 0.525675
2.64045 0.35511 0.51468
2.64491 0.355081 0.503606
2.65122 0.355103 0.492606
2.65747 0.355123 0.481602
2.66367 0.355143 0.470595
2.66982 0.35516 0.459585
2.67591 0.355177 0.448572
2.68318 0.355225 0.437598
2.68748 0.355192 0.426522
2.6935 0.355205 0.415504
2.69947 0.355218 0.404484
2.70704 0.355275 0.393512
2.71418 0.355321 0.382524
2.71843 0.355285 0.371448
2.72428 0.355295 0.36042
2.73164 0.355346 0.349433
2.73869 0.355389 0.338434
2.74443 0.355395 0.327399
2.75015 0.3554 0.316364
2.75729 0.355445 0.305361
2.76295 0.355449 0.294322
2.76987 0.355488 0.283311
2.77549 0.355491 0.272269
2.78243 0.355531 0.261255
2.78928 0.355567 0.250236
2.79353 0.355532 0.239166
2.80037 0.355569 0.228144
2.80841 0.355639 0.217141
2.81267 0.355604 0.206072
2.81845 0.355611 0.195029
2.8249 0.355636 0.183995
2.83349 0.355721 0.172988
2.83866 0.355712 0.161932
2.8456 0.355751 0.150898
2.85275 0.355795 0.139864
2.85829 0.355796 0.128811
2.86738 0.355894 0.11779
2.87462 0.355942 0.106748
2.88232 0.356002 0.0957068
2.89025 0.356068 0.0846629
2.89942 0.356168 0.073622
2.90579 0.356192 0.0625613
2.91612 0.356324 0.0515149
2.92358 0.356377 0.0404513
2.93232 0.356465 0.0293873
2.94183 0.356575 0.0183189
2.94885 0.356616 0.00724234
2.96017 0.356775 -0.00383806
2.9699 0.35689 -0.0149265
2.9795 0.357002 -0.0260219
2.98937 0.35712 -0.0371249
2.99708 0.35718 -0.0482273
3.00929 0.357363 -0.0593539
3.01952 0.357492 -0.0704811
3.02999 0.357627 -0.0816178
3.04257 0.357819 -0.0927779
3.051 0.357898 -0.103917
3.06378 0.358096 -0.115099
3.07492 0.358249 -0.126277
3.08794 0.358453 -0.137485
3.09943 0.358615 -0.148688
3.11269 0.358825 -0.159923
3.12453 0.358997 -0.171152
3.13661 0.359175 -0.182395
3.15023 0.359394 -0.193671
3.16265 0.359581 -0.204943
3.17651 0.359807 -0.216249
3.18928 0.360003 -0.227551
3.20623 0.360313 -0.238941
3.21938 0.360519 -0.250277
3.23375 0.360758 -0.26165
3.25023 0.361054 -0.273082
3.26486 0.3613 -0.284492
3.28181 0.361609 -0.295969
3.29671 0.361862 -0.307417
3.31411 0.362182 -0.318941
3.33182 0.36251 -0.330492
3.34714 0.362774 -0.342002
3.36529 0.363114 -0.353604
3.38421 0.363475 -0.365247
3.40286 0.363827 -0.376904
3.42217 0.364198 -0.388602
3.4413 0.364564 -0.400318
3.46454 0.36504 -0.412181
3.48419 0.365419 -0.423961
3.50431 0.36581 -0.43578
3.52832 0.366306 -0.44775
3.55241 0.366804 -0.459754
3.57699 0.367315 -0.471806
3.59788 0.367726 -0.483757
3.62689 0.368356 -0.496029
3.65227 0.368887 -0.508204
3.67798 0.369426 -0.520424
3.70804 0.370083 -0.532846
3.73851 0.37075 -0.545325
3.76935 0.371427 -0.557859
3.80485 0.372228 -0.570626
3.84087 0.373043 -0.583465
3.87739 0.373871 -0.596374
3.91441 0.374712 -0.609356
3.96105 0.375811 -0.622818
4.00381 0.376804 -0.63617
4.05665 0.378068 -0.650049
4.11522 0.379485 -0.664274
4.18474 0.381194 -0.679109
4.26587 0.383215 -0.694614
4.39056 0.386403 -0.712397
0.852792 0.332382 1.38922
0.793177 0.330406 1.37114
0.752287 0.329004 1.35555
0.713057 0.327655 1.34025
0.679604 0.326483 1.32576
0.653654 0.325542 1.31227
0.626114 0.324553 1.29864
0.604534 0.323747 1.28579
0.584565 0.322991 1.27319
0.558827 0.32206 1.25995
0.549273 0.321623 1.24868
0.529562 0.320876 1.23625
0.50994 0.320133 1.22387
0.496197 0.31957 1.21222
0.47678 0.318835 1.19996
0.463237 0.318279 1.18841
0.449799 0.317726 1.1769
0.442192 0.317352 1.16609
0.428965 0.316807 1.15467
0.41586 0.316266 1.1433
0.402882 0.315729 1.13198
0.395687 0.315369 1.12131
0.382962 0.314841 1.11008
0.375988 0.314488 1.09949
0.363532 0.313969 1.08835
0.356792 0.313623 1.07783
0.350163 0.313282 1.06735
0.343648 0.312944 1.0569
0.33175 0.312443 1.04592
0.325416 0.312112 1.03554
0.313742 0.311619 1.02464
0.307674 0.311296 1.01433
0.301731 0.310977 1.00405
0.295914 0.310662 0.993801
0.290225 0.310351 0.983584
0.284132 0.310028 0.973349
0.278623 0.309723 0.963189
0.273246 0.309423 0.953059
0.268001 0.309127 0.942961
0.262891 0.308835 0.932893
0.257917 0.308547 0.922855
0.253079 0.308264 0.912848
0.248379 0.307985 0.90287
0.247811 0.30783 0.89327
0.243275 0.307557 0.883337
0.238879 0.307288 0.873433
0.234621 0.307023 0.863557
0.235522 0.306913 0.854128
0.231512 0.306656 0.844301
0.227642 0.306404 0.834501
0.22884 0.306303 0.825126
0.226931 0.30611 0.815509
0.223523 0.305872 0.805785
0.225068 0.305782 0.796463
0.226691 0.305695 0.787151
0.228392 0.30561 0.777851
0.232199 0.305588 0.768715
0.236208 0.305572 0.759595
0.245042 0.305701 0.750829
0.256203 0.305898 0.742224
2.42868 0.368733 0.7632
2.41994 0.368311 0.751383
2.42565 0.368318 0.740453
2.43132 0.368324 0.729519
2.43694 0.368328 0.718583
2.44493 0.368403 0.707782
2.45285 0.368475 0.696971
2.46308 0.368616 0.686283
2.46851 0.368614 0.675327
2.47623 0.368681 0.664493
2.48617 0.368812 0.653771
2.49597 0.36894 0.643034
2.5037 0.369006 0.632184
2.5089 0.368998 0.621205
2.51848 0.369119 0.61044
2.52793 0.369236 0.599661
2.53556 0.369299 0.58879
2.54274 0.369349 0.577894
2.55402 0.369519 0.567181
2.56158 0.36958 0.556292
2.56856 0.369624 0.545374
2.57751 0.369726 0.534537
2.58499 0.369784 0.523634
2.59183 0.369824 0.5127
2.60056 0.369918 0.501839
2.60989 0.370031 0.490997
2.61467 0.37001 0.479974
2.6232 0.370099 0.469091
2.63239 0.370207 0.458227
2.63893 0.370238 0.447264
2.64723 0.370319 0.436358
2.65626 0.370423 0.425473
2.66093 0.370398 0.414438
2.66905 0.370475 0.403515
2.67708 0.370549 0.392584
2.68424 0.370597 0.381623
2.69216 0.370667 0.370681
2.70089 0.370761 0.359758
2.7055 0.370735 0.348716
2.71325 0.370801 0.337759
2.72093 0.370864 0.326796
2.72795 0.370908 0.315813
2.73406 0.370925 0.304805
2.7425 0.371011 0.293851
2.74855 0.371026 0.282838
2.75599 0.371082 0.271854
2.76427 0.371163 0.260883
2.76888 0.371137 0.249837
2.7762 0.371189 0.238842
2.78346 0.37124 0.227843
2.79025 0.371277 0.216833
2.79617 0.371289 0.205807
2.80332 0.371336 0.194799
2.81031 0.371379 0.183785
2.81716 0.371417 0.172768
2.82423 0.371462 0.16175
2.83132 0.371508 0.150731
2.83866 0.37156 0.139711
2.84623 0.37162 0.12869
2.85342 0.371668 0.117663
2.86127 0.371735 0.106638
2.87024 0.371835 0.0956171
2.87663 0.37186 0.0845735
2.8868 0.371994 0.07355
2.89415 0.372046 0.0625049
2.90282 0.372137 0.0514619
2.91214 0.372246 0.0404155
2.91918 0.37229 0.0293575
2.93034 0.372452 0.0183027
2.93787 0.372509 0.0072362
2.94737 0.372623 -0.00383427
2.95909 0.372801 -0.0149141
2.96683 0.372865 -0.0259964
2.97876 0.373048 -0.0370945
2.98893 0.373181 -0.048197
2.99934 0.373321 -0.0593085
3.00937 0.37345 -0.0704262
3.02009 0.373598 -0.0815558
3.03259 0.373797 -0.0927069
3.0413 0.373888 -0.10384
3.05641 0.374162 -0.115034
3.0654 0.37426 -0.126186
3.07834 0.374471 -0.137384
3.09009 0.374648 -0.148582
3.10207 0.374832 -0.159793
3.11537 0.375053 -0.171032
3.12771 0.375246 -0.182271
3.14393 0.37555 -0.193579
3.15393 0.375677 -0.204807
3.17046 0.375989 -0.21615
3.18352 0.376203 -0.227452
3.19757 0.376444 -0.238784
3.21387 0.376749 -0.250173
3.22754 0.376979 -0.261528
3.24197 0.377231 -0.272912
3.25899 0.377556 -0.284366
3.27675 0.377902 -0.295856
3.29117 0.378152 -0.307289
3.30928 0.378507 -0.318825
3.32406 0.378768 -0.3303
3.34252 0.379132 -0.341884
3.36094 0.379496 -0.353489
3.3798 0.379871 -0.365126
3.3987 0.380247 -0.376787
3.41795 0.380633 -0.38848
3.43733 0.381022 -0.400199
3.46048 0.381518 -0.412057
3.48035 0.38192 -0.423841
3.50404 0.38243 -0.435771
3.52435 0.382844 -0.447619
3.54856 0.383369 -0.459624
3.57307 0.383901 -0.47167
3.59786 0.38444 -0.483756
3.62301 0.384989 -0.495888
3.65232 0.385656 -0.508206
3.67801 0.38622 -0.520426
3.70818 0.386909 -0.532852
3.73861 0.387605 -0.545329
3.76943 0.388312 -0.557862
3.80507 0.389154 -0.570635
3.84104 0.390005 -0.583472
3.87772 0.390875 -0.596389
3.91468 0.391752 -0.609368
3.96125 0.392898 -0.622827
4.0086 0.394066 -0.636388
4.06162 0.395393 -0.650279
4.11537 0.396738 -0.664281
4.1848 0.398523 -0.679112
4.27086 0.400774 -0.694856
4.39553 0.404106 -0.712642
0.883377 0.347811 1.39314
0.818282 0.345573 1.37433
0.767833 0.343805 1.35751
0.732722 0.342528 1.34271
0.699411 0.34131 1.32822
0.667812 0.340148 1.31401
0.646185 0.339304 1.30109
0.62469 0.338465 1.28823
0.599052 0.337496 1.27493
0.579255 0.336713 1.26238
0.563962 0.336074 1.25042
0.544377 0.335299 1.23799
0.524884 0.334527 1.22561
0.51124 0.333942 1.21396
0.502365 0.33351 1.20289
0.488969 0.332934 1.19133
0.47568 0.332362 1.17982
0.462502 0.331794 1.16835
0.449443 0.33123 1.15694
0.436507 0.330671 1.14557
0.429324 0.330294 1.13486
0.416634 0.329744 1.12357
0.404083 0.329198 1.11234
0.397239 0.328833 1.10174
0.390501 0.328472 1.09118
0.378353 0.32794 1.08007
0.371858 0.327588 1.06958
0.365476 0.327239 1.05913
0.35372 0.326721 1.04815
0.34752 0.326379 1.03775
0.34144 0.326041 1.02739
0.330089 0.325537 1.01654
0.32428 0.325208 1.00625
0.318597 0.324883 0.99599
0.31304 0.324562 0.985765
0.307613 0.324246 0.975571
0.302315 0.323935 0.965409
0.297148 0.323627 0.955277
0.297318 0.323488 0.945653
0.292387 0.323188 0.935574
0.28759 0.322893 0.925525
0.282927 0.322603 0.915505
0.278398 0.322317 0.905515
0.279068 0.322194 0.895994
0.274779 0.321916 0.886054
0.275635 0.321799 0.876568
0.273007 0.321573 0.866796
0.274102 0.321464 0.857348
0.275276 0.321358 0.847913
0.273281 0.321153 0.838225
0.274686 0.321054 0.828824
0.280978 0.321107 0.819818
0.284306 0.321068 0.810576
0.294438 0.321242 0.801866
0.309452 0.321568 0.793521
1.8697 0.37007 0.90267
1.91133 0.371203 0.894863
1.94264 0.372014 0.886223
1.97374 0.372817 0.877521
2.00464 0.373613 0.868756
2.04538 0.374715 0.860647
2.06278 0.37509 0.850827
2.09305 0.375865 0.841881
2.12017 0.376542 0.832673
2.15002 0.377302 0.82361
2.16685 0.377658 0.813632
2.19348 0.378317 0.804278
2.21284 0.37875 0.794414
2.22928 0.379093 0.784337
2.24561 0.379432 0.774233
2.26453 0.37985 0.764269
2.28061 0.380181 0.754108
2.29658 0.380507 0.74392
2.31244 0.38083 0.733706
2.32818 0.381149 0.723467
2.34633 0.381543 0.713348
2.36181 0.381853 0.703054
2.37025 0.381945 0.692348
2.38306 0.382173 0.681877
2.39823 0.382473 0.671521
2.40882 0.382632 0.660903
2.42137 0.382851 0.650379
2.43407 0.383074 0.639849
2.44183 0.383145 0.629057
2.45646 0.383427 0.618601
2.46428 0.3835 0.607797
2.47867 0.383775 0.597304
2.48635 0.383843 0.586479
2.49835 0.384043 0.575849
2.50804 0.384173 0.565103
2.51987 0.384368 0.554445
2.52728 0.384428 0.543583
2.53896 0.384618 0.532899
2.54626 0.384674 0.522022
2.55752 0.384851 0.511303
2.56498 0.384912 0.500423
2.57603 0.385083 0.489678
2.58345 0.385142 0.478786
2.59241 0.385248 0.467947
2.60165 0.385363 0.457113
2.61046 0.385465 0.446256
2.61961 0.385576 0.435405
2.62648 0.385619 0.424471
2.63685 0.385768 0.41365
2.64409 0.385821 0.40272
2.65256 0.385912 0.391825
2.66145 0.386015 0.380937
2.66813 0.386051 0.369979
2.67857 0.386202 0.359125
2.68355 0.386186 0.348113
2.69175 0.386268 0.337187
2.70039 0.386364 0.326268
2.70693 0.386395 0.315291
2.71647 0.386518 0.304385
2.72346 0.386563 0.293412
2.72993 0.386592 0.282425
2.73975 0.386724 0.271508
2.74474 0.386708 0.260484
2.75255 0.386778 0.249517
2.76078 0.38686 0.238554
2.76715 0.386886 0.227552
2.77482 0.386952 0.216571
2.78289 0.387029 0.205593
2.7892 0.387054 0.194584
2.79675 0.387115 0.183591
2.80374 0.38716 0.172587
2.811 0.387213 0.161583
2.81849 0.387273 0.15058
2.82558 0.38732 0.139569
2.83335 0.387388 0.128561
2.84214 0.387487 0.117559
2.84854 0.387514 0.106532
2.85855 0.387649 0.0955302
2.86581 0.387701 0.0845024
2.87441 0.387794 0.0734793
2.88353 0.387903 0.0624534
2.8906 0.387949 0.0514131
2.9016 0.388114 0.0403825
2.91095 0.388229 0.0293388
2.92035 0.388345 0.0182885
2.9299 0.388466 0.00723174
2.93768 0.388533 -0.0038314
2.94932 0.388717 -0.0149028
2.95943 0.388854 -0.0259816
2.96979 0.388999 -0.0370689
2.97963 0.389128 -0.0481625
2.9903 0.389281 -0.0592672
3.00251 0.389481 -0.070389
3.01126 0.389577 -0.0815005
3.02368 0.389783 -0.0926435
3.03502 0.389956 -0.10379
3.04768 0.390169 -0.114957
3.05938 0.390352 -0.126127
3.07131 0.390543 -0.137311
3.08433 0.390765 -0.148517
3.09661 0.390966 -0.159727
3.10987 0.391195 -0.170961
3.1225 0.391406 -0.182199
3.13599 0.391642 -0.193462
3.14897 0.391863 -0.20473
3.16492 0.392172 -0.216059
3.17881 0.392419 -0.227371
3.19239 0.392657 -0.23869
3.20938 0.392996 -0.250088
3.22334 0.393245 -0.261445
3.23773 0.393506 -0.272824
3.25502 0.393853 -0.284281
3.27272 0.394212 -0.295766
3.28742 0.394482 -0.307203
3.30546 0.394851 -0.318734
3.3237 0.395225 -0.330291
3.34214 0.395605 -0.341874
3.36078 0.395991 -0.353484
3.37962 0.396382 -0.365121
3.39866 0.396778 -0.376786
3.4179 0.397181 -0.388479
3.43738 0.39759 -0.400201
3.45741 0.398015 -0.411963
3.48052 0.39853 -0.423846
3.50419 0.399062 -0.435776
3.52469 0.3995 -0.44763
3.54888 0.400046 -0.459635
3.57365 0.400609 -0.47169
3.5984 0.401171 -0.483776
3.62381 0.401752 -0.495917
3.65307 0.402446 -0.508234
3.67915 0.403045 -0.520469
3.70913 0.403759 -0.532889
3.7395 0.404484 -0.545364
3.77492 0.405357 -0.558084
3.80611 0.406104 -0.570678
3.84251 0.407005 -0.583534
3.88329 0.408033 -0.596628
3.92023 0.408948 -0.609611
3.96727 0.410158 -0.623095
4.01456 0.411374 -0.636658
4.06734 0.412751 -0.650543
4.12587 0.414296 -0.664775
4.19534 0.416159 -0.679617
4.28651 0.418657 -0.695618
4.41127 0.422137 -0.713422
0.909739 0.36318 1.39651
0.833544 0.36048 1.37627
0.787148 0.358773 1.35995
0.74821 0.357315 1.34465
0.720745 0.35624 1.33087
0.687578 0.354977 1.31644
0.666037 0.354101 1.30351
0.644633 0.35323 1.29065
0.619161 0.352225 1.27735
0.599491 0.351413 1.2648
0.584264 0.350749 1.25282
0.564809 0.349946 1.24039
0.551164 0.349336 1.22867
0.53646 0.348691 1.21687
0.523061 0.34809 1.20526
0.504091 0.347306 1.19305
0.490911 0.346713 1.18153
0.477844 0.346125 1.17007
0.464897 0.345542 1.15865
0.457682 0.345148 1.14789
0.444971 0.344573 1.13656
0.437966 0.344186 1.12587
0.430634 0.34379 1.11518
0.418728 0.343242 1.10402
0.411787 0.342859 1.09342
0.405294 0.342491 1.08288
0.393562 0.341951 1.07182
0.387219 0.341589 1.06135
0.381037 0.341232 1.05091
0.37495 0.340879 1.0405
0.368982 0.34053 1.03013
0.363135 0.340185 1.01979
0.357411 0.339845 1.00948
0.351811 0.339509 0.999196
0.346336 0.339177 0.988948
0.340988 0.33885 0.97873
0.336448 0.33855 0.968607
0.331435 0.338234 0.958457
0.326552 0.337923 0.948338
0.326921 0.337784 0.938713
0.327368 0.337648 0.929104
0.322819 0.337348 0.919057
0.319547 0.337091 0.90914
0.320333 0.336966 0.899591
0.321197 0.336844 0.890057
0.32348 0.336768 0.88065
0.325977 0.336699 0.871265
0.333523 0.336795 0.862306
0.341186 0.336895 0.853351
0.350582 0.337051 0.844532
0.369592 0.33752 0.83648
1.63826 0.378645 0.928049
1.68394 0.379963 0.920891
1.72598 0.38116 0.913373
1.76133 0.38214 0.905273
1.80627 0.383429 0.897847
1.83781 0.384283 0.88934
1.87902 0.38545 0.881502
1.91015 0.386289 0.87286
1.94108 0.38712 0.864156
1.97181 0.387944 0.85539
2.00232 0.388761 0.846562
2.02282 0.389253 0.836992
2.04993 0.389958 0.827847
2.07984 0.390753 0.818853
2.09981 0.391226 0.809148
2.12641 0.391913 0.799855
2.1432 0.392282 0.789884
2.16269 0.392738 0.780066
2.1888 0.393408 0.770641
2.2052 0.393763 0.760573
2.22421 0.394203 0.750644
2.24036 0.39455 0.740519
2.25641 0.394893 0.730367
2.27495 0.395316 0.720343
2.29075 0.395651 0.710136
2.30642 0.395981 0.699904
2.32199 0.396308 0.689647
2.33743 0.39663 0.679365
2.34615 0.396736 0.6687
2.36138 0.397051 0.658376
2.3765 0.397362 0.648029
2.39149 0.397669 0.637658
2.39988 0.397764 0.626935
2.41465 0.398063 0.616525
2.4293 0.398358 0.606092
2.43746 0.398445 0.595331
2.44966 0.398661 0.584755
2.46399 0.398946 0.574266
2.47195 0.399026 0.563473
2.48606 0.399302 0.552947
2.49389 0.399378 0.542134
2.50568 0.399581 0.531485
2.51548 0.399719 0.520742
2.5271 0.399916 0.510064
2.53673 0.400049 0.499297
2.54619 0.400176 0.488516
2.55762 0.400366 0.477803
2.56503 0.400428 0.46693
2.57628 0.400612 0.456192
2.58553 0.400732 0.445374
2.59471 0.40085 0.434546
2.60385 0.400966 0.423711
2.6129 0.40108 0.412866
2.62194 0.401193 0.402014
2.63086 0.401302 0.391153
2.6398 0.401412 0.380286
2.6486 0.401517 0.369409
2.65743 0.401623 0.358527
2.66446 0.401672 0.347589
2.67471 0.401823 0.336735
2.68179 0.401873 0.32579
2.69032 0.401969 0.314879
2.6989 0.402067 0.303964
2.7073 0.402159 0.293039
2.71577 0.402253 0.282111
2.72261 0.402295 0.271143
2.7323 0.402428 0.26023
2.7392 0.402472 0.249256
2.746 0.402513 0.238277
2.75558 0.402641 0.227346
2.76099 0.402638 0.216337
2.77036 0.40276 0.205392
2.77714 0.402801 0.1944
2.78387 0.402839 0.183406
2.79307 0.402956 0.172443
2.79883 0.402963 0.16143
2.80806 0.403081 0.150457
2.81512 0.403129 0.139455
2.82314 0.403208 0.128459
2.8314 0.403295 0.117461
2.83856 0.403346 0.106449
2.84709 0.403441 0.0954451
2.85602 0.403548 0.0844381
2.86488 0.403653 0.0734249
2.87395 0.403765 0.0624069
2.88313 0.403879 0.0513833
2.89255 0.404001 0.0403542
2.90183 0.404119 0.029318
2.90964 0.404191 0.0182734
2.921 0.404374 0.00722676
2.93106 0.404515 -0.00382944
2.94136 0.404664 -0.0148937
2.951 0.404793 -0.0259647
2.96162 0.404952 -0.0370456
2.97355 0.405152 -0.04814
2.98234 0.405253 -0.0592309
2.99447 0.405459 -0.0703455
3.00577 0.405638 -0.0814661
3.01814 0.405851 -0.0926041
3.02979 0.406041 -0.103748
3.04167 0.406238 -0.114904
3.05441 0.406462 -0.126079
3.06664 0.40667 -0.137261
3.07962 0.406901 -0.148463
3.0922 0.407119 -0.159673
3.10541 0.407357 -0.170903
3.11835 0.407586 -0.182141
3.13151 0.407821 -0.193396
3.14507 0.408069 -0.204669
3.1613 0.4084 -0.216
3.17514 0.408656 -0.227307
3.18902 0.408913 -0.238629
3.20594 0.409264 -0.250023
3.22016 0.409531 -0.261382
3.23744 0.409893 -0.272818
3.25196 0.410169 -0.284215
3.26958 0.410541 -0.295696
3.28742 0.410919 -0.307203
3.30301 0.411227 -0.318675
3.32085 0.411605 -0.33022
3.33902 0.411992 -0.341794
3.3578 0.412398 -0.353405
3.37658 0.412804 -0.365038
3.39624 0.413236 -0.376718
3.41879 0.413757 -0.388504
3.43819 0.414181 -0.400225
3.45825 0.414624 -0.411989
3.48157 0.415168 -0.423879
3.50575 0.415738 -0.435826
3.52598 0.416185 -0.447673
3.55075 0.416772 -0.459698
3.57516 0.417348 -0.471742
3.60056 0.417953 -0.483852
3.62941 0.418664 -0.496121
3.65548 0.419288 -0.508324
3.68505 0.42002 -0.520693
3.71502 0.420763 -0.533118
3.74616 0.421542 -0.545628
3.77689 0.422307 -0.558164
3.81733 0.423369 -0.571142
3.84891 0.424159 -0.583804
3.8905 0.425255 -0.596938
3.93185 0.426343 -0.61012
3.9784 0.427588 -0.623592
4.02572 0.428856 -0.637165
4.084 0.430459 -0.651314
4.14744 0.432217 -0.66579
4.22203 0.434314 -0.680894
4.30791 0.436755 -0.696661
4.46453 0.441351 -0.716058
0.948878 0.379063 1.40152
0.865645 0.37601 1.38035
0.81378 0.374045 1.3633
0.773144 0.37247 1.34777
0.740097 0.371159 1.33327
0.712818 0.370048 1.31955
0.68565 0.368942 1.30591
0.665966 0.368095 1.29324
0.63905 0.367 1.27974
0.625228 0.366357 1.26787
0.604359 0.365472 1.2552
0.585042 0.364641 1.24276
0.571497 0.36401 1.23104
0.556871 0.363342 1.21923
0.543574 0.36272 1.20761
0.524743 0.361908 1.19539
0.517285 0.361488 1.1845
0.504304 0.360879 1.17302
0.496263 0.36044 1.16212
0.483591 0.359843 1.15073
0.471049 0.35925 1.1394
0.45864 0.358663 1.1281
0.451872 0.358269 1.11745
0.439727 0.357692 1.10625
0.433189 0.357307 1.09566
0.426761 0.356926 1.08511
0.420444 0.356549 1.07459
0.414225 0.356176 1.06411
0.408152 0.355809 1.05366
0.402318 0.35545 1.04325
0.396543 0.355093 1.03287
0.390887 0.35474 1.02252
0.385354 0.354392 1.0122
0.379943 0.354049 1.00191
0.379867 0.353888 0.992153
0.375301 0.353574 0.981978
0.370316 0.353245 0.971781
0.370574 0.353096 0.962088
0.366684 0.352806 0.952023
0.367174 0.352665 0.942372
0.368753 0.352561 0.932827
0.36945 0.352427 0.923209
0.376311 0.352503 0.914141
0.377186 0.352375 0.904547
0.385546 0.352502 0.895606
0.398962 0.3528 0.887089
0.417253 0.353263 0.878967
1.39883 0.386377 0.951203
1.44904 0.387906 0.944771
1.50485 0.389624 0.938712
1.55086 0.391008 0.931768
1.59661 0.392382 0.924729
1.64212 0.393746 0.917594
1.68393 0.394985 0.910098
1.7193 0.396005 0.902038
1.75441 0.397015 0.893902
1.79557 0.398228 0.886167
1.8269 0.399109 0.877634
1.86125 0.400091 0.869276
1.89214 0.400955 0.860614
1.92283 0.401811 0.85189
1.9502 0.402556 0.842886
1.98051 0.403398 0.834046
2.00105 0.403911 0.824489
2.03094 0.404738 0.815538
2.04816 0.405138 0.805695
2.07766 0.40595 0.796639
2.0975 0.406438 0.786912
2.11433 0.406824 0.776965
2.14039 0.407519 0.76758
2.15975 0.407989 0.75774
2.1762 0.408361 0.747696
2.19526 0.40882 0.737791
2.21147 0.409183 0.727689
2.23022 0.409631 0.717718
2.24618 0.409985 0.707561
2.26202 0.410335 0.697379
2.27775 0.41068 0.687171
2.29591 0.411107 0.677078
2.31138 0.411443 0.666817
2.32674 0.411776 0.656531
2.34199 0.412104 0.646222
2.35571 0.412381 0.635816
2.36592 0.412541 0.625218
2.38083 0.412858 0.614845
2.39562 0.41317 0.604449
2.4088 0.413428 0.593959
2.41878 0.413579 0.583305
2.43323 0.41388 0.572849
2.44535 0.414102 0.562271
2.45367 0.414197 0.551513
2.4678 0.414486 0.541002
2.48025 0.414719 0.530404
2.48992 0.414859 0.519678
2.50163 0.415067 0.509028
2.50966 0.415152 0.498219
2.52325 0.415422 0.487623
2.53316 0.41557 0.476872
2.54257 0.4157 0.466095
2.55429 0.415908 0.455394
2.56358 0.416034 0.444597
2.57473 0.416222 0.433857
2.58241 0.416296 0.42299
2.59524 0.416539 0.412288
2.60102 0.416549 0.401348
2.61364 0.416785 0.39062
2.62117 0.416853 0.379725
2.63183 0.417024 0.368919
2.63929 0.417089 0.358013
2.64981 0.417255 0.347187
2.6572 0.417318 0.336269
2.66756 0.417479 0.325425
2.67489 0.41754 0.314496
2.6838 0.417652 0.303602
2.69237 0.417754 0.292695
2.70117 0.417862 0.281787
2.70964 0.41796 0.270866
2.71688 0.418018 0.259915
2.72669 0.41816 0.249011
2.73388 0.418215 0.238051
2.74246 0.418316 0.227112
2.75067 0.418405 0.216162
2.75783 0.41846 0.20519
2.76725 0.418588 0.19425
2.77436 0.418641 0.183269
2.78274 0.418735 0.172304
2.79068 0.418815 0.161327
2.79717 0.418847 0.150329
2.80691 0.418986 0.139365
2.81399 0.419037 0.128367
2.82251 0.419136 0.11738
2.83127 0.419242 0.106389
2.83844 0.419296 0.0953807
2.84901 0.419461 0.0843921
2.85643 0.419524 0.0733767
2.86721 0.419696 0.0623743
2.87489 0.419766 0.0513505
2.88458 0.419902 0.0403292
2.89569 0.420084 0.0293041
2.90382 0.420169 0.0182651
2.91513 0.420358 0.00722348
2.92352 0.420451 -0.00382721
2.93504 0.420645 -0.0148864
2.94573 0.420813 -0.0259541
2.95666 0.420989 -0.0370314
2.96854 0.421195 -0.0481214
2.97766 0.421311 -0.0592096
2.98974 0.421524 -0.0703199
3.00135 0.42172 -0.0814384
3.01318 0.421924 -0.0925688
3.02563 0.422148 -0.103715
3.03782 0.422363 -0.11487
3.05051 0.422594 -0.126042
3.06305 0.42282 -0.137224
3.07597 0.423059 -0.148422
3.08886 0.423296 -0.159632
3.10198 0.42354 -0.170858
3.11526 0.423789 -0.182098
3.12872 0.424044 -0.193355
3.14484 0.424385 -0.204666
3.15852 0.424646 -0.215954
3.17252 0.424918 -0.227262
3.18906 0.425271 -0.23863
3.20328 0.425549 -0.249972
3.22034 0.425918 -0.261385
3.23529 0.42622 -0.272774
3.25234 0.426588 -0.284224
3.2703 0.426986 -0.295713
3.28607 0.427312 -0.307171
3.30346 0.427691 -0.318686
3.32161 0.428094 -0.330239
3.34051 0.42852 -0.341833
3.35905 0.428934 -0.353439
3.37843 0.429375 -0.365089
3.39736 0.429801 -0.376749
3.42059 0.430365 -0.388557
3.43995 0.430805 -0.400278
3.4638 0.431387 -0.412159
3.48358 0.431839 -0.423942
3.50801 0.43244 -0.435899
3.53281 0.433051 -0.447899
3.55694 0.433641 -0.459908
3.58237 0.434272 -0.471993
3.60705 0.434878 -0.484083
3.63696 0.435651 -0.496396
3.66225 0.436276 -0.508576
3.69693 0.4372 -0.521145
3.72285 0.437844 -0.533422
3.7573 0.438759 -0.546071
3.79338 0.439725 -0.558832
3.82456 0.440535 -0.571441
3.86591 0.441667 -0.584521
3.90674 0.442782 -0.597635
3.9482 0.443917 -0.610836
4.0005 0.445395 -0.624578
4.04795 0.446718 -0.638175
4.10565 0.448365 -0.652315
4.16928 0.450199 -0.666818
4.24906 0.452545 -0.682188
4.36139 0.455923 -0.699264
1.01691 0.396088 1.41023
0.897361 0.391612 1.38438
0.843784 0.389509 1.36709
0.799633 0.387747 1.35109
0.770498 0.386525 1.33704
0.743365 0.385376 1.32332
0.712422 0.384092 1.30918
0.685469 0.382952 1.2956
0.664372 0.382022 1.28279
0.644985 0.381155 1.27023
0.62988 0.380442 1.25822
0.610708 0.379584 1.24577
0.597261 0.378931 1.23404
0.582691 0.378239 1.22221
0.563888 0.377396 1.20994
0.556391 0.376958 1.19899
0.542442 0.37629 1.18734
0.529637 0.375663 1.17585
0.516949 0.375041 1.16441
0.509903 0.374621 1.15362
0.49745 0.374008 1.14227
0.490082 0.373577 1.1315
0.477971 0.372978 1.12024
0.471429 0.372577 1.1096
0.464993 0.37218 1.099
0.458666 0.371788 1.08843
0.452338 0.371396 1.07788
0.446309 0.371015 1.06739
0.435093 0.37045 1.05638
0.434597 0.370266 1.04649
0.428916 0.369898 1.03608
0.423662 0.369546 1.02574
0.423488 0.369374 1.01592
0.423391 0.369205 1.00611
0.418753 0.368875 0.99587
0.418884 0.368715 0.986103
0.414709 0.368402 0.975941
0.420105 0.368428 0.966683
0.420516 0.368278 0.956967
0.427737 0.368368 0.947877
0.42838 0.368226 0.938191
0.440911 0.368504 0.929571
0.453589 0.368787 0.920949
0.487668 0.369824 0.914177
1.21819 0.395408 0.967409
1.27176 0.397119 0.961543
1.32394 0.398779 0.95547
1.37978 0.400567 0.949614
1.42603 0.402016 0.942873
1.47203 0.403455 0.936034
1.52356 0.405087 0.929566
1.56911 0.406507 0.922536
1.60496 0.407586 0.914666
1.64997 0.408985 0.907453
1.68185 0.409922 0.899155
1.72298 0.411182 0.891512
1.75782 0.412221 0.88333
1.78909 0.413134 0.874829
1.82016 0.414039 0.866265
1.85425 0.41505 0.857872
1.8817 0.415826 0.848952
1.91216 0.416708 0.840203
1.93619 0.417363 0.830961
1.96313 0.41812 0.821884
1.99296 0.418978 0.812963
2.01332 0.419504 0.803364
2.03976 0.420241 0.79414
2.05979 0.420754 0.784459
2.07676 0.421161 0.774555
2.10273 0.42188 0.765199
2.12229 0.422375 0.755406
2.14167 0.422864 0.745576
2.15814 0.423251 0.735544
2.17723 0.423729 0.725649
2.19345 0.424107 0.71556
2.21837 0.424787 0.705955
2.23433 0.425154 0.695804
2.25277 0.425608 0.685772
2.2624 0.425755 0.675233
2.27801 0.42611 0.665009
2.29351 0.426461 0.654761
2.30889 0.426807 0.644489
2.32416 0.427149 0.634193
2.33932 0.427487 0.623873
2.35435 0.42782 0.61353
2.36579 0.428028 0.602995
2.37825 0.428272 0.592497
2.39295 0.428593 0.582092
2.40753 0.42891 0.571665
2.41857 0.429103 0.561061
2.43069 0.429334 0.550495
2.44493 0.429638 0.54001
2.45569 0.429822 0.52936
2.46755 0.430044 0.518747
2.47934 0.430262 0.50812
2.48986 0.430437 0.497431
2.50149 0.43065 0.486776
2.51506 0.43093 0.476183
2.52331 0.431026 0.465379
2.53469 0.43123 0.454684
2.54482 0.431391 0.443933
2.55603 0.431588 0.433212
2.56602 0.431744 0.422439
2.57521 0.431871 0.411632
2.5869 0.432085 0.400898
2.59597 0.432209 0.390072
2.60678 0.432392 0.379293
2.61468 0.432475 0.368418
2.62534 0.432653 0.357618
2.63318 0.432734 0.346731
2.64535 0.432963 0.335955
2.65148 0.432985 0.325012
2.66345 0.433207 0.314212
2.67115 0.433283 0.3033
2.68133 0.433444 0.29244
2.68899 0.433518 0.281517
2.69817 0.433644 0.270622
2.70662 0.433745 0.259705
2.71571 0.433868 0.248796
2.72406 0.433965 0.237867
2.73165 0.434037 0.226919
2.74128 0.434178 0.216003
2.74883 0.434248 0.205045
2.75831 0.434383 0.194114
2.76581 0.434452 0.183147
2.77461 0.434564 0.172194
2.78259 0.434648 0.161225
2.79037 0.434726 0.15025
2.79888 0.434828 0.139278
2.80747 0.434933 0.128302
2.81471 0.434992 0.117308
2.82503 0.435155 0.106337
2.83253 0.435222 0.0953368
2.84306 0.435393 0.084353
2.85081 0.435469 0.0733446
2.86048 0.43561 0.0623417
2.86955 0.43573 0.0513292
2.87955 0.435882 0.0403135
2.88875 0.436006 0.0292883
2.89907 0.436169 0.0182584
2.90963 0.436339 0.0072204
2.91906 0.436471 -0.00382589
2.92994 0.436652 -0.0148805
2.94153 0.436857 -0.0259457
2.95277 0.43705 -0.0370203
2.96461 0.437262 -0.0481068
2.97405 0.437394 -0.0591931
2.98609 0.437613 -0.0703002
2.99801 0.437828 -0.0814175
3.01015 0.43805 -0.0925473
3.02255 0.438281 -0.10369
3.03505 0.438515 -0.114846
3.04769 0.438753 -0.126014
3.06044 0.438995 -0.137196
3.07332 0.439241 -0.148392
3.0864 0.439494 -0.159602
3.10002 0.439764 -0.170832
3.11533 0.440091 -0.182099
3.1289 0.44036 -0.193357
3.1427 0.440635 -0.204632
3.15903 0.440996 -0.215963
3.1728 0.44127 -0.227267
3.18988 0.441655 -0.238645
3.20393 0.441938 -0.249985
3.22146 0.442337 -0.261407
3.23636 0.442649 -0.272796
3.25375 0.443043 -0.284254
3.27203 0.443466 -0.295751
3.28675 0.44377 -0.307187
3.30546 0.444207 -0.318734
3.32359 0.444625 -0.330288
3.34278 0.445077 -0.341891
3.36225 0.445538 -0.353523
3.38425 0.446084 -0.365247
3.40423 0.446561 -0.376942
3.42335 0.44701 -0.388636
3.44723 0.447616 -0.400494
3.46678 0.448078 -0.41225
3.49125 0.448704 -0.424183
3.51608 0.44934 -0.436159
3.53991 0.449943 -0.448134
3.56536 0.450599 -0.460194
3.58975 0.45122 -0.472249
3.61962 0.452022 -0.484531
3.64461 0.452661 -0.496674
3.67918 0.453617 -0.509206
3.70482 0.454277 -0.521445
3.7403 0.455262 -0.5341
3.77068 0.456077 -0.546602
3.81132 0.457231 -0.559559
3.84683 0.458215 -0.572361
3.88864 0.459406 -0.585479
3.92959 0.460568 -0.598618
3.97116 0.461749 -0.611841
4.0285 0.46345 -0.625827
4.08081 0.464984 -0.639668
4.14359 0.466862 -0.654069
4.2174 0.469103 -0.669083
4.30792 0.471892 -0.685007
4.4414 0.476096 -0.70316
5.05561 0.496138 -0.745319
0.947323 0.407978 1.39072
0.880885 0.405317 1.37176
0.837062 0.403501 1.35577
0.791131 0.401609 1.33961
0.764083 0.40042 1.32587
0.737138 0.399237 1.3122
0.715962 0.398269 1.2993
0.694958 0.397308 1.28647
0.670117 0.396205 1.27323
0.655069 0.395467 1.2612
0.636052 0.394583 1.24875
0.622712 0.393909 1.237
0.608202 0.393193 1.22516
0.595108 0.392531 1.21351
0.581036 0.391832 1.20179
0.568223 0.391181 1.19024
0.55552 0.390534 1.17874
0.548423 0.390095 1.1679
0.535214 0.389431 1.1564
0.522947 0.388802 1.14504
0.516235 0.388379 1.13432
0.514545 0.388142 1.12415
0.502725 0.387531 1.11292
0.496396 0.387123 1.1023
0.490175 0.38672 1.09171
0.483929 0.386315 1.08114
0.478004 0.385924 1.07063
0.477441 0.385729 1.06067
0.471831 0.38535 1.05022
0.47149 0.385164 1.04031
0.466333 0.384802 1.02994
0.466216 0.384625 1.02008
0.466174 0.384451 1.01023
0.46668 0.384297 1.00045
0.472422 0.384336 0.99117
0.472689 0.384174 0.981374
0.47936 0.384246 0.972181
0.490426 0.38448 0.963387
0.502344 0.384745 0.954659
0.529607 0.385571 0.947298
0.607571 0.388252 0.944409
1.09162 0.405788 0.977159
1.16388 0.408249 0.973121
1.21898 0.410081 0.967478
1.27028 0.411773 0.961417
1.31924 0.413377 0.955073
1.36705 0.414938 0.948552
1.4131 0.416434 0.941806
1.45888 0.417918 0.934962
1.50076 0.419259 0.927727
1.54605 0.420723 0.920697
1.58185 0.421839 0.912844
1.62309 0.423153 0.905359
1.65838 0.42425 0.897348
1.68997 0.425211 0.889002
1.73059 0.426499 0.881284
1.76179 0.427443 0.872803
1.79279 0.42838 0.864259
1.82359 0.429308 0.855653
1.84826 0.430014 0.846563
1.87862 0.430925 0.837838
1.90563 0.431713 0.828833
1.9356 0.432609 0.819993
1.95631 0.433168 0.810479
1.98283 0.433937 0.801326
2.00321 0.434483 0.791728
2.02343 0.435022 0.782094
2.04945 0.435771 0.772803
2.06933 0.436298 0.763087
2.08905 0.436818 0.753335
2.11454 0.437546 0.74391
2.13111 0.437952 0.73391
2.15035 0.438453 0.724047
2.16942 0.438948 0.71415
2.18562 0.439339 0.704062
2.20172 0.439725 0.693949
2.22034 0.440203 0.683958
2.23619 0.44058 0.67379
2.25193 0.440953 0.663596
2.27009 0.441413 0.653514
2.28557 0.441776 0.643268
2.30094 0.442135 0.632998
2.31619 0.442489 0.622704
2.33133 0.442838 0.612387
2.3408 0.442984 0.601776
2.35573 0.443326 0.591419
2.37053 0.443663 0.581039
2.38522 0.443995 0.570637
2.39897 0.444294 0.560175
2.4089 0.444455 0.54953
2.42325 0.444775 0.539069
2.43748 0.44509 0.528586
2.44642 0.445215 0.517868
2.46042 0.445522 0.50735
2.47431 0.445823 0.496811
2.48307 0.445942 0.486058
2.49469 0.446163 0.475408
2.50825 0.446452 0.46482
2.51686 0.446565 0.454037
2.5302 0.446847 0.443416
2.54067 0.447025 0.432681
2.54995 0.447161 0.421899
2.56218 0.447403 0.411205
2.57135 0.447535 0.400403
2.58231 0.44773 0.389649
2.59065 0.447833 0.378807
2.60323 0.448086 0.368084
2.6115 0.448185 0.357226
2.62214 0.448369 0.346428
2.63204 0.448526 0.335601
2.64085 0.448645 0.324739
2.65066 0.448798 0.313895
2.66097 0.44897 0.303056
2.66908 0.449063 0.292158
2.67924 0.449229 0.2813
2.68731 0.44932 0.27039
2.69731 0.44948 0.259515
2.70534 0.44957 0.248593
2.71519 0.449724 0.237701
2.72318 0.449813 0.226768
2.73286 0.449961 0.21586
2.74082 0.450048 0.204916
2.75013 0.450183 0.193989
2.75826 0.450276 0.183039
2.76621 0.450363 0.172081
2.77551 0.450497 0.161136
2.78342 0.450582 0.150168
2.79313 0.45073 0.139215
2.80049 0.450796 0.128232
2.80959 0.450922 0.117261
2.81827 0.451034 0.106281
2.8277 0.451172 0.095301
2.83652 0.451288 0.08431
2.84627 0.451438 0.0733187
2.85626 0.451595 0.0623212
2.8653 0.451719 0.0513122
2.87561 0.451887 0.0403012
2.88478 0.452016 0.0292793
2.89542 0.452195 0.0182532
2.9063 0.452383 0.00721854
2.91569 0.452519 -0.00382489
2.92689 0.452717 -0.014877
2.93843 0.452928 -0.0259395
2.94999 0.453139 -0.0370123
2.96178 0.453358 -0.0480963
2.97155 0.453506 -0.0591817
2.98365 0.453736 -0.070287
2.99576 0.453965 -0.0814034
3.00799 0.454199 -0.0925319
3.02056 0.454444 -0.103674
3.03303 0.454686 -0.114828
3.04595 0.454943 -0.125998
3.06074 0.455265 -0.137199
3.07393 0.45553 -0.148399
3.08691 0.455789 -0.159608
3.10044 0.456066 -0.170838
3.1142 0.456351 -0.182084
3.13014 0.456712 -0.193376
3.14363 0.456988 -0.204647
3.16058 0.457383 -0.215988
3.17507 0.457692 -0.227306
3.19173 0.458077 -0.238678
3.20659 0.458398 -0.250035
3.2236 0.458794 -0.26145
3.23882 0.459128 -0.272847
3.2572 0.459571 -0.284328
3.27475 0.459985 -0.295812
3.29362 0.460444 -0.307346
3.31155 0.46087 -0.31888
3.33089 0.461345 -0.330469
3.35051 0.461829 -0.342089
3.36902 0.462274 -0.353702
3.38909 0.462773 -0.36538
3.41132 0.463345 -0.377142
3.43189 0.463861 -0.388884
3.45464 0.46445 -0.400715
3.47918 0.465102 -0.41263
3.50408 0.465765 -0.424587
3.52407 0.466258 -0.436417
3.55319 0.467065 -0.448573
3.57733 0.467701 -0.4606
3.60721 0.468533 -0.472856
3.63196 0.469188 -0.484969
3.66259 0.470044 -0.497328
3.69759 0.471051 -0.509891
3.72328 0.471736 -0.522148
3.76325 0.472912 -0.534992
3.79375 0.473761 -0.547517
3.83484 0.474973 -0.560512
3.87045 0.475997 -0.573338
3.91093 0.477186 -0.586418
3.95818 0.478606 -0.599846
4.00445 0.479992 -0.613299
4.06698 0.481934 -0.627543
4.12435 0.483697 -0.641646
4.19242 0.485825 -0.656328
4.28172 0.488678 -0.67211
4.38231 0.491914 -0.688568
4.87356 0.508504 -0.724202
5.05159 0.514376 -0.74512
0.996558 0.424449 1.39698
0.91961 0.421287 1.37665
0.873979 0.419336 1.36039
0.828277 0.417384 1.34422
0.801343 0.416157 1.33046
0.774495 0.414934 1.31677
0.747775 0.413717 1.30316
0.721225 0.412508 1.28963
0.700451 0.411522 1.27685
0.687011 0.410819 1.26498
0.661053 0.409636 1.25169
0.653365 0.409155 1.24057
0.633381 0.408203 1.22807
0.625907 0.407731 1.21704
0.611874 0.407009 1.20529
0.599161 0.406338 1.19373
0.591048 0.405843 1.18271
0.578629 0.405184 1.17124
0.566329 0.404531 1.15982
0.564233 0.404268 1.14954
0.552245 0.403627 1.1382
0.545732 0.403196 1.12748
0.538879 0.402753 1.11675
0.532646 0.402334 1.10611
0.526518 0.401919 1.09549
0.520317 0.401501 1.08489
0.519691 0.401297 1.07488
0.513931 0.400897 1.06437
0.518672 0.400898 1.05492
0.513318 0.400514 1.04447
0.513329 0.400334 1.03457
0.518297 0.400344 1.02516
0.523616 0.400367 1.01578
0.529068 0.400395 1.00641
0.534653 0.400428 0.99706
0.545778 0.400671 0.988223
0.572062 0.40149 0.980781
0.602936 0.402482 0.973719
0.667665 0.404758 0.969687
0.926541 0.414395 0.983008
1.04024 0.41852 0.98293
1.1096 0.420962 0.978743
1.17266 0.423162 0.973886
1.22355 0.4249 0.967872
1.27014 0.426474 0.961405
1.31516 0.427986 0.954729
1.3611 0.429533 0.948055
1.403 0.430925 0.940972
1.4447 0.432308 0.933804
1.48622 0.433683 0.926554
1.52756 0.435051 0.919222
1.56327 0.436204 0.91138
1.60064 0.43742 0.90361
1.63587 0.438553 0.895616
1.67294 0.439755 0.887706
1.70768 0.440868 0.879563
1.73878 0.441843 0.871095
1.76967 0.44281 0.862565
1.80037 0.443768 0.853973
1.82519 0.444504 0.844914
1.85223 0.445323 0.835976
1.8823 0.446256 0.827209
1.90333 0.446848 0.817776
1.93299 0.447763 0.808898
1.95367 0.448341 0.799375
1.97986 0.449125 0.790188
2.00021 0.449689 0.780583
2.02607 0.450459 0.771304
2.04607 0.451009 0.761617
2.06592 0.451553 0.751893
2.0884 0.452195 0.742305
2.10792 0.452726 0.732507
2.12728 0.45325 0.722673
2.14372 0.453664 0.712642
2.16278 0.454176 0.702743
2.17898 0.454581 0.692656
2.19773 0.455081 0.682692
2.21368 0.455476 0.67255
2.22952 0.455866 0.662383
2.24782 0.456348 0.652328
2.26341 0.456728 0.642108
2.27888 0.457104 0.631863
2.29424 0.457475 0.621594
2.30949 0.457842 0.611302
2.32462 0.458203 0.600987
2.33919 0.458544 0.590627
2.3517 0.458808 0.580154
2.36647 0.459156 0.569773
2.38112 0.459499 0.559369
2.39565 0.459837 0.548944
2.40509 0.459986 0.538281
2.41941 0.460316 0.527818
2.43142 0.46056 0.517244
2.44503 0.460863 0.506723
2.45473 0.461021 0.496032
2.46861 0.461334 0.485495
2.48188 0.461623 0.474921
2.49141 0.461775 0.464194
2.50494 0.462073 0.453604
2.51392 0.462204 0.44284
2.52527 0.462422 0.43215
2.53848 0.462708 0.421513
2.54732 0.462833 0.410719
2.55844 0.463042 0.399992
2.56908 0.463233 0.38924
2.58002 0.463435 0.378487
2.59232 0.463687 0.367765
2.59955 0.463752 0.356887
2.612 0.464009 0.346149
2.6206 0.464124 0.335297
2.63114 0.464311 0.324489
2.63971 0.464424 0.313623
2.65172 0.464665 0.302835
2.66022 0.464776 0.291953
2.67043 0.464949 0.281105
2.6789 0.465059 0.270211
2.68896 0.465227 0.259344
2.69739 0.465335 0.248438
2.70875 0.46555 0.237581
2.71569 0.465603 0.226635
2.72684 0.465811 0.215758
2.73517 0.465915 0.204826
2.74355 0.46602 0.193889
2.75304 0.466166 0.182964
2.76138 0.466271 0.172016
2.77071 0.466411 0.161075
2.77902 0.466513 0.150116
2.78765 0.466628 0.139156
2.79616 0.466737 0.128189
2.80558 0.46688 0.117225
2.81423 0.466995 0.106248
2.82398 0.46715 0.0952733
2.83276 0.467269 0.0842853
2.84283 0.467435 0.0732991
2.85142 0.467547 0.0622977
2.86215 0.467737 0.0512996
2.87278 0.467923 0.0402923
2.88366 0.468118 0.0292767
2.89288 0.468253 0.0182496
2.90405 0.468458 0.00721728
2.91535 0.468668 -0.00382479
2.92494 0.468815 -0.0148748
2.93644 0.469032 -0.0259355
2.94806 0.469253 -0.0370068
2.9598 0.469478 -0.048089
2.97167 0.469707 -0.0591822
2.98389 0.469949 -0.0702882
2.99599 0.470187 -0.0814048
3.00856 0.470441 -0.0925359
3.0209 0.470687 -0.103677
3.03382 0.470953 -0.114835
3.04696 0.471227 -0.126007
3.05966 0.471485 -0.137188
3.07559 0.471859 -0.148418
3.08856 0.472127 -0.159628
3.10242 0.472426 -0.170864
3.11651 0.472733 -0.182116
3.13243 0.473106 -0.193409
3.14688 0.473425 -0.204697
3.16315 0.47381 -0.21603
3.17797 0.474143 -0.227356
3.19578 0.474582 -0.238751
3.20977 0.474884 -0.250095
3.22802 0.475339 -0.261537
3.24518 0.475754 -0.272978
3.26391 0.476225 -0.284472
3.28292 0.476706 -0.295994
3.29762 0.477032 -0.307438
3.32014 0.477638 -0.319086
3.3399 0.478144 -0.330693
3.35821 0.478599 -0.342286
3.37842 0.47912 -0.353951
3.4004 0.479705 -0.365688
3.42109 0.480243 -0.377417
3.44543 0.480911 -0.389276
3.46821 0.481523 -0.401119
3.49317 0.482212 -0.413058
3.51296 0.482716 -0.424866
3.54208 0.483553 -0.436998
3.56797 0.484274 -0.449063
3.59585 0.485065 -0.461228
3.62616 0.485942 -0.473515
3.65096 0.486622 -0.485645
3.6859 0.487662 -0.498177
3.7174 0.48858 -0.510628
3.75118 0.489577 -0.523209
3.78757 0.490667 -0.535938
3.82232 0.491698 -0.548651
3.8639 0.49297 -0.561689
3.90399 0.494188 -0.574724
3.95554 0.495813 -0.588299
4.00144 0.497236 -0.601705
4.0481 0.498684 -0.61521
4.1207 0.501052 -0.62994
4.18344 0.503068 -0.644331
4.26697 0.505819 -0.659775
4.35606 0.508765 -0.675608
4.5781 0.516418 -0.697942
4.94108 0.529056 -0.72749
5.05992 0.533041 -0.745533
0.968781 0.437777 1.38284
0.904874 0.435028 1.36425
0.864903 0.433237 1.34876
0.832589 0.431752 1.33431
0.803862 0.430412 1.32036
0.777321 0.42916 1.30674
0.756455 0.428135 1.29386
0.737516 0.427187 1.28127
0.711467 0.425958 1.26788
0.696662 0.425176 1.25587
0.683549 0.424463 1.24409
0.669128 0.423698 1.23219
0.656254 0.422996 1.22051
0.642267 0.422249 1.20874
0.629664 0.421559 1.19716
0.621541 0.421047 1.18611
0.609229 0.420369 1.17463
0.606885 0.420086 1.16427
0.594873 0.419421 1.15287
0.588294 0.418972 1.14209
0.581216 0.418503 1.13128
0.579651 0.418253 1.12107
0.573505 0.417822 1.1104
0.567133 0.417382 1.09972
0.566432 0.417167 1.08965
0.565616 0.416947 1.07958
