ply
format ascii 1.0
comment Created by Open3D
element vertex 1885
property double x
property double y
property double z
end_header
2.29092 -1.25897 4.20945
2.25233 -1.25893 4.17485
2.32043 -1.259 4.19342
2.29937 -1.25908 4.1674
2.26367 -1.25931 4.13382
2.31711 -1.25955 4.14478
2.31243 -1.25972 4.12681
2.30923 -1.26026 4.10895
2.36106 -1.26051 4.11908
2.28116 -1.26098 4.06297
2.34968 -1.26167 4.08069
2.38629 -1.26215 4.0828
2.40971 -1.26295 4.07776
2.34144 -1.26377 4.02682
2.37248 -1.26467 4.02537
2.35649 -1.2658 4
2.39595 -1.26683 4.0025
2.41081 -1.26812 3.99221
2.4816 -1.26961 4.00952
2.42599 -1.27141 3.96303
2.51343 -1.27334 3.9878
2.54629 -1.27556 3.9847
2.64161 -1.27954 4.0096
2.27254 -1.25501 4.41146
2.32853 -1.25089 4.42964
2.21643 -1.24809 4.36201
2.20847 -1.24654 4.34477
2.20386 -1.24507 4.32912
2.24603 -1.24403 4.33628
2.25421 -1.24304 4.3264
2.25981 -1.2423 4.31489
2.25612 -1.24162 4.29866
2.23578 -1.24102 4.27402
2.31748 -1.24071 4.29996
2.25824 -1.24045 4.25538
2.22831 -1.24021 4.22543
2.21934 -1.24003 4.20586
2.32736 -1.23993 4.24466
2.34337 -1.23998 4.23725
2.33562 -1.23999 4.21799
2.25208 -1.24008 4.16073
2.28263 -1.24022 4.16042
2.33647 -1.24049 4.17155
2.32261 -1.2408 4.14876
2.31963 -1.24097 4.13163
2.3113 -1.24156 4.11114
2.2866 -1.24204 4.08261
2.36393 -1.24255 4.10505
2.35333 -1.2432 4.08328
2.43276 -1.2438 4.10657
2.34561 -1.24464 4.04617
2.33308 -1.2455 4.023
2.41755 -1.24644 4.0482
2.37887 -1.24759 4.01141
2.4025 -1.24873 4.00579
2.40613 -1.25008 3.98973
2.39895 -1.2517 3.96778
2.61602 -1.25354 4.05751
2.54939 -1.25587 4.00448
2.57807 -1.25853 3.99842
2.63219 -1.2634 4.00097
2.18452 -1.23516 4.38529
2.3172 -1.2311 4.44177
2.17892 -1.22893 4.36022
2.24895 -1.22722 4.38222
2.24359 -1.22577 4.3662
2.24177 -1.22474 4.35138
2.24599 -1.22394 4.33926
2.20469 -1.22321 4.30431
2.30262 -1.22254 4.3389
2.20171 -1.22194 4.27398
2.13824 -1.22164 4.22734
2.20072 -1.22138 4.24364
2.27731 -1.22114 4.26695
2.22392 -1.22096 4.22519
2.1924 -1.22086 4.19425
2.17868 -1.22091 4.17198
2.24138 -1.22103 4.18779
2.25231 -1.22101 4.17795
2.25884 -1.22121 4.16555
2.35817 -1.22141 4.19955
2.23554 -1.22172 4.12239
2.36439 -1.22207 4.17089
2.30665 -1.22246 4.12602
2.34022 -1.22289 4.12672
2.29512 -1.22343 4.0879
2.35345 -1.22397 4.10078
2.31921 -1.22473 4.06698
2.32299 -1.22549 4.05218
2.34773 -1.22636 4.04765
2.46039 -1.22726 4.08699
2.41626 -1.22826 4.04776
2.42959 -1.22941 4.03694
2.44868 -1.23078 4.02861
2.44049 -1.23217 4.00655
2.43821 -1.23395 3.98671
2.53854 -1.23603 4.01757
2.5533 -1.23842 4.00505
2.6708 -1.24213 4.04139
2.32059 -1.21694 4.46891
2.27045 -1.21192 4.43536
2.15022 -1.2096 4.36309
2.18984 -1.20809 4.36962
2.22679 -1.20666 4.37475
2.14581 -1.20532 4.32083
2.12942 -1.20468 4.2982
2.20347 -1.20395 4.32094
2.18542 -1.20329 4.29755
2.09776 -1.20288 4.239
2.20321 -1.20259 4.27683
2.19526 -1.20232 4.25793
2.23193 -1.20208 4.2613
2.17411 -1.20191 4.21733
2.21675 -1.20181 4.22349
2.19796 -1.20185 4.19869
2.29227 -1.20197 4.23033
2.26652 -1.20195 4.20217
2.35678 -1.20215 4.23165
2.25751 -1.20239 4.16629
2.30282 -1.20283 4.17289
2.27472 -1.20299 4.14325
2.24416 -1.20337 4.11198
2.30015 -1.2038 4.12392
2.27219 -1.20445 4.09348
2.35214 -1.20504 4.11708
2.33746 -1.20561 4.0934
2.356 -1.20641 4.08591
2.42672 -1.20721 4.10449
2.39005 -1.2081 4.0692
2.34454 -1.20906 4.02935
2.34644 -1.21023 4.01278
2.43764 -1.2115 4.04066
2.48265 -1.21285 4.04529
2.5576 -1.21427 4.06471
2.45334 -1.21642 3.99315
2.54185 -1.21855 4.01794
2.52683 -1.22156 3.9893
2.74345 -1.22741 4.07107
2.31519 -1.19653 4.48487
2.24871 -1.19219 4.44227
2.18521 -1.18991 4.39833
2.07349 -1.18844 4.32918
2.18253 -1.18705 4.37033
2.17514 -1.18606 4.35272
2.17525 -1.18531 4.33854
2.1347 -1.18461 4.30395
2.10236 -1.18398 4.2734
2.14901 -1.18365 4.28189
2.21141 -1.18336 4.29822
2.21205 -1.18307 4.28366
2.1486 -1.18305 4.23667
2.14093 -1.18286 4.2178
2.15861 -1.18277 4.21148
2.17222 -1.18281 4.20291
2.19655 -1.18293 4.19957
2.21799 -1.183 4.19487
2.19032 -1.1831 4.16555
2.21074 -1.18334 4.16005
2.20642 -1.18377 4.14186
2.19696 -1.18411 4.12125
2.23741 -1.18448 4.12552
2.33945 -1.18491 4.16048
2.31989 -1.18537 4.13458
2.35249 -1.18605 4.13436
2.21349 -1.18669 4.04839
2.35145 -1.18729 4.10097
2.30635 -1.18812 4.06159
2.29907 -1.18896 4.04107
2.36945 -1.18989 4.05922
2.43022 -1.19103 4.07215
2.49384 -1.19226 4.08632
2.47228 -1.19356 4.05773
2.4483 -1.19504 4.02756
2.47419 -1.1967 4.02198
2.55753 -1.19891 4.04403
2.60315 -1.20146 4.04653
2.54274 -1.20613 3.99195
2.18567 -1.17617 4.43874
2.26296 -1.17231 4.4674
2.20576 -1.17026 4.42634
2.1994 -1.16883 4.40984
2.14716 -1.1678 4.36986
2.21884 -1.16682 4.39179
2.17247 -1.16578 4.35481
2.11816 -1.16539 4.31292
2.13718 -1.16495 4.30779
2.16904 -1.16463 4.3089
2.18945 -1.16411 4.30459
2.22961 -1.16405 4.30946
2.18044 -1.16384 4.2699
2.2023 -1.16368 4.26578
2.16047 -1.16371 4.22953
2.23353 -1.16379 4.25064
2.17473 -1.16391 4.20575
2.2208 -1.16388 4.21354
2.19527 -1.16407 4.18516
2.22428 -1.1643 4.18398
2.19581 -1.16473 4.15373
2.18491 -1.16506 4.13242
2.26965 -1.16543 4.15884
2.25144 -1.16584 4.13372
2.34144 -1.16629 4.16262
2.34464 -1.16697 4.14771
2.26948 -1.1676 4.0937
2.27881 -1.16819 4.08198
2.36309 -1.16901 4.10731
2.40632 -1.16983 4.11208
2.34858 -1.17075 4.06619
2.30071 -1.17188 4.02482
2.3829 -1.17309 4.0483
2.3333 -1.17437 4.00572
2.43968 -1.17573 4.04096
2.34754 -1.17715 3.97678
2.4715 -1.1793 4.01925
2.48884 -1.18179 4.00771
2.5347 -1.18459 4.00977
2.17901 -1.15529 4.45481
2.25739 -1.15264 4.48236
2.13193 -1.15063 4.40714
2.19983 -1.14924 4.42776
2.12818 -1.14824 4.37806
2.24 -1.14729 4.42005
2.20747 -1.14657 4.38954
2.16667 -1.1461 4.35456
2.0732 -1.1455 4.29344
2.1864 -1.14519 4.33521
2.15428 -1.1451 4.304
2.09198 -1.14486 4.25794
2.18312 -1.14465 4.28856
2.19314 -1.14466 4.27828
2.15759 -1.1447 4.24515
2.20185 -1.14465 4.25209
2.24466 -1.14471 4.25811
2.16941 -1.14486 4.20496
2.2568 -1.14516 4.23287
2.18514 -1.14541 4.18135
2.17734 -1.1457 4.16168
2.34014 -1.14602 4.22723
2.24655 -1.14639 4.16451
2.27627 -1.14679 4.16337
2.22182 -1.14742 4.11975
2.26248 -1.14791 4.12391
2.19716 -1.14862 4.07468
2.30908 -1.14929 4.11412
2.20916 -1.14991 4.04771
2.3264 -1.1509 4.08918
2.35892 -1.15181 4.08844
2.35617 -1.15273 4.06999
2.29448 -1.1539 4.02161
2.37595 -1.15514 4.04465
2.43033 -1.15645 4.05396
2.38572 -1.15783 4.01362
2.37971 -1.15959 3.99182
2.51664 -1.16198 4.04025
2.4505 -1.16451 3.9868
2.62386 -1.17011 4.0471
2.17229 -1.13505 4.46999
2.15799 -1.13246 4.45116
2.14366 -1.13052 4.43147
2.11854 -1.1295 4.40505
2.06237 -1.12872 4.36282
2.0043 -1.12779 4.31986
2.03086 -1.12728 4.31861
2.07446 -1.12665 4.32609
2.13614 -1.12632 4.34215
2.11284 -1.12597 4.31577
2.15097 -1.12572 4.31996
2.08847 -1.12568 4.27351
2.14427 -1.12567 4.28616
2.09196 -1.12549 4.24502
2.20451 -1.12553 4.28597
2.1682 -1.12561 4.25242
2.1132 -1.12579 4.20936
2.30038 -1.12596 4.28741
2.1284 -1.12616 4.18581
2.14569 -1.12641 4.17877
2.19959 -1.12669 4.18997
2.26866 -1.12701 4.20868
2.27407 -1.12736 4.19549
2.25461 -1.12795 4.16946
2.2254 -1.12838 4.1388
2.29009 -1.12886 4.155
2.26617 -1.12956 4.12649
2.1849 -1.1303 4.06922
2.31595 -1.13101 4.11813
2.3275 -1.13184 4.10705
2.27898 -1.13269 4.06589
2.34885 -1.13362 4.08376
2.41354 -1.13476 4.0986
2.42096 -1.13598 4.08464
2.38671 -1.13727 4.04968
2.44838 -1.13864 4.0625
2.48267 -1.14025 4.06112
2.46055 -1.14238 4.03049
2.50426 -1.14504 4.03171
2.55251 -1.14857 4.03341
2.22821 -1.11801 4.52735
2.13847 -1.11431 4.47237
2.04494 -1.11234 4.4131
2.09268 -1.11079 4.42391
2.15429 -1.10999 4.44059
2.09015 -1.10904 4.39463
2.15227 -1.10833 4.41149
2.12062 -1.10784 4.38112
2.15988 -1.10723 4.38642
2.07527 -1.10692 4.32934
2.12635 -1.1066 4.34013
2.13829 -1.10654 4.33094
2.11109 -1.10652 4.30213
2.09999 -1.10634 4.28161
2.12145 -1.10636 4.27707
2.05642 -1.10641 4.22922
2.08834 -1.10651 4.22978
2.17127 -1.10663 4.25579
2.18635 -1.1068 4.24781
2.18753 -1.10718 4.2325
2.1525 -1.10742 4.19933
2.1725 -1.10769 4.1936
2.18447 -1.10801 4.18378
2.17375 -1.10836 4.16255
2.24162 -1.10893 4.18021
2.19706 -1.10936 4.14189
2.19176 -1.11001 4.12279
2.31552 -1.1107 4.16814
2.30967 -1.11134 4.14876
2.27759 -1.11194 4.11632
2.22064 -1.11276 4.07101
2.27745 -1.11378 4.0822
2.25591 -1.11469 4.05439
2.32223 -1.11563 4.07044
2.3964 -1.1168 4.08993
2.46078 -1.11805 4.10436
2.39332 -1.11937 4.0527
2.40448 -1.12104 4.03962
2.46374 -1.12301 4.04999
2.52511 -1.12507 4.06117
2.56449 -1.12849 4.05862
2.11123 -1.09671 4.48892
2.15778 -1.09366 4.50124
2.04524 -1.09228 4.43166
2.18217 -1.09096 4.48677
2.04158 -1.09001 4.40261
2.02859 -1.08929 4.38193
2.11763 -1.08862 4.41221
2.05 -1.08826 4.3637
2.0468 -1.08785 4.34748
2.08093 -1.08774 4.34948
2.05478 -1.08747 4.32159
2.12274 -1.08742 4.34043
2.04701 -1.08721 4.28767
2.06397 -1.08721 4.28091
2.14709 -1.08725 4.30718
2.1334 -1.08732 4.285
2.13038 -1.08743 4.26808
2.15871 -1.08768 4.2666
2.08002 -1.08793 4.21159
2.19072 -1.08815 4.25135
2.14053 -1.0884 4.21059
2.22314 -1.08872 4.23609
2.06931 -1.08919 4.14311
2.25754 -1.08956 4.22133
2.23598 -1.08994 4.19462
2.1809 -1.09054 4.15074
2.17056 -1.09118 4.12915
2.28619 -1.09168 4.17078
2.2804 -1.0923 4.15146
2.25175 -1.09308 4.12042
2.29057 -1.09389 4.12302
2.29053 -1.0947 4.10617
2.32307 -1.0956 4.10542
2.31684 -1.09671 4.08486
2.41933 -1.09768 4.11889
2.34951 -1.09891 4.06625
2.38851 -1.1004 4.06749
2.46178 -1.10176 4.08607
2.41461 -1.10367 4.04331
2.43761 -1.10581 4.03511
2.54467 -1.10846 4.06789
2.50701 -1.11444 4.02156
2.06968 -1.07965 4.49756
2.0707 -1.07552 4.48864
2.03544 -1.07309 4.45922
2.00789 -1.07177 4.4321
2.00705 -1.07101 4.41756
2.14817 -1.0701 4.47422
2.04572 -1.0696 4.40852
1.96561 -1.06923 4.3538
2.02453 -1.06889 4.36856
2.07771 -1.06851 4.38052
2.11663 -1.06841 4.38491
2.10044 -1.06816 4.36201
2.04962 -1.06812 4.32145
2.1401 -1.0681 4.3515
2.05285 -1.06811 4.29266
2.09219 -1.06815 4.29706
2.02379 -1.06822 4.24754
2.09723 -1.0685 4.26857
2.15985 -1.06864 4.28444
2.11731 -1.06881 4.24766
2.16653 -1.06902 4.25669
2.12687 -1.06945 4.2209
2.15586 -1.06973 4.21968
2.25056 -1.07023 4.25093
2.12453 -1.07059 4.17205
2.13279 -1.07115 4.15993
2.20979 -1.07159 4.18238
2.14171 -1.07219 4.132
2.23792 -1.07274 4.16383
2.26344 -1.07347 4.15998
2.17993 -1.07423 4.10153
2.28702 -1.07503 4.13829
2.25751 -1.07583 4.10673
2.27347 -1.07671 4.09772
2.31592 -1.07763 4.10186
2.29254 -1.07877 4.07264
2.33011 -1.07998 4.07373
2.41713 -1.08125 4.09937
2.33542 -1.08278 4.04012
2.46723 -1.08447 4.08726
2.43065 -1.08613 4.05023
2.45766 -1.08903 4.04245
2.53126 -1.09337 4.05495
1.99252 -1.05686 4.48123
2.05146 -1.05444 4.4989
1.98588 -1.05261 4.45351
2.05062 -1.05185 4.47178
2.02067 -1.05093 4.44293
2.03785 -1.05043 4.43707
1.9444 -1.04978 4.37611
2.02832 -1.04962 4.40311
2.03735 -1.04931 4.39292
1.99765 -1.04897 4.35841
1.9942 -1.0489 4.3416
2.0774 -1.04886 4.36808
2.07772 -1.04885 4.35307
2.08155 -1.04885 4.33979
2.08111 -1.04905 4.32406
2.1528 -1.0491 4.34464
1.95928 -1.04918 4.23255
2.06231 -1.04929 4.26868
2.0802 -1.04963 4.26186
2.04044 -1.04981 4.22647
2.1849 -1.05022 4.2828
2.14038 -1.05047 4.24489
2.11035 -1.05095 4.21383
2.09905 -1.05129 4.19235
2.11357 -1.05164 4.18378
2.14481 -1.0522 4.18315
2.16709 -1.05262 4.1783
2.21095 -1.05326 4.18381
2.17039 -1.05394 4.14704
2.2257 -1.05447 4.15845
2.23632 -1.05522 4.14709
2.16889 -1.05601 4.09662
2.2397 -1.05679 4.11526
2.22983 -1.05784 4.09299
2.26317 -1.05875 4.09261
2.31362 -1.05968 4.1007
2.36681 -1.06084 4.10968
2.35796 -1.06207 4.08747
2.31122 -1.06363 4.04563
2.48996 -1.06519 4.11648
2.40127 -1.06711 4.05285
2.43134 -1.06944 4.0477
2.49672 -1.07297 4.05771
1.99104 -1.03734 4.51339
2.08346 -1.03496 4.54776
1.98941 -1.03348 4.48765
1.96915 -1.03253 4.46369
1.98892 -1.0315 4.4599
1.91355 -1.0311 4.40762
1.98408 -1.03063 4.42841
2.00452 -1.03028 4.42398
2.0839 -1.02989 4.4491
2.03525 -1.02978 4.40978
2.00869 -1.0297 4.38146
2.05421 -1.02965 4.38914
2.06788 -1.02962 4.38086
2.05445 -1.02961 4.35898
2.09319 -1.0298 4.36288
1.97637 -1.02983 4.28925
2.0588 -1.02989 4.31519
2.03859 -1.03017 4.28945
2.09428 -1.0303 4.30191
2.1095 -1.03065 4.29375
2.05114 -1.03084 4.24905
2.09963 -1.03125 4.25739
2.12695 -1.03157 4.25531
2.09767 -1.03185 4.22498
2.10822 -1.03235 4.21416
2.04758 -1.03289 4.16766
2.19136 -1.03329 4.22363
2.2051 -1.03386 4.21422
2.15599 -1.03449 4.17328
2.22687 -1.03504 4.19246
2.15651 -1.03568 4.14085
2.14251 -1.03642 4.1172
2.29312 -1.03713 4.17589
2.26388 -1.03795 4.14442
2.27376 -1.03884 4.13235
2.32597 -1.03988 4.14114
2.22631 -1.04081 4.07417
2.31794 -1.04195 4.10241
2.31961 -1.04315 4.08549
2.35228 -1.04443 4.08391
2.32406 -1.04622 4.0508
2.38751 -1.04811 4.06327
2.45038 -1.05008 4.07523
2.45844 -1.05299 4.0578
1.92599 -1.01768 4.51395
1.95805 -1.01534 4.51811
1.96461 -1.01356 4.50875
1.92651 -1.01282 4.4756
1.99531 -1.01211 4.49587
1.93286 -1.01143 4.45049
1.93786 -1.01107 4.43838
1.97226 -1.0109 4.44068
1.92452 -1.01058 4.40216
1.97767 -1.01041 4.41386
1.98242 -1.01032 4.40122
1.93109 -1.01027 4.3605
1.9948 -1.01025 4.37724
2.00277 -1.01041 4.36582
2.04127 -1.01042 4.36992
1.99011 -1.01063 4.32885
2.00641 -1.01068 4.32175
2.06926 -1.01091 4.33765
2.1006 -1.01101 4.338
2.03996 -1.01134 4.29197
2.01452 -1.01169 4.26348
2.03375 -1.0119 4.25757
2.0616 -1.0122 4.25581
2.04361 -1.01264 4.23086
2.13906 -1.01312 4.26256
2.08094 -1.01344 4.21772
2.08407 -1.01399 4.20311
2.15816 -1.01455 4.22392
2.16356 -1.01497 4.21065
2.16554 -1.01561 4.19524
2.22497 -1.0161 4.20882
2.17591 -1.0168 4.16772
2.2232 -1.01755 4.17471
2.1581 -1.01832 4.12542
2.20503 -1.01914 4.13206
2.23342 -1.01998 4.12933
2.19742 -1.02103 4.09398
2.24206 -1.02195 4.09918
2.25014 -1.02309 4.08563
2.43334 -1.02426 4.15955
2.31187 -1.02551 4.08093
2.30405 -1.02727 4.05806
2.3539 -1.02894 4.06416
2.41119 -1.03106 4.07299
2.47714 -1.03392 4.08455
2.55088 -1.04016 4.09285
1.87457 -0.997551 4.52198
1.86052 -0.995253 4.50303
1.89875 -0.993999 4.50878
1.93525 -0.993089 4.5132
1.91973 -0.992388 4.49132
1.85776 -0.991902 4.44593
1.91244 -0.991539 4.45868
1.91267 -0.991377 4.44392
1.89283 -0.991235 4.41909
1.99589 -0.991115 4.45569
1.88354 -0.991018 4.38454
1.945 -0.990947 4.40027
1.93092 -0.990901 4.37819
1.96123 -0.991064 4.37796
1.97812 -0.991065 4.37128
1.94784 -0.991271 4.34068
1.97208 -0.991476 4.33734
1.98429 -0.991546 4.3282
1.88608 -0.991828 4.26349
2.04043 -0.992073 4.32512
2.08643 -0.992404 4.33241
1.96702 -0.992586 4.25725
2.01419 -0.992984 4.265
1.99326 -0.993288 4.23885
2.09469 -0.993738 4.2736
2.07862 -0.994223 4.24954
2.0575 -0.994742 4.22286
2.02955 -0.995107 4.19305
2.13002 -0.99568 4.22704
2.13694 -0.996104 4.21452
2.19636 -0.996747 4.22783
2.16136 -0.997424 4.19384
2.11952 -0.998052 4.15651
2.17558 -0.998782 4.16791
2.24814 -0.999545 4.18747
2.15663 -1.00029 4.12501
2.18539 -1.00121 4.12233
2.22723 -1.0022 4.12601
2.28263 -1.00311 4.1366
2.28115 -1.00423 4.1183
2.24035 -1.00538 4.08025
2.31539 -1.00661 4.09992
2.31554 -1.00815 4.08146
2.37537 -1.0097 4.09279
2.36394 -1.01207 4.06672
2.48413 -1.01405 4.1072
2.51113 -1.01922 4.09426
1.9149 -0.976167 4.57763
1.94326 -0.974431 4.57912
1.8681 -0.973702 4.52746
1.90048 -0.973 4.52955
1.86734 -0.972329 4.49886
1.92978 -0.972141 4.51525
1.88306 -0.971791 4.47733
1.93147 -0.97164 4.48667
1.85285 -0.971509 4.43246
1.84512 -0.9714 4.41368
1.86266 -0.971494 4.40721
1.85177 -0.971433 4.38677
1.93909 -0.971593 4.41508
1.94646 -0.971578 4.4037
1.91228 -0.971751 4.37124
2.05459 -0.971938 4.42699
1.96288 -0.972154 4.36568
1.91932 -0.972218 4.32869
1.90064 -0.972494 4.30378
1.92684 -0.972735 4.30137
1.99795 -0.973058 4.32125
1.97281 -0.973415 4.29295
2.00246 -0.973696 4.29216
1.98928 -0.974102 4.26973
1.98149 -0.974543 4.24991
2.02831 -0.974867 4.2576
2.06597 -0.975359 4.2604
2.03489 -0.975885 4.22874
2.00861 -0.976253 4.19976
2.14306 -0.976831 4.25075
2.09793 -0.977408 4.21192
2.10149 -0.978038 4.19732
2.09371 -0.978703 4.17698
2.11778 -0.979403 4.17246
2.2035 -0.980039 4.19887
2.14088 -0.980789 4.15087
2.18186 -0.981572 4.15458
2.22205 -0.9825 4.15759
2.25347 -0.983378 4.15627
2.20253 -0.984293 4.11368
2.31671 -0.985392 4.15324
2.27664 -0.986555 4.11552
2.34155 -0.98773 4.13022
2.32373 -0.989243 4.10282
2.33262 -0.99076 4.08872
2.46119 -0.992907 4.13308
2.43279 -0.995036 4.09892
2.4833 -0.999255 4.09968
1.87338 -0.957484 4.60366
1.86181 -0.955218 4.58591
1.82993 -0.954044 4.55653
1.8256 -0.953404 4.5402
1.82852 -0.95285 4.52738
1.86134 -0.952458 4.52929
1.90014 -0.952141 4.53409
1.75804 -0.952036 4.44814
1.86075 -0.951938 4.48458
1.7717 -0.951834 4.42515
1.86959 -0.951781 4.45912
1.81954 -0.951838 4.41895
1.9361 -0.951988 4.46193
1.80489 -0.951966 4.38131
1.84836 -0.95212 4.38773
1.94703 -0.952297 4.42172
1.93296 -0.952492 4.39929
1.85263 -0.95269 4.34373
1.8638 -0.952929 4.33384
1.89534 -0.953197 4.33408
1.97088 -0.953433 4.35636
1.85643 -0.953749 4.28351
1.85992 -0.95419 4.2694
1.9625 -0.954554 4.30496
1.9633 -0.954839 4.28975
2.01206 -0.955252 4.29828
1.99445 -0.955699 4.27356
2.08376 -0.956026 4.3025
2.02495 -0.956524 4.25706
1.95346 -0.957058 4.20519
2.08849 -0.957608 4.25654
2.09255 -0.958009 4.24266
2.12547 -0.958769 4.24252
2.1525 -0.959222 4.24
2.10714 -0.959891 4.20086
2.13869 -0.960593 4.20008
2.16832 -0.961328 4.19825
2.15874 -0.962096 4.17673
2.11319 -0.962896 4.13715
2.12959 -0.963728 4.12844
2.22539 -0.964611 4.15931
2.25048 -0.965664 4.15444
2.22818 -0.966575 4.12614
2.25289 -0.967716 4.12084
2.30767 -0.969097 4.13003
2.27546 -0.970354 4.09595
2.41122 -0.971845 4.14532
2.31217 -0.973951 4.07592
2.35094 -0.976045 4.07539
2.43822 -0.980188 4.09461
1.85411 -0.939702 4.63953
1.79166 -0.936411 4.59772
1.7995 -0.934758 4.58887
1.81342 -0.93393 4.58194
1.76487 -0.933346 4.54344
1.77723 -0.932784 4.5354
1.77205 -0.932495 4.51819
1.82284 -0.932217 4.52897
1.78714 -0.932158 4.49618
1.86002 -0.932105 4.51768
1.8032 -0.932061 4.47431
1.80347 -0.93222 4.45917
1.8075 -0.932204 4.44618
1.79973 -0.93237 4.42702
1.87133 -0.932535 4.44752
1.82736 -0.932708 4.41022
1.85338 -0.932888 4.40791
1.86073 -0.933075 4.39624
1.93297 -0.933292 4.41696
1.92755 -0.93368 4.39855
1.91393 -0.933941 4.37625
1.84087 -0.934172 4.32427
1.86923 -0.934479 4.32286
1.90639 -0.934913 4.32562
1.92927 -0.935268 4.32137
1.88952 -0.935547 4.28593
2.08863 -0.93595 4.36968
2.0096 -0.936434 4.3142
1.96283 -0.936887 4.2749
1.99523 -0.937373 4.2751
2.03175 -0.93772 4.27761
1.98379 -0.938435 4.23718
2.04319 -0.938809 4.25105
1.98651 -0.939397 4.20646
2.12128 -0.939975 4.25759
2.04034 -0.940613 4.20073
2.03287 -0.941285 4.18053
2.04514 -0.941904 4.17027
2.13433 -0.942625 4.19825
2.18047 -0.943379 4.20462
2.16561 -0.944163 4.18041
2.13457 -0.945019 4.14793
2.19959 -0.945987 4.16322
2.17972 -0.946882 4.13619
2.22186 -0.947967 4.13974
2.27904 -0.949104 4.15067
2.21819 -0.950255 4.10252
2.24079 -0.951729 4.09536
2.34476 -0.953211 4.12883
2.38232 -0.955197 4.12796
2.28736 -0.957075 4.06099
2.54007 -0.960318 4.16481
1.76986 -0.91753 4.63376
1.74521 -0.915404 4.6093
1.67977 -0.914603 4.56266
1.77312 -0.91357 4.59576
1.71572 -0.913295 4.55245
1.78092 -0.912789 4.57078
1.79181 -0.912539 4.56159
1.7773 -0.912514 4.53938
1.8201 -0.912284 4.54613
1.86024 -0.912276 4.55122
1.77679 -0.912478 4.4942
1.77827 -0.91248 4.47995
1.82734 -0.912682 4.48918
1.78311 -0.912694 4.45205
1.83309 -0.912909 4.4617
1.8728 -0.913112 4.46623
1.73889 -0.913515 4.38362
1.83419 -0.913715 4.41593
1.87933 -0.913941 4.42311
1.87669 -0.914152 4.40643
1.82683 -0.914549 4.3658
1.84986 -0.914831 4.36182
1.89178 -0.915251 4.36702
1.89764 -0.915678 4.35417
1.91856 -0.916022 4.34898
1.88669 -0.916296 4.31751
1.9324 -0.916688 4.32461
2.03038 -0.917165 4.35768
1.9789 -0.917606 4.31606
1.9581 -0.918108 4.28967
1.99249 -0.918598 4.29086
1.92084 -0.919126 4.23896
1.99606 -0.919661 4.26046
2.04305 -0.920219 4.26778
2.03565 -0.920631 4.24817
2.04476 -0.921388 4.23613
2.01164 -0.921974 4.20329
2.11038 -0.922522 4.23643
2.15217 -0.923228 4.24076
2.08708 -0.924044 4.19142
2.06224 -0.924797 4.1623
2.02703 -0.925582 4.1279
2.21976 -0.926397 4.20738
2.10246 -0.927265 4.13171
2.17576 -0.928295 4.15098
2.20294 -0.929191 4.14744
2.22505 -0.930304 4.14087
2.21962 -0.931654 4.11998
2.29664 -0.933058 4.14017
2.32612 -0.934589 4.13625
2.38167 -0.936284 4.14497
2.34394 -0.938597 4.10564
2.4715 -0.942117 4.14618
1.74369 -0.89726 4.65439
1.71106 -0.895219 4.62585
1.68833 -0.894466 4.60053
1.69127 -0.893737 4.58804
1.71481 -0.893262 4.58552
1.66589 -0.892811 4.54675
1.75545 -0.892815 4.57656
1.702 -0.892607 4.53519
1.71366 -0.892627 4.52604
1.79292 -0.892653 4.55067
1.79743 -0.892687 4.53793
1.61738 -0.89273 4.43288
1.72866 -0.892958 4.47321
1.83267 -0.893211 4.50986
1.67246 -0.893438 4.41443
1.77889 -0.893695 4.45226
1.83369 -0.893957 4.46427
1.80985 -0.894183 4.437
1.81895 -0.894591 4.4259
1.75085 -0.89486 4.37641
1.83968 -0.895085 4.40546
1.90403 -0.895654 4.42166
1.86889 -0.895956 4.38857
1.79397 -0.896207 4.33566
1.83671 -0.896821 4.34094
1.87675 -0.897185 4.34529
1.96522 -0.897468 4.37399
1.8611 -0.897937 4.30605
1.9229 -0.898366 4.32112
1.87082 -0.898859 4.27912
2.00225 -0.899361 4.32885
1.95948 -0.899856 4.29147
1.89126 -0.900383 4.24129
1.96591 -0.900927 4.26249
2.0383 -0.901479 4.28253
2.07467 -0.902073 4.28447
1.98351 -0.902699 4.22255
2.02473 -0.903292 4.22686
2.08061 -0.903967 4.23833
2.02173 -0.904673 4.19232
2.12261 -0.905387 4.22616
2.08498 -0.906197 4.19053
2.13345 -0.906951 4.19802
2.16165 -0.907735 4.19531
2.21807 -0.9087 4.20629
2.24459 -0.909727 4.20216
2.17915 -0.910618 4.15231
2.17678 -0.911726 4.13349
2.26107 -0.912852 4.15793
2.13154 -0.914463 4.07436
2.33119 -0.915907 4.1557
2.28373 -0.917662 4.11275
2.35666 -0.919951 4.12875
2.37443 -0.922807 4.11581
1.74184 -0.877014 4.6871
1.63043 -0.875299 4.61876
1.70368 -0.874357 4.64173
1.68049 -0.873677 4.61615
1.65701 -0.873471 4.58977
1.56523 -0.873064 4.52954
1.64156 -0.872883 4.55305
1.6514 -0.872908 4.54302
1.71535 -0.872741 4.56033
1.66307 -0.872805 4.51918
1.75783 -0.872876 4.55154
1.62875 -0.873165 4.47164
1.71387 -0.873249 4.49915
1.77299 -0.873547 4.51333
1.75212 -0.873797 4.48756
1.7806 -0.874098 4.48639
1.76872 -0.874348 4.46511
1.64912 -0.874788 4.38965
1.76336 -0.875093 4.43132
1.79552 -0.875524 4.43172
1.76914 -0.875834 4.40305
1.79759 -0.876258 4.40158
1.84453 -0.876677 4.40936
1.83852 -0.877163 4.39053
1.84937 -0.877408 4.38054
1.90945 -0.877841 4.39481
1.78912 -0.878401 4.31865
1.85128 -0.87887 4.33387
1.83869 -0.87917 4.31201
1.87505 -0.879794 4.31401
1.91655 -0.880296 4.3188
1.90661 -0.880629 4.29816
1.92238 -0.881319 4.28969
1.92533 -0.881676 4.27542
1.93634 -0.882396 4.26447
2.02433 -0.882797 4.29261
1.97229 -0.883542 4.25004
1.97239 -0.884118 4.23385
2.05424 -0.884761 4.25839
1.98206 -0.885436 4.20582
2.07605 -0.886142 4.23625
2.0377 -0.886851 4.20048
2.1224 -0.887588 4.22615
2.12029 -0.88841 4.20822
2.07162 -0.889192 4.16706
2.12402 -0.890155 4.17603
2.26424 -0.891178 4.22874
2.19414 -0.892064 4.17656
2.15716 -0.893166 4.14044
2.2513 -0.894285 4.16979
2.2811 -0.895653 4.1664
2.23108 -0.897069 4.12294
2.2791 -0.898789 4.12778
2.33918 -0.901033 4.1374
2.335 -0.904614 4.11177
1.62209 -0.860739 4.67051
1.60153 -0.856803 4.6505
1.56294 -0.85516 4.6185
1.63176 -0.854499 4.63892
1.59573 -0.85386 4.60689
1.61087 -0.853483 4.60011
1.63638 -0.853322 4.59822
1.5765 -0.853129 4.55368
1.7167 -0.853028 4.60905
1.58723 -0.853074 4.52937
1.59803 -0.85317 4.51976
1.6565 -0.853273 4.53396
1.61985 -0.853383 4.50059
1.61593 -0.853713 4.48324
1.61377 -0.854045 4.46675
1.69018 -0.854314 4.48964
1.74839 -0.854448 4.50363
1.72659 -0.854917 4.47708
1.7114 -0.855257 4.45402
1.76386 -0.855718 4.46458
1.77859 -0.856062 4.45645
1.74403 -0.856514 4.42347
1.81252 -0.856864 4.44219
1.80659 -0.85731 4.42351
1.69765 -0.857751 4.35333
1.78345 -0.858281 4.38034
1.86421 -0.858546 4.40528
1.88044 -0.859143 4.39736
1.77692 -0.859728 4.32956
1.90339 -0.860146 4.37704
1.82983 -0.860454 4.32469
1.88723 -0.861121 4.33715
1.78394 -0.861621 4.26955
1.90721 -0.86212 4.31521
1.86233 -0.862645 4.27673
1.9701 -0.863178 4.31455
1.97962 -0.863741 4.30315
1.94924 -0.864299 4.27181
1.92669 -0.86491 4.24425
2.06005 -0.865613 4.29444
1.98492 -0.866257 4.24048
1.98946 -0.866931 4.22627
1.97635 -0.867633 4.20316
2.04397 -0.868339 4.22037
2.09143 -0.869075 4.22743
2.02526 -0.869969 4.1773
2.08368 -0.870672 4.18985
2.1036 -0.871631 4.18257
2.20963 -0.872649 4.21819
2.18358 -0.873529 4.18803
2.23115 -0.8748 4.19379
2.21056 -0.875911 4.16579
2.1953 -0.877092 4.14025
2.23357 -0.878496 4.14094
2.26886 -0.880373 4.13901
2.36668 -0.882591 4.1675
2.47308 -0.885651 4.19828
1.58268 -0.839715 4.68537
1.55727 -0.837329 4.66091
1.518 -0.835735 4.62852
1.56239 -0.834655 4.63733
1.55595 -0.834058 4.62008
1.55341 -0.833913 4.60417
1.54778 -0.833539 4.58704
1.56195 -0.833412 4.57947
1.60478 -0.833296 4.58622
1.44599 -0.833418 4.49182
1.61555 -0.833387 4.56181
1.6196 -0.833678 4.54856
1.56989 -0.833818 4.50866
1.64601 -0.833965 4.53165
1.63445 -0.834334 4.51045
1.74754 -0.834623 4.55168
1.77593 -0.834994 4.55043
1.70457 -0.835368 4.49928
1.67008 -0.835656 4.4667
1.69972 -0.836232 4.46569
1.68889 -0.836519 4.44491
1.67864 -0.837092 4.42393
1.79728 -0.837564 4.46754
1.67238 -0.838031 4.38938
1.67074 -0.838418 4.37297
1.78683 -0.83888 4.41528
1.79675 -0.839448 4.4043
1.83121 -0.839903 4.40577
1.75257 -0.840354 4.35068
1.83186 -0.840963 4.37425
1.79451 -0.841525 4.33957
1.8121 -0.841964 4.33257
1.82377 -0.842462 4.32248
1.936 -0.842968 4.36264
1.85599 -0.843657 4.3063
1.89244 -0.844179 4.3085
1.93924 -0.84471 4.31583
1.93793 -0.845274 4.29903
1.89329 -0.845829 4.26056
1.90362 -0.84644 4.24944
1.96384 -0.847082 4.26318
2.0394 -0.847779 4.28446
1.98208 -0.848453 4.23932
2.05704 -0.849148 4.26025
2.06948 -0.849852 4.24988
2.08926 -0.850702 4.24284
2.08374 -0.851477 4.22329
2.04294 -0.852312 4.18593
2.08069 -0.853129 4.18786
2.04496 -0.854146 4.15259
2.1774 -0.855189 4.20131
2.10351 -0.856082 4.14715
2.20818 -0.857378 4.18134
2.2978 -0.858723 4.20785
2.12211 -0.860112 4.10156
2.35923 -0.861795 4.20094
2.38234 -0.864433 4.19106
2.31811 -0.867175 4.13717
1.58073 -0.82092 4.71599
1.49883 -0.817858 4.66418
1.62337 -0.816314 4.71366
1.53055 -0.815274 4.65383
1.46182 -0.814706 4.60543
1.4977 -0.814163 4.60932
1.54545 -0.813987 4.61865
1.51698 -0.813717 4.59
1.51572 -0.813628 4.57471
1.51644 -0.813628 4.56028
1.50407 -0.813709 4.53919
1.65788 -0.813874 4.60105
1.57477 -0.814046 4.54445
1.64777 -0.814443 4.56553
1.60503 -0.814626 4.52907
1.67295 -0.815031 4.54758
1.68259 -0.815338 4.5371
1.64707 -0.815745 4.50386
1.56952 -0.816255 4.44942
1.66784 -0.816663 4.48307
1.7428 -0.817165 4.50487
1.66099 -0.817577 4.44841
1.64873 -0.818071 4.42658
1.71727 -0.818488 4.44525
1.65647 -0.81916 4.39881
1.81324 -0.819761 4.46124
1.71643 -0.820063 4.3974
1.77959 -0.820713 4.4129
1.75973 -0.821312 4.38697
1.79913 -0.821779 4.39088
1.72635 -0.822407 4.33839
1.83031 -0.822865 4.37456
1.84276 -0.82346 4.3647
1.86865 -0.823914 4.36181
1.90242 -0.824537 4.36252
1.86764 -0.825057 4.32913
1.82783 -0.825745 4.29288
1.87735 -0.826147 4.30184
1.96358 -0.826837 4.32855
1.90678 -0.827432 4.28392
1.98368 -0.828056 4.30606
1.94128 -0.828639 4.26861
1.91149 -0.829309 4.23727
2.03419 -0.830088 4.28191
1.98144 -0.830779 4.239
1.95798 -0.831494 4.21064
1.98896 -0.832238 4.20942
2.04569 -0.833052 4.2209
2.01313 -0.833837 4.18777
2.13241 -0.834805 4.23012
2.07675 -0.835659 4.18522
2.13585 -0.836694 4.19727
2.07252 -0.837945 4.14758
2.23875 -0.838864 4.21337
2.25106 -0.840195 4.20123
2.17797 -0.84198 4.14529
2.20871 -0.843406 4.14204
2.37549 -0.845567 4.20503
2.36647 -0.849451 4.17597
1.54489 -0.802594 4.72903
1.49725 -0.798652 4.69551
1.55516 -0.796904 4.71196
1.4092 -0.795655 4.62588
1.57067 -0.79512 4.69257
1.46029 -0.794608 4.62332
1.43474 -0.794281 4.59625
1.48274 -0.794051 4.60583
1.56321 -0.793989 4.63141
1.5196 -0.79403 4.5948
1.55295 -0.794125 4.59659
1.49025 -0.794317 4.55019
1.54814 -0.794516 4.56409
1.53816 -0.794721 4.54403
1.60126 -0.795046 4.56031
1.50319 -0.795259 4.49617
1.6016 -0.795693 4.52991
1.57867 -0.796131 4.50297
1.61117 -0.796661 4.50356
1.61224 -0.797098 4.48858
1.61193 -0.79762 4.47275
1.62208 -0.798061 4.46226
1.66933 -0.7987 4.46997
1.80181 -0.79902 4.52083
1.5582 -0.799716 4.38297
1.64985 -0.800165 4.41315
1.71685 -0.800846 4.43058
1.63174 -0.801478 4.37201
1.7757 -0.801969 4.42821
1.73038 -0.802628 4.38944
1.77975 -0.803255 4.39806
1.75382 -0.803735 4.36927
1.79274 -0.804373 4.3726
1.86351 -0.805 4.39184
1.81972 -0.805471 4.35409
1.73494 -0.806081 4.29555
1.92306 -0.806686 4.37345
1.88106 -0.807209 4.33642
1.87131 -0.807891 4.31519
1.97122 -0.80834 4.34923
1.94821 -0.809024 4.32132
1.98023 -0.809647 4.32102
1.96881 -0.810299 4.29892
1.99809 -0.810983 4.29707
1.97729 -0.811665 4.27016
1.9565 -0.812348 4.24324
1.9771 -0.81317 4.23668
2.02895 -0.813923 4.24587
2.05476 -0.814606 4.24216
1.98984 -0.81553 4.19253
1.99843 -0.816363 4.17982
2.09241 -0.817365 4.2094
2.08145 -0.818399 4.18639
2.11651 -0.819459 4.1863
2.21215 -0.820746 4.21594
2.19174 -0.822078 4.1874
2.24032 -0.82345 4.19321
2.20486 -0.825278 4.15587
2.30416 -0.827861 4.18406
1.46051 -0.779659 4.70894
1.47315 -0.777694 4.70307
1.38143 -0.776474 4.64409
1.4336 -0.775549 4.65669
1.44778 -0.775227 4.64951
1.4723 -0.774762 4.6477
1.41699 -0.774564 4.60562
1.42086 -0.774423 4.59305
1.46849 -0.77436 4.60226
1.45118 -0.774467 4.57874
1.45427 -0.774683 4.56526
1.50811 -0.774677 4.57748
1.50081 -0.775131 4.55843
1.5521 -0.775365 4.56899
1.55585 -0.775703 4.55562
1.51555 -0.776161 4.52001
1.41123 -0.776407 4.45271
1.60897 -0.776872 4.53609
1.55233 -0.777547 4.4919
1.57273 -0.777883 4.48678
1.56445 -0.778553 4.46674
1.60964 -0.779086 4.47364
1.64358 -0.779556 4.47501
1.57864 -0.780274 4.42649
1.6276 -0.780747 4.43532
1.68258 -0.78145 4.44673
1.70121 -0.781929 4.44035
1.68081 -0.782619 4.41404
1.70444 -0.783279 4.40979
1.71774 -0.783783 4.40063
1.7677 -0.784621 4.40915
1.75812 -0.785275 4.38822
1.8449 -0.785767 4.41576
1.80536 -0.786414 4.37982
1.84619 -0.787053 4.38406
1.74919 -0.787553 4.31963
1.79363 -0.788184 4.32564
1.89867 -0.788919 4.36172
1.86114 -0.789551 4.32669
1.87637 -0.790095 4.3182
1.87505 -0.7907 4.30129
1.94368 -0.791334 4.31927
1.94242 -0.79201 4.30219
1.85833 -0.792674 4.2437
1.94141 -0.793349 4.26874
1.98807 -0.794042 4.27551
1.99482 -0.794821 4.26211
2.09507 -0.795556 4.29553
2.00285 -0.796453 4.23232
2.07546 -0.797272 4.25167
2.12346 -0.798243 4.25834
2.14068 -0.799087 4.24987
2.14278 -0.800114 4.23339
2.18937 -0.801357 4.23862
2.18085 -0.802437 4.21662
2.14053 -0.803753 4.17813
2.2099 -0.805107 4.19434
2.24325 -0.807158 4.19082
2.29982 -0.809718 4.19761
1.49924 -0.761818 4.75858
1.43464 -0.758746 4.71554
1.45537 -0.757555 4.71277
1.41179 -0.756406 4.67783
1.37852 -0.755949 4.64714
1.43272 -0.755267 4.66051
1.36885 -0.755128 4.61411
1.38729 -0.75484 4.60908
1.41633 -0.754829 4.60896
1.33969 -0.754827 4.55599
1.42971 -0.754946 4.58617
1.43797 -0.755079 4.57543
1.40956 -0.75533 4.54618
1.47656 -0.755586 4.56462
1.48217 -0.75607 4.55199
1.47529 -0.756336 4.53345
1.41259 -0.756825 4.48663
1.54732 -0.757176 4.53872
1.45913 -0.757667 4.47912
1.59073 -0.758367 4.52904
1.57492 -0.75892 4.50548
1.56895 -0.759412 4.48691
1.63876 -0.760107 4.50587
1.57919 -0.760649 4.46038
1.63007 -0.761339 4.46984
1.66019 -0.762061 4.46882
1.71657 -0.762561 4.48131
1.66511 -0.763271 4.43948
1.75162 -0.763955 4.46665
1.66753 -0.76465 4.40848
1.63785 -0.765333 4.37751
1.72069 -0.765846 4.40309
1.74466 -0.766688 4.39859
1.78061 -0.767352 4.40039
1.7642 -0.767869 4.37627
1.83994 -0.768657 4.39767
1.83219 -0.769326 4.37753
1.8034 -0.769852 4.34714
1.88882 -0.77049 4.3736
1.82698 -0.771214 4.32623
1.90858 -0.771828 4.35078
1.80648 -0.772467 4.2834
1.85247 -0.773084 4.29009
1.92027 -0.773729 4.30761
1.94099 -0.774396 4.30151
1.94548 -0.77507 4.28725
1.91237 -0.77588 4.25387
1.90944 -0.776549 4.23586
1.96934 -0.77742 4.24878
2.03105 -0.778088 4.26304
1.97341 -0.779035 4.21696
2.15984 -0.779838 4.29321
2.08853 -0.780832 4.24012
1.99737 -0.78203 4.17658
2.11927 -0.78291 4.22028
2.14321 -0.783976 4.21453
2.19689 -0.785662 4.22212
2.15575 -0.78701 4.18305
2.21564 -0.7888 4.19337
2.23437 -0.791318 4.18125
1.41936 -0.74555 4.74687
1.43374 -0.740918 4.74532
1.30591 -0.73881 4.66949
1.33057 -0.737681 4.66867
1.43595 -0.736595 4.70819
1.32973 -0.736183 4.64102
1.39519 -0.73592 4.65949
1.30979 -0.735545 4.60271
1.45644 -0.735309 4.66176
1.36813 -0.735323 4.60298
1.36162 -0.735344 4.58508
1.36911 -0.735374 4.57417
1.39018 -0.735643 4.56968
1.35047 -0.736054 4.53458
1.4302 -0.736335 4.55938
1.46455 -0.736842 4.56112
1.41629 -0.737132 4.52188
1.39913 -0.737644 4.49782
1.4943 -0.738007 4.53015
1.45351 -0.73852 4.49424
1.43315 -0.739243 4.46816
1.52479 -0.739962 4.49807
1.45559 -0.740322 4.44814
1.55864 -0.741039 4.48371
1.53084 -0.741787 4.45376
1.55592 -0.742306 4.45063
1.57242 -0.743207 4.44251
1.50962 -0.743748 4.39535
1.65599 -0.74464 4.45211
1.57535 -0.745173 4.396
1.72505 -0.746055 4.45438
1.69391 -0.746582 4.42298
1.68427 -0.747445 4.40167
1.69091 -0.747979 4.3891
1.68604 -0.748824 4.37014
1.73291 -0.749495 4.37737
1.75373 -0.750195 4.37148
1.76349 -0.750855 4.36012
1.8162 -0.751559 4.37011
1.80185 -0.75221 4.34666
1.80739 -0.752938 4.33297
1.77298 -0.753631 4.29935
1.82521 -0.754258 4.30915
1.94323 -0.754908 4.35178
1.90044 -0.755567 4.31396
1.9305 -0.756235 4.31252
1.8759 -0.756992 4.26853
1.87793 -0.75759 4.25317
1.90496 -0.758433 4.24974
2.05877 -0.759094 4.31008
1.94501 -0.760018 4.23601
2.00629 -0.760801 4.24975
2.04058 -0.761772 4.24951
2.07239 -0.762766 4.24796
2.048 -0.763615 4.2186
2.04349 -0.764843 4.19824
2.06878 -0.765905 4.19314
2.11679 -0.767583 4.19786
2.15297 -0.76932 4.19645
2.29547 -0.771106 4.24802
2.27493 -0.774715 4.21347
1.33853 -0.723086 4.72794
1.34606 -0.720583 4.7203
1.30631 -0.718964 4.68794
1.37848 -0.717896 4.71086
1.29317 -0.717249 4.6545
1.34402 -0.716626 4.66621
1.25069 -0.716274 4.60547
1.24648 -0.715944 4.58927
1.26092 -0.715839 4.58208
1.37818 -0.715876 4.62609
1.32093 -0.71592 4.58284
1.41871 -0.716116 4.61687
1.2638 -0.716408 4.5244
1.41082 -0.716478 4.58322
1.39705 -0.717005 4.56093
1.41784 -0.717311 4.55625
1.40155 -0.71784 4.53265
1.37471 -0.71837 4.50376
1.37553 -0.718902 4.48867
1.38605 -0.719435 4.47841
1.4891 -0.720178 4.51402
1.40685 -0.720751 4.45726
1.42894 -0.721286 4.45271
1.47323 -0.72222 4.45853
1.56711 -0.722953 4.48946
1.57015 -0.723511 4.47527
1.49085 -0.724241 4.41957
1.621 -0.724978 4.46854
1.55993 -0.725705 4.42191
1.58048 -0.726607 4.41571
1.64397 -0.727153 4.43164
1.71859 -0.728037 4.45244
1.71273 -0.728758 4.4333
1.78144 -0.729622 4.45112
1.72358 -0.730179 4.40624
1.64622 -0.731026 4.351
1.6643 -0.73186 4.34348
1.69376 -0.732527 4.34195
1.77102 -0.733242 4.3642
1.76541 -0.733964 4.34496
1.83954 -0.734695 4.36555
1.85368 -0.735409 4.35615
1.8209 -0.736036 4.32345
1.8735 -0.736735 4.33326
1.83074 -0.737442 4.29534
1.84962 -0.738093 4.28834
1.92384 -0.738781 4.30889
1.84857 -0.739542 4.25452
1.88205 -0.740268 4.25456
1.89694 -0.741048 4.24515
1.98774 -0.741955 4.27338
1.99761 -0.742758 4.26134
1.96338 -0.743729 4.22682
2.0078 -0.74472 4.23155
2.07735 -0.745568 4.24914
2.09524 -0.746598 4.24043
2.02183 -0.74822 4.18458
2.14537 -0.749517 4.22793
2.22105 -0.75124 4.24625
2.21178 -0.753412 4.2209
1.36067 -0.702516 4.75812
1.31021 -0.700515 4.72092
1.25047 -0.699214 4.67821
1.2156 -0.698332 4.64742
1.31034 -0.697723 4.68109
1.24403 -0.697139 4.63423
1.18789 -0.696823 4.59208
1.26817 -0.696529 4.61813
1.25684 -0.696436 4.59809
1.2696 -0.696409 4.59
1.27113 -0.69648 4.57615
1.2949 -0.696714 4.57316
1.38017 -0.696871 4.60103
1.30661 -0.697189 4.54923
1.26269 -0.697673 4.51196
1.35157 -0.69822 4.54097
1.41245 -0.698768 4.55596
1.30167 -0.699316 4.4851
1.46763 -0.699866 4.55258
1.39112 -0.700454 4.49873
1.4485 -0.701003 4.51188
1.4079 -0.701555 4.47601
1.53091 -0.702509 4.52121
1.49951 -0.70326 4.48952
1.48539 -0.704022 4.46643
1.53883 -0.704576 4.47746
1.55045 -0.705511 4.46686
1.52535 -0.706253 4.43821
1.56512 -0.706994 4.44198
1.59539 -0.707903 4.44064
1.6656 -0.708639 4.45956
1.59859 -0.709379 4.40985
1.63668 -0.710261 4.41236
1.70133 -0.710999 4.42841
1.73954 -0.711862 4.43096
1.6603 -0.7126 4.375
1.73247 -0.713445 4.39449
1.64106 -0.714184 4.33238
1.73989 -0.714947 4.36531
1.69644 -0.715679 4.32713
1.76406 -0.716486 4.3443
1.81861 -0.717202 4.35509
1.77873 -0.717923 4.31863
1.82917 -0.718652 4.32728
1.86846 -0.719323 4.33045
1.88695 -0.720047 4.32308
1.93214 -0.720766 4.32904
1.8694 -0.721523 4.28091
1.94628 -0.722253 4.30263
1.95944 -0.723028 4.29235
1.99253 -0.723792 4.29203
2.03228 -0.724739 4.29458
1.9893 -0.725707 4.25567
2.02261 -0.726695 4.25481
2.05681 -0.727701 4.25431
2.0607 -0.728921 4.2381
2.15401 -0.730176 4.26645
2.17542 -0.731624 4.25832
2.19003 -0.73356 4.2455
2.20179 -0.735714 4.23062
1.31975 -0.686431 4.76556
1.26153 -0.683117 4.72618
1.23426 -0.681183 4.70056
1.26946 -0.679935 4.70532
1.23808 -0.679091 4.67628
1.24004 -0.678274 4.66391
1.22987 -0.677728 4.64512
1.25911 -0.677448 4.64567
1.26425 -0.677189 4.63415
1.27342 -0.677107 4.6244
1.24169 -0.677112 4.59406
1.2421 -0.677203 4.57966
1.29168 -0.6773 4.58984
1.28072 -0.677632 4.56937
1.22196 -0.677966 4.52498
1.31312 -0.678475 4.55525
1.35915 -0.67882 4.56321
1.32008 -0.679385 4.52824
1.27395 -0.67995 4.48971
1.34336 -0.680516 4.50892
1.37389 -0.68129 4.50831
1.45064 -0.682061 4.53079
1.38924 -0.682829 4.48416
1.42582 -0.683411 4.48682
1.45654 -0.684173 4.4862
1.48299 -0.684935 4.48342
1.49191 -0.685696 4.47183
1.47872 -0.686644 4.44881
1.47018 -0.687577 4.4281
1.57471 -0.68833 4.46423
1.5055 -0.689085 4.41346
1.58018 -0.689991 4.4343
1.57612 -0.690742 4.41604
1.64698 -0.6918 4.4346
1.68199 -0.692547 4.43581
1.59368 -0.693414 4.37509
1.73979 -0.694161 4.43178
1.64858 -0.695012 4.36957
1.74534 -0.69585 4.40133
1.71151 -0.696667 4.36781
1.73686 -0.697492 4.36383
1.75008 -0.698227 4.35394
1.84167 -0.699026 4.38307
1.71583 -0.699764 4.30357
1.85867 -0.700547 4.35829
1.81425 -0.701318 4.31938
1.81496 -0.701948 4.30332
1.84127 -0.702804 4.2995
1.81728 -0.703628 4.27058
1.92766 -0.704264 4.30925
1.97019 -0.705176 4.31331
1.99084 -0.705799 4.30708
1.99752 -0.706743 4.29307
2.04655 -0.707706 4.30014
2.02369 -0.708688 4.27119
1.97012 -0.709876 4.22632
2.04011 -0.7109 4.2436
2.10113 -0.712514 4.25485
2.10139 -0.713956 4.2361
2.15107 -0.716271 4.23976
1.31591 -0.666618 4.78179
1.28294 -0.663795 4.75448
1.17959 -0.661929 4.6908
1.20168 -0.660487 4.68933
1.19218 -0.659684 4.67124
1.18395 -0.65915 4.65343
1.16701 -0.658639 4.63126
1.2309 -0.658233 4.64938
1.23936 -0.658002 4.63953
1.18511 -0.657792 4.59831
1.21654 -0.657895 4.59946
1.12378 -0.657834 4.53876
1.22384 -0.65812 4.57393
1.18831 -0.658419 4.54127
1.1988 -0.658596 4.5318
1.15219 -0.658952 4.49349
1.30035 -0.659708 4.55187
1.29002 -0.660072 4.53164
1.28177 -0.660651 4.51207
1.31338 -0.661231 4.5124
1.31042 -0.662018 4.49506
1.31623 -0.662802 4.48207
1.42204 -0.663582 4.51905
1.30004 -0.66436 4.4421
1.38006 -0.665136 4.46613
1.42746 -0.666103 4.47346
1.454 -0.667057 4.47034
1.57185 -0.667822 4.51319
1.49454 -0.668587 4.45844
1.46659 -0.669534 4.42797
1.56229 -0.670452 4.45934
1.50561 -0.671387 4.41445
1.59768 -0.672147 4.44425
1.62581 -0.673081 4.44169
1.5156 -0.673965 4.37002
1.67374 -0.67489 4.4324
1.56436 -0.675754 4.36111
1.69427 -0.676671 4.40931
1.69512 -0.677518 4.3931
1.63553 -0.678429 4.34649
1.75475 -0.679257 4.38942
1.70378 -0.680074 4.34725
1.78476 -0.680881 4.37104
1.80954 -0.681676 4.36672
1.81691 -0.682531 4.35352
1.74939 -0.683205 4.30326
1.8967 -0.68409 4.3599
1.83506 -0.684849 4.31231
1.96106 -0.685608 4.35851
1.91868 -0.686302 4.32065
1.87678 -0.68721 4.28247
1.93657 -0.688139 4.29506
1.95583 -0.688768 4.28807
1.95914 -0.689725 4.27227
1.93159 -0.690701 4.24095
2.0982 -0.692037 4.30576
2.14174 -0.69325 4.30928
2.11134 -0.694649 4.27531
2.12839 -0.696291 4.26438
2.17909 -0.69897 4.26749
1.16977 -0.647292 4.72629
1.21384 -0.644555 4.73746
1.17846 -0.642866 4.7076
1.09357 -0.641714 4.6523
1.13282 -0.640699 4.65894
1.08187 -0.639953 4.62013
1.19787 -0.639473 4.66445
1.13742 -0.639017 4.62052
1.09342 -0.638882 4.58436
1.11212 -0.638698 4.57963
1.13144 -0.638586 4.57511
1.19016 -0.638711 4.58991
1.18384 -0.638843 4.57218
1.16347 -0.638981 4.54741
1.17102 -0.639529 4.53592
1.19823 -0.639898 4.53453
1.22491 -0.640271 4.53286
1.17961 -0.640647 4.49517
1.17723 -0.641448 4.47819
1.25183 -0.642226 4.4997
1.26483 -0.642816 4.49072
1.23091 -0.643609 4.45788
1.36624 -0.644399 4.50964
1.35686 -0.645186 4.48901
1.28944 -0.645971 4.43933
1.3314 -0.646946 4.44394
1.39202 -0.647915 4.45786
1.47317 -0.648879 4.482
1.40701 -0.649838 4.43246
1.5564 -0.650793 4.49066
1.4256 -0.651713 4.40878
1.46925 -0.652656 4.41405
1.48788 -0.653597 4.40676
1.52131 -0.654537 4.40684
1.63527 -0.655587 4.44691
1.59476 -0.656516 4.40995
1.6052 -0.657381 4.39857
1.65936 -0.658303 4.40888
1.74411 -0.659225 4.43444
1.71212 -0.660139 4.40161
1.74056 -0.660964 4.39916
1.73353 -0.661864 4.37876
1.72627 -0.662671 4.35841
1.70884 -0.663567 4.33275
1.88382 -0.664464 4.40324
1.81577 -0.665249 4.35244
1.84168 -0.666143 4.34833
1.84213 -0.666911 4.33175
2.01064 -0.667676 4.39917
1.93229 -0.66843 4.34315
1.98085 -0.669268 4.35035
1.92903 -0.670191 4.30711
1.96295 -0.671133 4.30665
1.99092 -0.672091 4.30314
1.98663 -0.673065 4.28341
2.04821 -0.674246 4.29604
2.15305 -0.675609 4.32978
2.09064 -0.677209 4.27921
2.1245 -0.67922 4.27563
1.14267 -0.628665 4.72942
1.13478 -0.625755 4.71493
0.971912 -0.624115 4.62132
1.1292 -0.623097 4.68699
1.09968 -0.621783 4.65972
1.13698 -0.621069 4.66505
1.10168 -0.620616 4.63373
1.02364 -0.62025 4.58093
1.06787 -0.619837 4.58935
1.02311 -0.619677 4.55291
1.09717 -0.619582 4.57578
1.04281 -0.619496 4.53443
1.0876 -0.619642 4.54228
1.16914 -0.619793 4.5685
1.12277 -0.620141 4.53043
1.13628 -0.620523 4.52222
1.09319 -0.620908 4.48569
1.1669 -0.6217 4.50683
1.15931 -0.622091 4.488
1.1779 -0.622691 4.48187
1.17209 -0.623494 4.46313
1.25893 -0.624492 4.49034
1.37675 -0.625289 4.53336
1.31458 -0.626082 4.48635
1.34178 -0.626874 4.484
1.3983 -0.627854 4.4959
1.31829 -0.628827 4.43951
1.28791 -0.62998 4.40754
1.37558 -0.630941 4.43492
1.42404 -0.631899 4.44266
1.41906 -0.632852 4.42364
1.44828 -0.633977 4.42133
1.47707 -0.634923 4.41912
1.47989 -0.635986 4.40364
1.56312 -0.637086 4.42823
1.52643 -0.638018 4.39317
1.62735 -0.638951 4.42687
1.57364 -0.639967 4.38304
1.63608 -0.640891 4.39743
1.61857 -0.641884 4.37166
1.79415 -0.642801 4.44255
1.76881 -0.64372 4.41294
1.76664 -0.64458 4.395
1.74184 -0.645485 4.36561
1.81005 -0.64628 4.38294
1.78551 -0.647182 4.3536
1.81313 -0.648213 4.34999
1.86031 -0.649119 4.35642
1.92643 -0.649885 4.37261
1.72298 -0.650785 4.25366
1.89777 -0.651686 4.32378
1.93357 -0.652577 4.32439
1.98629 -0.653518 4.33329
1.97603 -0.654474 4.31062
1.97876 -0.655445 4.29436
2.0928 -0.656773 4.33279
1.97379 -0.657975 4.25495
2.06725 -0.659923 4.28132
1.1719 -0.609853 4.76102
1.13313 -0.607609 4.73025
1.20303 -0.605765 4.75336
1.06817 -0.604448 4.67343
1.07639 -0.603254 4.66493
1.03075 -0.602563 4.62881
1.02962 -0.601896 4.61494
1.14709 -0.601257 4.66036
0.981139 -0.600922 4.56363
1.03528 -0.600781 4.57667
0.997539 -0.600434 4.54409
1.08093 -0.600587 4.57129
1.00939 -0.600525 4.52137
0.977841 -0.60069 4.49107
1.06054 -0.60086 4.51788
1.08649 -0.601233 4.51596
1.14797 -0.601628 4.53174
1.17568 -0.602026 4.53062
1.20093 -0.602833 4.52752
1.20157 -0.60344 4.51244
1.16802 -0.604249 4.47987
1.17355 -0.605055 4.4668
1.18182 -0.605858 4.45507
1.22402 -0.607045 4.45954
1.25204 -0.60785 4.4576
1.26686 -0.608832 4.44867
1.27528 -0.609808 4.43651
1.25605 -0.610961 4.41013
1.42061 -0.612105 4.4756
1.38172 -0.613061 4.43968
1.40512 -0.61419 4.4345
1.40788 -0.61531 4.41897
1.4671 -0.616303 4.43188
1.46744 -0.617363 4.41516
1.53396 -0.618465 4.43138
1.5418 -0.619563 4.41823
1.60023 -0.620496 4.43068
1.57227 -0.621587 4.39955
1.71708 -0.622591 4.45494
1.58082 -0.623581 4.36978
1.69577 -0.624556 4.41021
1.731 -0.625562 4.41066
1.6917 -0.626519 4.37392
1.73983 -0.62743 4.38096
1.86455 -0.628479 4.42591
1.80558 -0.62927 4.3796
1.75931 -0.630178 4.33931
1.85328 -0.631216 4.36878
1.86467 -0.632126 4.35722
1.90837 -0.633038 4.36178
1.93688 -0.633794 4.35909
1.9018 -0.634702 4.32418
1.97027 -0.635921 4.3402
1.98892 -0.636872 4.33196
2.02915 -0.637836 4.33442
2.0001 -0.639499 4.30034
2.05894 -0.641049 4.31042
2.12804 -0.643925 4.32198
1.10084 -0.592286 4.74082
1.09931 -0.589267 4.7298
1.06486 -0.587704 4.7004
0.977167 -0.585949 4.64474
1.05638 -0.58502 4.6714
1.01703 -0.584117 4.63879
0.970907 -0.583243 4.60279
1.00924 -0.582626 4.60867
0.994376 -0.582036 4.58794
0.922413 -0.581956 4.53788
1.04508 -0.58163 4.58553
0.976022 -0.581572 4.5369
1.07418 -0.581499 4.57191
1.01917 -0.581677 4.52991
1.03167 -0.58166 4.52199
1.08795 -0.582046 4.53526
0.981093 -0.582239 4.46729
0.998375 -0.582848 4.46063
1.01823 -0.583256 4.45559
1.09534 -0.584076 4.47841
1.1265 -0.584688 4.4786
1.19811 -0.585705 4.49822
1.15905 -0.586511 4.46286
1.16876 -0.587713 4.45108
1.24189 -0.58851 4.47174
1.21672 -0.58968 4.44248
1.28635 -0.590679 4.4609
1.32413 -0.59165 4.46341
1.24955 -0.592976 4.40896
1.38341 -0.594148 4.45898
1.3667 -0.595278 4.43375
1.39998 -0.596401 4.43348
1.4223 -0.597517 4.42768
1.43939 -0.598793 4.41887
1.48568 -0.599895 4.42498
1.51939 -0.600992 4.42475
1.57446 -0.602084 4.43517
1.56929 -0.603172 4.41542
1.55586 -0.604326 4.39133
1.64207 -0.605311 4.4174
1.64083 -0.606373 4.39952
1.61419 -0.607431 4.36889
1.69594 -0.608487 4.39241
1.74687 -0.60929 4.40108
1.75439 -0.610336 4.38742
1.84392 -0.611378 4.41472
1.78924 -0.612288 4.37019
1.75232 -0.613327 4.33417
1.80519 -0.614239 4.34332
1.8297 -0.615274 4.33793
1.84737 -0.616187 4.32938
1.93321 -0.617385 4.35413
1.98777 -0.618336 4.36383
1.95977 -0.619609 4.33135
2.0474 -0.620569 4.35747
2.05464 -0.622421 4.34092
2.1065 -0.624665 4.34553
1.1003 -0.574398 4.75634
0.989893 -0.57145 4.69085
1.03454 -0.569457 4.70167
0.937004 -0.567746 4.64109
0.998097 -0.566842 4.65871
0.963835 -0.565736 4.629
0.929621 -0.564888 4.59898
0.821049 -0.564069 4.53177
0.969592 -0.563762 4.59236
0.894007 -0.563211 4.54129
0.912948 -0.562932 4.53706
0.955422 -0.562857 4.54428
0.97378 -0.562603 4.53974
0.995769 -0.562573 4.53665
0.958122 -0.562752 4.50338
0.914667 -0.562945 4.46717
0.946186 -0.56315 4.46842
1.07666 -0.563562 4.51876
1.03718 -0.563977 4.4841
1.02028 -0.564802 4.45994
1.10343 -0.56522 4.48654
1.17211 -0.566241 4.50473
1.11452 -0.567258 4.45974
1.20182 -0.56787 4.48794
1.14043 -0.569071 4.44059
1.22899 -0.570239 4.46822
1.20286 -0.571424 4.43842
1.2941 -0.572753 4.46694
1.3272 -0.573748 4.46703
1.34467 -0.575057 4.45858
1.37587 -0.576396 4.45687
1.39357 -0.577513 4.44882
1.39926 -0.578792 4.43436
1.37415 -0.580059 4.40446
1.48224 -0.581216 4.44134
1.48277 -0.582471 4.42416
1.56574 -0.583644 4.44833
1.56048 -0.5848 4.42837
1.5647 -0.585947 4.4131
1.53553 -0.587076 4.38112
1.66403 -0.588132 4.4281
1.61672 -0.589186 4.38713
1.63838 -0.590237 4.38059
1.73469 -0.591285 4.41134
1.74332 -0.592331 4.39819
1.85869 -0.593375 4.43837
1.74279 -0.594415 4.36287
1.90008 -0.595594 4.42356
1.82304 -0.596635 4.36738
1.94432 -0.597674 4.41031
1.8528 -0.598871 4.34637
1.93601 -0.599907 4.37017
1.87644 -0.600825 4.32285
2.02121 -0.602351 4.37599
2.046 -0.603973 4.36881
2.08768 -0.606362 4.36787
1.09489 -0.557677 4.76783
1.04856 -0.553993 4.73547
1.0592 -0.551499 4.73006
0.941598 -0.550129 4.65901
0.892377 -0.548499 4.6226
0.927469 -0.547648 4.62725
0.891214 -0.546873 4.59614
0.89381 -0.54607 4.58455
0.944726 -0.545296 4.59712
0.910177 -0.545014 4.56619
0.87038 -0.544502 4.53303
0.904695 -0.544246 4.53652
0.968341 -0.543988 4.55469
0.930148 -0.543968 4.52155
0.840688 -0.543951 4.46276
0.971485 -0.543949 4.51408
0.949638 -0.543951 4.48908
1.00067 -0.544371 4.49974
0.966383 -0.544799 4.4677
1.00324 -0.545221 4.47123
1.02053 -0.545855 4.46455
0.944485 -0.546686 4.41078
0.937441 -0.547304 4.39189
1.05987 -0.548322 4.43691
1.08265 -0.549522 4.43168
1.09338 -0.550714 4.42038
1.08868 -0.552081 4.40094
1.24064 -0.553225 4.46023
1.26396 -0.554396 4.45508
1.26603 -0.555913 4.4385
