ply
format ascii 1.0
comment Created by Open3D
element vertex 1878
property double x
property double y
property double z
end_header
0.695282 2.08473 5.0508
0.707888 2.08608 5.04277
0.721277 2.08759 5.03508
0.732755 2.08872 5.02649
0.747435 2.09047 5.01937
0.762775 2.09235 5.01253
0.778731 2.09435 5.00596
0.798948 2.09717 5.00133
0.820127 2.10018 4.99711
0.842088 2.10334 4.99321
0.873345 2.10829 4.99353
0.914691 2.1152 4.99841
-0.0712171 1.66812 1.29982
-0.0985062 1.66278 1.28664
-0.115642 1.65915 1.27483
-0.131277 1.65577 1.26325
-0.143111 1.65303 1.2522
-0.153431 1.65055 1.24137
-0.158993 1.64887 1.23116
-0.169009 1.64644 1.22041
-0.173679 1.64491 1.21036
-0.182826 1.64263 1.19977
-0.186865 1.64121 1.18983
-0.19062 1.63984 1.17994
-0.194436 1.63846 1.17006
-0.197572 1.6372 1.16028
-0.200374 1.63599 1.15055
-0.203183 1.63478 1.14083
-0.205272 1.63369 1.13121
-0.206981 1.63267 1.12164
-0.208298 1.63171 1.11214
-0.20921 1.63082 1.10268
-0.210062 1.62994 1.09325
-0.210133 1.62919 1.08391
-0.209766 1.62852 1.07463
-0.207208 1.62821 1.06559
-0.20617 1.62765 1.0564
-0.204673 1.62716 1.04726
-0.202712 1.62676 1.03817
-0.200279 1.62643 1.02914
-0.197372 1.62618 1.02016
-0.193986 1.62601 1.01123
-0.190117 1.62592 1.00236
-0.185797 1.6259 0.993529
-0.181203 1.62594 0.984728
-0.176124 1.62605 0.975975
-0.170562 1.62624 0.967268
-0.164518 1.62651 0.958607
-0.157994 1.62686 0.949988
-0.150603 1.62735 0.941448
-0.143132 1.62785 0.93291
-0.133263 1.62875 0.924592
-0.124643 1.62945 0.916147
-0.112676 1.63069 0.908001
-0.100151 1.63203 0.899892
-0.0866948 1.63352 0.891852
-0.0684178 1.6358 0.884225
-0.0486512 1.63832 0.876702
-0.0189482 1.64248 0.870017
0.640755 2.12083 5.40598
0.622175 2.116 5.38226
0.608511 2.11214 5.36109
0.600476 2.10941 5.34281
0.593058 2.10681 5.32487
0.589654 2.105 5.30899
0.587316 2.10341 5.29366
0.585313 2.10189 5.27852
0.584435 2.1006 5.26396
0.584333 2.09945 5.2498
0.586367 2.09874 5.23671
0.587631 2.09787 5.22325
0.590931 2.0974 5.21081
0.593615 2.09682 5.19807
0.59787 2.09654 5.18611
0.602023 2.09625 5.1741
0.60726 2.09617 5.16262
0.612894 2.09617 5.15134
0.618805 2.09622 5.14019
0.625029 2.09634 5.12919
0.631875 2.09658 5.11849
0.639087 2.09689 5.10796
0.646667 2.09727 5.0976
0.655216 2.09784 5.0877
0.663942 2.09845 5.07788
0.672839 2.09908 5.06813
0.682088 2.09979 5.05854
0.693571 2.10094 5.05
0.703705 2.10182 5.0408
0.716535 2.10323 5.03286
0.730138 2.10478 5.02526
0.741649 2.10593 5.01666
0.75648 2.10773 5.0096
0.771956 2.10965 5.00281
0.788034 2.11168 4.99627
0.808445 2.11456 4.99171
0.825747 2.11684 4.98568
0.851796 2.12081 4.98364
0.883139 2.12582 4.98396
0.933546 2.13454 4.99293
-0.0152572 1.69161 1.31685
-0.0698889 1.68159 1.3
-0.0976419 1.67612 1.28675
-0.114386 1.67253 1.27499
-0.130852 1.66898 1.26331
-0.141901 1.66635 1.25235
-0.152628 1.66378 1.24147
-0.161683 1.6615 1.23082
-0.167843 1.6597 1.22056
-0.172503 1.65816 1.2105
-0.181678 1.65586 1.19991
-0.185707 1.65443 1.18997
-0.189856 1.65299 1.18004
-0.193302 1.65166 1.1702
-0.196429 1.65038 1.16041
-0.19962 1.6491 1.15064
-0.202065 1.64794 1.14096
-0.204145 1.64684 1.13134
-0.206239 1.64575 1.12173
-0.20755 1.64478 1.11222
-0.208457 1.64389 1.10277
-0.208946 1.64306 1.09337
-0.209009 1.64231 1.08403
-0.208634 1.64163 1.07475
-0.206466 1.64126 1.06567
-0.205423 1.64069 1.05648
-0.203921 1.6402 1.04734
-0.201955 1.63979 1.03825
-0.199518 1.63946 1.02922
-0.196606 1.63921 1.02024
-0.193215 1.63904 1.01131
-0.189342 1.63895 1.00244
-0.18502 1.63894 0.993608
-0.180422 1.63897 0.984807
-0.175339 1.63908 0.976053
-0.169773 1.63927 0.967346
-0.163304 1.63962 0.958725
-0.156775 1.63997 0.950106
-0.149771 1.6404 0.941528
-0.142296 1.64091 0.932989
-0.132424 1.64182 0.92467
-0.123801 1.64252 0.916225
-0.111796 1.64378 0.908082
-0.0992694 1.64513 0.899973
-0.0853429 1.6467 0.891974
-0.0674976 1.64893 0.884306
-0.0476959 1.65148 0.876786
-0.01796 1.65568 0.870103
0.667928 2.14299 5.41978
0.635332 2.1353 5.38892
0.621317 2.13134 5.36756
0.608583 2.12765 5.34689
0.600617 2.12491 5.32867
0.597125 2.12308 5.31273
0.591124 2.12074 5.29556
0.589203 2.11922 5.28046
0.587687 2.11779 5.26557
0.589317 2.11698 5.25227
0.589429 2.11587 5.23823
0.591638 2.11519 5.22523
0.593133 2.11436 5.21189
0.596578 2.11392 5.19953
0.599506 2.11338 5.18691
0.603915 2.11313 5.17502
0.608715 2.11297 5.16333
0.613909 2.11288 5.15183
0.619498 2.11287 5.14052
0.625486 2.11294 5.12941
0.631872 2.11308 5.11849
0.638665 2.11331 5.10776
0.646181 2.11368 5.09737
0.653886 2.11409 5.08707
0.661955 2.11457 5.07694
0.671581 2.11536 5.06753
0.6806 2.11603 5.05784
0.690049 2.11678 5.04833
0.701696 2.11797 5.03985
0.711996 2.11889 5.03073
0.725047 2.12035 5.02288
0.738862 2.12196 5.01536
0.750403 2.12312 5.00677
0.76538 2.12496 4.99975
0.780989 2.12692 4.99301
0.797183 2.12899 4.98651
0.817753 2.13193 4.982
0.839177 2.13503 4.97784
0.861324 2.13826 4.97397
0.897176 2.1442 4.97632
-0.0241627 1.70341 1.31567
-0.073663 1.69418 1.2995
-0.09576 1.68964 1.287
-0.113013 1.68593 1.27517
-0.129498 1.68235 1.26348
-0.140572 1.6797 1.25252
-0.151323 1.67711 1.24163
-0.161229 1.67466 1.23088
-0.166552 1.67299 1.22072
-0.175668 1.67068 1.21011
-0.180403 1.66912 1.20007
-0.184864 1.6676 1.19008
-0.188602 1.66621 1.18019
-0.192038 1.66488 1.17035
-0.195594 1.66352 1.16051
-0.198379 1.66229 1.15078
-0.200814 1.66113 1.14111
-0.203319 1.65995 1.13143
-0.205013 1.65891 1.12187
-0.206315 1.65794 1.11236
-0.207212 1.65704 1.10291
-0.208126 1.65614 1.09346
-0.208182 1.65538 1.08413
-0.207801 1.6547 1.07484
-0.205236 1.65439 1.06581
-0.204184 1.65382 1.05661
-0.202674 1.65333 1.04747
-0.200699 1.65292 1.03838
-0.198255 1.65259 1.02935
-0.195335 1.65233 1.02037
-0.191937 1.65216 1.01144
-0.188057 1.65207 1.00257
-0.18373 1.65206 0.993738
-0.179125 1.65209 0.984937
-0.174037 1.65221 0.976183
-0.168464 1.6524 0.967475
-0.16241 1.65268 0.958812
-0.155878 1.65303 0.950192
-0.14887 1.65347 0.941614
-0.141392 1.65398 0.933075
-0.131036 1.65498 0.9248
-0.12241 1.65569 0.916354
-0.110848 1.65688 0.908169
-0.0983186 1.65824 0.900059
-0.0843555 1.65984 0.892063
-0.0665085 1.66208 0.884395
-0.0466716 1.66466 0.876877
-0.0125122 1.66962 0.870578
0.657555 2.15648 5.40019
0.634446 2.15065 5.3742
0.620547 2.14669 5.35292
0.608705 2.14315 5.33274
0.604426 2.14114 5.31639
0.597811 2.13866 5.29891
0.59537 2.13702 5.28353
0.593636 2.13553 5.26853
0.592362 2.13413 5.25378
0.594117 2.13335 5.24055
0.594449 2.13228 5.22662
0.597095 2.13167 5.21384
0.598813 2.13088 5.20062
0.602161 2.13042 5.18821
0.605559 2.12997 5.17583
0.610113 2.12975 5.16401
0.615061 2.12961 5.15239
0.620312 2.12954 5.14092
0.626134 2.12957 5.12972
0.632229 2.12966 5.11866
0.638695 2.12983 5.10777
0.64553 2.13007 5.09706
0.653227 2.13048 5.08675
0.661058 2.13092 5.07651
0.669252 2.13142 5.06643
0.679255 2.13229 5.0572
0.688376 2.13299 5.04754
0.697844 2.13375 5.03804
0.709806 2.13501 5.0297
0.720144 2.13594 5.02058
0.733416 2.13746 5.01282
0.744558 2.13855 5.00405
0.759016 2.1403 4.9968
0.774134 2.14217 4.98984
0.78987 2.14417 4.98313
0.806176 2.14628 4.97667
0.823003 2.1485 4.97041
0.848437 2.15241 4.96807
0.874962 2.15654 4.96618
0.906594 2.16168 4.96655
-0.0331377 1.71517 1.31449
-0.0721048 1.70769 1.29971
-0.0988792 1.70231 1.28659
-0.116153 1.69856 1.27476
-0.128025 1.69575 1.26367
-0.139122 1.69307 1.25271
-0.149897 1.69045 1.24181
-0.16028 1.6879 1.231
-0.165138 1.68631 1.2209
-0.174727 1.6839 1.21023
-0.179001 1.6824 1.20024
-0.183493 1.68087 1.19024
-0.18722 1.67947 1.18035
-0.191123 1.67804 1.17046
-0.194232 1.67675 1.16067
-0.197479 1.67543 1.15089
-0.199906 1.67426 1.14121
-0.201969 1.67315 1.13159
-0.203652 1.67211 1.12203
-0.205416 1.67105 1.11246
-0.206305 1.67014 1.10301
-0.206779 1.66931 1.09362
-0.206825 1.66855 1.08428
-0.206906 1.66778 1.07494
-0.204337 1.66747 1.0659
-0.203279 1.66689 1.05671
-0.201763 1.6664 1.04757
-0.199782 1.66599 1.03848
-0.197332 1.66565 1.02945
-0.194407 1.6654 1.02047
-0.191003 1.66523 1.01154
-0.187118 1.66514 1.00266
-0.182789 1.66513 0.993834
-0.178179 1.66516 0.985031
-0.173085 1.66528 0.976277
-0.167508 1.66547 0.967569
-0.16145 1.66575 0.958906
-0.154914 1.66611 0.950285
-0.147903 1.66655 0.941706
-0.13991 1.66716 0.933215
-0.130027 1.66808 0.924895
-0.121397 1.66879 0.916448
-0.109832 1.67 0.908262
-0.0967637 1.67146 0.9002
-0.0832994 1.67298 0.892158
-0.0648956 1.67534 0.884538
-0.0410732 1.6786 0.87737
-0.0107987 1.68296 0.870728
0.702781 2.18242 5.4231
0.647538 2.16999 5.38081
0.62939 2.16513 5.35738
0.620188 2.1621 5.33851
0.608604 2.15858 5.31849
0.605011 2.1567 5.30251
0.601783 2.15489 5.28673
0.599522 2.15328 5.27146
0.597981 2.15182 5.25657
0.596954 2.15046 5.24195
0.596972 2.14932 5.22786
0.599396 2.14867 5.21498
0.600788 2.1478 5.20159
0.604142 2.14734 5.18918
0.607876 2.14695 5.17696
0.611292 2.1465 5.16458
0.616005 2.14631 5.15285
0.621112 2.14621 5.14131
0.626617 2.14618 5.12996
0.63241 2.14621 5.11875
0.638632 2.14633 5.10774
0.645225 2.14652 5.09691
0.652188 2.14678 5.08626
0.659521 2.14712 5.07578
0.668247 2.14774 5.06595
0.676548 2.14828 5.05592
0.685208 2.14888 5.04605
0.694221 2.14956 5.03633
0.705581 2.15071 5.02771
0.715493 2.15156 5.0184
0.728177 2.15297 5.01037
0.738956 2.154 5.00144
0.752877 2.15566 4.99395
0.767486 2.15745 4.98676
0.779413 2.1587 4.9783
0.795065 2.1607 4.97155
0.81501 2.16355 4.96674
0.831924 2.1658 4.96051
0.857521 2.16977 4.95821
0.884152 2.17395 4.95633
0.920306 2.18003 4.95873
-0.0409294 1.72712 1.31346
-0.0756449 1.72031 1.29924
-0.098324 1.7156 1.28667
-0.115066 1.71192 1.27491
-0.126435 1.70917 1.26387
-0.137553 1.70647 1.2529
-0.148349 1.70383 1.24201
-0.158755 1.70125 1.23119
-0.1636 1.69964 1.22109
-0.173212 1.69721 1.21042
-0.177996 1.69562 1.20036
-0.181995 1.69416 1.19042
-0.186227 1.69266 1.18047
-0.19293 1.69074 1.17024
-0.196384 1.68937 1.16042
-0.199489 1.68807 1.15065
-0.2012 1.68702 1.14106
-0.200994 1.68629 1.1317
-0.20267 1.68524 1.12214
-0.203953 1.68426 1.11263
-0.204832 1.68334 1.10318
-0.205805 1.68242 1.09372
-0.205844 1.68165 1.08438
-0.205446 1.68096 1.0751
-0.204082 1.68044 1.06593
-0.201804 1.68007 1.05687
-0.200278 1.67957 1.04773
-0.198802 1.67907 1.03858
-0.196345 1.67873 1.02955
-0.193414 1.67848 1.02057
-0.190004 1.67831 1.01164
-0.186114 1.67822 1.00277
-0.181782 1.67821 0.993935
-0.177166 1.67824 0.985133
-0.172068 1.67836 0.976378
-0.166486 1.67856 0.96767
-0.160424 1.67884 0.959006
-0.153342 1.6793 0.950437
-0.146324 1.67974 0.941857
-0.137128 1.68055 0.933479
-0.128949 1.68119 0.924996
-0.118043 1.6823 0.916759
-0.108179 1.68322 0.908414
-0.0956414 1.6846 0.900302
-0.0783754 1.68679 0.892601
-0.0637343 1.68852 0.884642
-0.039877 1.69182 0.877475
-0.00511356 1.69697 0.871223
0.669674 2.19123 5.392
0.641975 2.18437 5.36372
0.632131 2.18118 5.34451
0.619873 2.1775 5.32414
0.612109 2.17474 5.30605
0.608671 2.17288 5.29017
0.602922 2.17054 5.27315
0.603582 2.16952 5.25935
0.602241 2.16809 5.24456
0.601669 2.16681 5.23018
0.603486 2.16603 5.21699
0.604272 2.16504 5.2033
0.607205 2.16448 5.19068
0.609408 2.16378 5.1777
0.613296 2.16342 5.16556
0.617573 2.16314 5.15361
0.621966 2.16289 5.14172
0.627225 2.16281 5.13025
0.632772 2.16279 5.11892
0.638731 2.16286 5.10779
0.644813 2.16295 5.09672
0.651291 2.16312 5.08583
0.658799 2.16349 5.07543
0.666261 2.16386 5.06501
0.67409 2.16431 5.05475
0.683707 2.16511 5.04534
0.69248 2.16574 5.03551
0.701597 2.16645 5.02584
0.713151 2.16764 5.0173
0.723203 2.16853 5.00805
0.733527 2.16947 4.99891
0.746876 2.17103 4.99116
0.76094 2.17272 4.98373
0.772627 2.17394 4.97517
0.787799 2.17585 4.9682
0.803573 2.17789 4.96149
0.8199 2.18003 4.955
0.840678 2.18307 4.95052
0.862243 2.18627 4.94636
0.893149 2.19134 4.94639
0.92932 2.19746 4.94875
-0.0447756 1.73973 1.31296
-0.078441 1.73306 1.29888
-0.096582 1.7291 1.28689
-0.113338 1.72539 1.27513
-0.129771 1.72174 1.26345
-0.140809 1.71903 1.25249
-0.146681 1.71722 1.24222
-0.157107 1.71463 1.23139
-0.166505 1.71221 1.22073
-0.171572 1.71055 1.21062
-0.176384 1.70894 1.20056
-0.18037 1.70747 1.19062
-0.188595 1.70527 1.18019
-0.192391 1.70383 1.17031
-0.195312 1.70256 1.16055
-0.197891 1.70134 1.15084
-0.200663 1.70009 1.14112
-0.202516 1.699 1.13153
-0.201084 1.69848 1.12232
-0.202903 1.69739 1.11275
-0.203773 1.69648 1.1033
-0.204228 1.69563 1.0939
-0.204255 1.69486 1.08456
-0.204395 1.69407 1.07522
-0.203545 1.69346 1.06599
-0.200741 1.69318 1.05698
-0.199208 1.69268 1.04784
-0.197211 1.69226 1.03875
-0.194745 1.69192 1.02972
-0.191804 1.69167 1.02074
-0.188385 1.6915 1.01181
-0.184485 1.69141 1.00293
-0.180148 1.6914 0.994101
-0.175524 1.69143 0.985298
-0.170417 1.69155 0.976542
-0.164828 1.69176 0.967833
-0.158758 1.69204 0.959168
-0.15221 1.69241 0.950546
-0.145188 1.69286 0.941966
-0.135986 1.69368 0.933587
-0.127803 1.69432 0.925103
-0.116292 1.69554 0.916921
-0.106991 1.69638 0.908523
-0.0944506 1.69777 0.900411
-0.0771471 1.69997 0.892711
-0.0589175 1.70234 0.88507
-0.0386121 1.70505 0.877587
-0.00381777 1.71024 0.871336
0.663428 2.20548 5.37454
0.640796 2.19962 5.34887
0.627697 2.19574 5.32806
0.622803 2.19355 5.3114
0.615505 2.19088 5.29357
0.612031 2.18899 5.27768
0.606779 2.18674 5.26093
0.607554 2.18573 5.24719
0.606419 2.18433 5.23252
0.606064 2.18309 5.21826
0.608059 2.18234 5.20516
0.609219 2.18142 5.19166
0.612161 2.18086 5.17905
0.61473 2.18023 5.16626
0.618764 2.1799 5.15419
0.62319 2.17965 5.14231
0.62771 2.17942 5.13048
0.633201 2.17939 5.11913
0.63885 2.17939 5.10785
0.644744 2.17944 5.09668
0.650941 2.17956 5.08566
0.65755 2.17975 5.07484
0.664531 2.18003 5.06419
0.67291 2.18059 5.05419
0.680875 2.18106 5.044
0.68923 2.18161 5.03398
0.697907 2.18223 5.02411
0.708844 2.18331 5.01529
0.718503 2.18413 5.00585
0.728415 2.18499 4.99653
0.741195 2.18644 4.98852
0.754713 2.18804 4.98084
0.766059 2.1892 4.97214
0.780731 2.19103 4.96495
0.796036 2.19298 4.95803
0.811926 2.19506 4.95135
0.828352 2.19724 4.94489
0.849262 2.20032 4.94045
0.870923 2.20356 4.9363
0.901948 2.20869 4.93636
0.942652 2.21577 4.94072
-0.0485843 1.75234 1.31245
-0.0810206 1.74583 1.29854
-0.0999057 1.74171 1.28646
-0.116607 1.73798 1.27471
-0.128562 1.73509 1.2636
-0.139613 1.73236 1.25264
-0.150319 1.72969 1.24176
-0.155337 1.72803 1.23161
-0.165325 1.72549 1.22087
-0.170409 1.72381 1.21076
-0.174647 1.72229 1.20077
-0.183324 1.71999 1.19026
-0.186864 1.71859 1.1804
-0.190689 1.71714 1.17051
-0.193596 1.71585 1.16075
-0.196752 1.71452 1.15097
-0.198963 1.71336 1.14132
-0.201389 1.71216 1.13166
-0.202847 1.71113 1.12212
-0.201214 1.71065 1.11294
-0.202071 1.70972 1.10349
-0.2031 1.70877 1.09403
-0.203119 1.708 1.08469
-0.202702 1.7073 1.0754
-0.20184 1.70668 1.06618
-0.200524 1.70614 1.05701
-0.198076 1.7058 1.04796
-0.196071 1.70538 1.03887
-0.193597 1.70504 1.02984
-0.190649 1.70478 1.02086
-0.187224 1.70461 1.01193
-0.183317 1.70453 1.00305
-0.178977 1.70451 0.994219
-0.174347 1.70455 0.985416
-0.169235 1.70467 0.97666
-0.16364 1.70488 0.96795
-0.157564 1.70516 0.959284
-0.151011 1.70553 0.950662
-0.143985 1.70599 0.942081
-0.134777 1.70682 0.933701
-0.125957 1.70758 0.925276
-0.11504 1.7087 0.917038
-0.103135 1.70999 0.908877
-0.089623 1.71156 0.900849
-0.0758502 1.71317 0.892828
-0.0569435 1.71567 0.885246
-0.0325729 1.71911 0.878119
0.0027744 1.72443 0.871911
0.689964 2.22772 5.38791
0.661662 2.22063 5.35936
0.64344 2.21565 5.33595
0.630596 2.21179 5.3153
0.622542 2.20894 5.29708
0.618796 2.20698 5.28105
0.615534 2.20512 5.26527
0.610545 2.20291 5.24867
0.609115 2.20144 5.23385
0.610516 2.20056 5.22045
0.610385 2.19936 5.2063
0.612672 2.19866 5.19335
0.613921 2.19775 5.17991
0.617143 2.19725 5.16743
0.619837 2.19664 5.15471
0.62403 2.19634 5.14272
0.628618 2.19612 5.13092
0.633642 2.19599 5.11934
0.639017 2.19594 5.10793
0.644684 2.19594 5.09665
0.650438 2.19596 5.08542
0.656978 2.19615 5.07457
0.663726 2.19638 5.0638
0.67082 2.19668 5.0532
0.678356 2.19706 5.04281
0.687534 2.19779 5.03318
0.696043 2.19838 5.02323
0.704826 2.19902 5.0134
0.714084 2.19976 5.00379
0.725763 2.201 4.99529
0.735771 2.20189 4.986
0.748727 2.20339 4.97807
0.75972 2.20448 4.96921
0.773875 2.20622 4.96179
0.785429 2.20743 4.95316
0.80065 2.20938 4.94619
0.816456 2.21145 4.93946
0.83664 2.21441 4.9347
0.853622 2.21672 4.92845
0.879419 2.22082 4.92616
0.910546 2.22601 4.92622
0.955779 2.23407 4.93257
-0.056076 1.76428 1.31147
-0.0803326 1.75918 1.29863
-0.101701 1.75459 1.28623
-0.11464 1.7515 1.27496
-0.126651 1.74857 1.26385
-0.137719 1.74582 1.25288
-0.148443 1.74313 1.24199
-0.158108 1.74063 1.23127
-0.163451 1.73889 1.2211
-0.16856 1.7372 1.21099
-0.177661 1.7348 1.2004
-0.18148 1.73334 1.19049
-0.185638 1.73182 1.18054
-0.188857 1.73047 1.17073
-0.192379 1.72907 1.16089
-0.194934 1.72783 1.15119
-0.197756 1.72655 1.14146
-0.199586 1.72545 1.13187
-0.20103 1.72442 1.12233
-0.202702 1.72334 1.11277
-0.202067 1.72268 1.10349
-0.201294 1.72203 1.09423
-0.2013 1.72126 1.08489
-0.201496 1.72044 1.07554
-0.200625 1.71982 1.06631
-0.199301 1.71928 1.05714
-0.197517 1.71882 1.04802
-0.194242 1.71862 1.03907
-0.191757 1.71828 1.03003
-0.189431 1.71791 1.02099
-0.185998 1.71774 1.01206
-0.182085 1.71765 1.00318
-0.177741 1.71764 0.994345
-0.173105 1.71768 0.98554
-0.167986 1.7178 0.976784
-0.162385 1.71801 0.968073
-0.156304 1.7183 0.959407
-0.149746 1.71868 0.950784
-0.14057 1.71951 0.942407
-0.132836 1.72008 0.933885
-0.124642 1.72074 0.925399
-0.113719 1.72187 0.91716
-0.101123 1.7233 0.909062
-0.0882604 1.72476 0.900973
-0.0744848 1.72639 0.892951
-0.0555418 1.72891 0.885371
-0.0311368 1.73238 0.878245
0.00882214 1.73855 0.872438
0.678939 2.24095 5.36804
0.655699 2.23488 5.3421
0.642042 2.23082 5.32102
0.633376 2.22781 5.30248
0.625569 2.22499 5.28441
0.621985 2.22305 5.26847
0.618942 2.22123 5.25282
0.614225 2.21906 5.23637
0.613004 2.21762 5.22167
0.614537 2.21676 5.20834
0.614635 2.2156 5.19431
0.617066 2.21493 5.18144
0.61856 2.21406 5.16812
0.621936 2.21359 5.15573
0.625697 2.2132 5.14353
0.62985 2.21289 5.13152
0.634004 2.21258 5.11951
0.639136 2.21247 5.10798
0.644598 2.21243 5.09661
0.6502 2.21243 5.08531
0.656108 2.21248 5.07415
0.662419 2.21262 5.06318
0.669049 2.21282 5.05237
0.676981 2.2133 5.04216
0.684676 2.21372 5.03184
0.692764 2.21423 5.02169
0.701104 2.21479 5.01166
0.711617 2.21579 5.00264
0.721022 2.21657 4.99308
0.730614 2.21738 4.98361
0.742993 2.21877 4.97541
0.753409 2.21975 4.96629
0.767011 2.22139 4.95863
0.778434 2.22258 4.94994
0.793167 2.22445 4.94276
0.808515 2.22644 4.93583
0.824431 2.22855 4.92914
0.840863 2.23076 4.92265
0.861809 2.2339 4.91818
0.883467 2.23718 4.914
0.9145 2.24238 4.91399
0.968676 2.25233 4.92431
-0.00955884 1.78668 1.32731
-0.0589866 1.77703 1.31108
-0.0833791 1.77186 1.29823
-0.100989 1.76791 1.28632
-0.116908 1.76426 1.27467
-0.129615 1.76119 1.26347
-0.140591 1.75843 1.25252
-0.146445 1.75659 1.24225
-0.156773 1.75395 1.23143
-0.161453 1.75232 1.22135
-0.170954 1.74984 1.21069
-0.175706 1.7482 1.20064
-0.180179 1.74661 1.19064
-0.183693 1.74519 1.18078
-0.187564 1.74371 1.17088
-0.190445 1.74241 1.16112
-0.193648 1.74105 1.15134
-0.195835 1.73988 1.14169
-0.197649 1.73877 1.13209
-0.199744 1.73761 1.12247
-0.20078 1.73664 1.11299
-0.201406 1.73575 1.10356
-0.200931 1.73505 1.09427
-0.20001 1.73443 1.08503
-0.19957 1.73372 1.07575
-0.198686 1.7331 1.06652
-0.198015 1.73243 1.05728
-0.196222 1.73197 1.04816
-0.193963 1.73159 1.0391
-0.190449 1.73143 1.03017
-0.187482 1.73117 1.02119
-0.184038 1.731 1.01226
-0.180114 1.73092 1.00338
-0.175764 1.7309 0.994545
-0.171118 1.73095 0.98574
-0.165989 1.73107 0.976982
-0.160378 1.73128 0.968271
-0.154289 1.73158 0.959604
-0.14647 1.73217 0.9511
-0.139196 1.73268 0.942538
-0.131457 1.73326 0.934015
-0.121202 1.73428 0.925722
-0.111611 1.73519 0.917356
-0.0996956 1.7365 0.909193
-0.0868295 1.73798 0.901103
-0.0689992 1.74033 0.893444
-0.0503956 1.74281 0.885829
-0.0255414 1.74639 0.878738
0.0204859 1.75366 0.873455
0.676716 2.256 5.35263
0.654015 2.25 5.32701
0.640866 2.24602 5.30622
0.632535 2.24306 5.28788
0.628491 2.24101 5.2717
0.622169 2.23849 5.25442
0.622257 2.23731 5.24034
0.620237 2.23569 5.22523
0.618968 2.23424 5.21051
0.618484 2.23295 5.1962
0.620508 2.23218 5.18312
0.621394 2.23118 5.1695
0.624347 2.23062 5.1569
0.627673 2.23013 5.14448
0.630583 2.22956 5.13187
0.634861 2.22927 5.11993
0.639508 2.22906 5.10816
0.644552 2.22894 5.09659
0.649998 2.22889 5.08521
0.655563 2.22888 5.07389
0.661648 2.22897 5.06282
0.668121 2.22914 5.05193
0.674866 2.22937 5.04116
0.682131 2.22971 5.03064
0.689793 2.23013 5.0203
0.697684 2.2306 5.01006
0.707564 2.23148 5.00074
0.716367 2.23214 4.99092
0.725732 2.23291 4.98134
0.737521 2.23419 4.97288
0.747536 2.2351 4.96358
0.760585 2.23663 4.95567
0.771663 2.23776 4.94683
0.782771 2.23889 4.938
0.79742 2.24075 4.93077
0.812685 2.24274 4.92379
0.828517 2.24485 4.91705
0.848763 2.24787 4.91228
0.869819 2.25105 4.90783
0.89155 2.25437 4.90366
0.922665 2.25962 4.90365
-0.0229259 1.7976 1.32554
-0.0625852 1.78964 1.31061
-0.0855121 1.7847 1.29795
-0.103137 1.78072 1.28604
-0.116172 1.77756 1.27476
-0.12746 1.77472 1.26374
-0.138451 1.77194 1.25279
-0.149075 1.76923 1.24192
-0.154671 1.76742 1.2317
-0.164536 1.76485 1.22097
-0.169565 1.76314 1.21087
-0.173626 1.76161 1.2009
-0.178124 1.76001 1.19089
-0.18162 1.75859 1.18103
-0.187772 1.75669 1.17086
-0.191188 1.75528 1.16103
-0.191611 1.75441 1.15158
-0.193781 1.75323 1.14192
-0.196284 1.75199 1.13225
-0.197703 1.75094 1.12271
-0.199424 1.74984 1.11314
-0.20004 1.74894 1.10372
-0.200235 1.74812 1.09435
-0.199282 1.7475 1.08511
-0.198209 1.7469 1.0759
-0.197315 1.74627 1.06667
-0.195968 1.74573 1.0575
-0.194162 1.74526 1.04838
-0.192597 1.74475 1.03924
-0.189858 1.74446 1.03023
-0.186103 1.74434 1.02133
-0.182651 1.74417 1.0124
-0.178719 1.74408 1.00352
-0.174365 1.74407 0.994686
-0.169711 1.74411 0.985881
-0.164575 1.74424 0.977123
-0.158958 1.74445 0.96841
-0.151843 1.74493 0.959842
-0.145035 1.74536 0.951239
-0.137756 1.74586 0.942676
-0.130012 1.74645 0.934152
-0.118999 1.74762 0.925928
-0.107731 1.74883 0.917716
-0.0982007 1.74973 0.909331
-0.0853305 1.75122 0.90124
-0.0674624 1.75359 0.893583
-0.048062 1.75623 0.886037
-0.0189907 1.76057 0.879315
0.0373706 1.76973 0.874926
0.698378 2.27732 5.36349
0.670266 2.27012 5.33513
0.652274 2.26508 5.31191
0.643282 2.26196 5.29322
0.635195 2.25904 5.27503
0.63131 2.25701 5.25894
0.625239 2.25452 5.24181
0.625483 2.25337 5.22781
0.623667 2.25178 5.21282
0.622615 2.25036 5.19822
0.624232 2.24951 5.18494
0.624518 2.24837 5.17102
0.627017 2.2477 5.15819
0.628738 2.24687 5.145
0.632173 2.24641 5.13264
0.63597 2.24602 5.12046
0.639789 2.24563 5.1083
0.644651 2.24547 5.09664
0.649699 2.24534 5.08507
0.655132 2.2453 5.07369
0.660754 2.24529 5.06239
0.666788 2.24538 5.0513
0.673227 2.24554 5.04039
0.679901 2.24576 5.02959
0.687983 2.24627 5.01945
0.695605 2.24669 5.00909
0.703809 2.24723 4.99899
0.712173 2.2478 4.98896
0.721134 2.24849 4.97921
0.730216 2.24921 4.9695
0.741924 2.25048 4.96099
0.754405 2.25191 4.95282
0.764823 2.2529 4.94369
0.775861 2.25403 4.93483
0.790003 2.2558 4.92738
0.804791 2.25771 4.92019
0.820176 2.25974 4.91326
0.83611 2.26188 4.90655
0.852541 2.26412 4.90003
0.873509 2.2673 4.89553
0.895149 2.27063 4.8913
0.926164 2.2759 4.89122
-0.0322113 1.80923 1.32431
-0.0661294 1.80226 1.31014
-0.0882482 1.79742 1.29759
-0.102358 1.79405 1.28614
-0.118131 1.79037 1.27451
-0.13013 1.78739 1.2634
-0.140235 1.78474 1.25256
-0.146828 1.78274 1.2422
-0.157032 1.78008 1.2314
-0.162325 1.77832 1.22124
-0.167377 1.7766 1.21113
-0.174801 1.77445 1.20075
-0.179945 1.77272 1.19067
-0.184019 1.77118 1.18074
-0.187029 1.76983 1.17095
-0.190454 1.76841 1.16112
-0.193525 1.76706 1.15135
-0.194752 1.76604 1.14181
-0.19634 1.76495 1.13224
-0.196267 1.76417 1.12287
-0.197276 1.76319 1.11339
-0.197876 1.76229 1.10396
-0.198797 1.76133 1.09451
-0.19855 1.76057 1.08519
-0.197864 1.7599 1.07593
-0.195142 1.7596 1.06691
-0.194525 1.75892 1.05765
-0.192709 1.75845 1.04853
-0.190428 1.75807 1.03947
-0.187676 1.75777 1.03046
-0.184449 1.75755 1.0215
-0.181497 1.75729 1.01252
-0.177259 1.75726 1.00367
-0.172901 1.75725 0.994835
-0.168239 1.75729 0.986028
-0.162552 1.75752 0.977324
-0.156688 1.75778 0.968634
-0.150348 1.75812 0.959988
-0.143533 1.75855 0.951384
-0.135469 1.7592 0.942895
-0.125881 1.76012 0.934543
-0.117446 1.76084 0.926074
-0.106172 1.76206 0.91786
-0.0931194 1.76359 0.909797
-0.0799364 1.76515 0.90173
-0.0658574 1.76687 0.893727
-0.0426582 1.7702 0.886518
-0.0173166 1.77391 0.879463
0.69566 2.29226 5.34783
0.668086 2.28513 5.31979
0.654393 2.28097 5.29875
0.645558 2.27787 5.28017
0.637748 2.27498 5.26213
0.634029 2.27297 5.24614
0.63096 2.27111 5.23051
0.628593 2.26939 5.21523
0.626997 2.26784 5.20036
0.626157 2.26646 5.18588
0.627865 2.26562 5.17265
0.628432 2.26453 5.15888
0.631044 2.26389 5.14611
0.63306 2.26311 5.13307
0.636618 2.26267 5.12077
0.640646 2.26233 5.10871
0.644957 2.26204 5.09678
0.649641 2.26184 5.08504
0.6547 2.26172 5.07348
0.660181 2.26168 5.06212
0.665778 2.26167 5.05082
0.672015 2.2618 5.03982
0.678414 2.26196 5.02889
0.685409 2.26224 5.01824
0.692803 2.26262 5.00777
0.700356 2.26302 4.99738
0.708275 2.2635 4.98715
0.718283 2.26442 4.97788
0.727395 2.26515 4.96819
0.736581 2.2659 4.95852
0.74848 2.26722 4.9501
0.758503 2.26814 4.94079
0.769184 2.2692 4.93178
0.779835 2.27025 4.92273
0.793897 2.27202 4.91523
0.808602 2.27392 4.908
0.823904 2.27594 4.90102
0.839753 2.27808 4.89426
0.860049 2.28115 4.88947
0.876976 2.28351 4.88314
0.902816 2.28773 4.88076
0.929436 2.29212 4.87869
-0.0398078 1.82115 1.3233
-0.0687566 1.81503 1.30979
-0.0908433 1.81017 1.29725
-0.105041 1.80675 1.28579
-0.116512 1.80383 1.27472
-0.127731 1.80097 1.26371
-0.139439 1.79801 1.25267
-0.14914 1.79543 1.24191
-0.155475 1.79346 1.2316
-0.159991 1.79182 1.22153
-0.169341 1.7893 1.21089
-0.174021 1.78764 1.20085
-0.178414 1.78603 1.19086
-0.181724 1.78462 1.18101
-0.185501 1.78312 1.17113
-0.188164 1.78183 1.16139
-0.191261 1.78046 1.15162
-0.193216 1.7793 1.14199
-0.195573 1.77807 1.13233
-0.196764 1.77705 1.12281
-0.196758 1.77625 1.11345
-0.196358 1.77552 1.10413
-0.196525 1.77469 1.09476
-0.19704 1.77379 1.08536
-0.196343 1.77312 1.0761
-0.195197 1.77253 1.0669
-0.192802 1.77216 1.05784
-0.190413 1.77179 1.04878
-0.188903 1.77127 1.03963
-0.186141 1.77097 1.03062
-0.182905 1.77076 1.02166
-0.179192 1.77063 1.01276
-0.174999 1.77059 1.0039
-0.170514 1.7706 0.995076
-0.1656 1.77069 0.986293
-0.160205 1.77087 0.977557
-0.154331 1.77113 0.968866
-0.14798 1.77148 0.960218
-0.141155 1.77191 0.951613
-0.132251 1.77272 0.943202
-0.124265 1.77336 0.934696
-0.115825 1.77408 0.926226
-0.104545 1.77531 0.918011
-0.0914535 1.77686 0.90995
-0.0782663 1.77843 0.901882
-0.0599172 1.78092 0.894261
-0.040949 1.78352 0.88667
-0.00612899 1.78896 0.880448
0.688654 2.30624 5.33005
0.665912 2.30011 5.30448
0.656388 2.29683 5.28554
0.644373 2.29301 5.2654
0.640197 2.29089 5.24919
0.63661 2.2889 5.23329
0.633731 2.28706 5.21776
0.631628 2.28539 5.20263
0.630229 2.28388 5.18786
0.631512 2.28294 5.17443
0.631519 2.28172 5.16038
0.632284 2.28068 5.14671
0.635119 2.28007 5.13406
0.638221 2.27953 5.12154
0.641684 2.27906 5.10921
0.645204 2.27861 5.0969
0.649646 2.27835 5.08504
0.654477 2.27818 5.07337
0.659446 2.27803 5.06177
0.664893 2.27799 5.0504
0.670654 2.27802 5.03917
0.67682 2.27813 5.02814
0.683149 2.27828 5.01718
0.690113 2.27856 5.00651
0.69721 2.27887 4.99591
0.706019 2.27954 4.9861
0.71405 2.28005 4.97592
0.722757 2.2807 4.96604
0.731515 2.28136 4.95618
0.740617 2.2821 4.94647
0.752437 2.28341 4.938
0.762751 2.28439 4.92883
0.773019 2.28537 4.91962
0.786557 2.28704 4.91189
0.797568 2.28818 4.90299
0.81219 2.29007 4.89572
0.827409 2.29209 4.88868
0.843173 2.29423 4.88187
0.863382 2.2973 4.87703
0.884359 2.30053 4.8725
0.905964 2.30389 4.86821
0.936934 2.30923 4.86804
0.00315062 1.84319 1.33874
-0.0473252 1.83306 1.3223
-0.0721545 1.82765 1.30935
-0.0899696 1.82354 1.29737
-0.106696 1.81963 1.28558
-0.11983 1.81639 1.27429
-0.130956 1.81352 1.26329
-0.140021 1.81103 1.25259
-0.147489 1.80883 1.24211
-0.155853 1.80648 1.23155
-0.162763 1.80439 1.22119
-0.166896 1.80281 1.21119
-0.171596 1.80113 1.20115
-0.176012 1.79951 1.19115
-0.179302 1.79809 1.18131
-0.183102 1.79658 1.17142
-0.186566 1.79513 1.16158
-0.188866 1.7939 1.1519
-0.191621 1.79258 1.14218
-0.193184 1.79149 1.1326
-0.195174 1.79031 1.123
-0.195949 1.78936 1.11354
-0.19631 1.78849 1.10414
-0.195408 1.78785 1.09488
-0.19466 1.78717 1.08562
-0.193946 1.7865 1.07636
-0.193604 1.78576 1.06707
-0.191992 1.78524 1.05793
-0.189918 1.78482 1.04883
-0.186496 1.78464 1.03989
-0.18372 1.78434 1.03088
-0.181298 1.78397 1.02183
-0.177575 1.78385 1.01293
-0.173373 1.78381 1.00407
-0.168883 1.78382 0.995241
-0.163961 1.78391 0.986457
-0.158558 1.78409 0.97772
-0.152676 1.78436 0.969029
-0.146318 1.78471 0.96038
-0.138106 1.7854 0.951908
-0.130574 1.78596 0.943363
-0.122582 1.7866 0.934855
-0.11109 1.78788 0.926669
-0.0994748 1.78918 0.918482
-0.0869025 1.79065 0.910368
-0.072515 1.79245 0.902405
-0.0546443 1.79487 0.894736
-0.0344108 1.79772 0.887252
-0.00428684 1.80235 0.880611
0.727541 2.33141 5.34944
0.685918 2.32112 5.31443
0.667619 2.31591 5.29111
0.658263 2.31264 5.27228
0.646558 2.30887 5.25233
0.642546 2.30677 5.23621
0.639181 2.30481 5.22043
0.636507 2.30301 5.20502
0.634563 2.30136 5.18998
0.633386 2.29988 5.17534
0.63477 2.29896 5.16196
0.635059 2.2978 5.14806
0.637341 2.29708 5.13513
0.639973 2.29642 5.12239
0.642293 2.29571 5.1095
0.645883 2.29526 5.09723
0.650034 2.29494 5.08523
0.654385 2.29467 5.07333
0.659075 2.29446 5.0616
0.664201 2.29435 5.05007
0.669478 2.29427 5.03862
0.675341 2.29432 5.02744
0.681205 2.29437 5.01627
0.688187 2.29466 5.00561
0.695012 2.29491 4.99488
0.702531 2.29531 4.98447
0.710115 2.29573 4.97409
0.718409 2.2963 4.96403
0.726733 2.29687 4.95397
0.735409 2.29752 4.94408
0.746634 2.29871 4.93534
0.75617 2.29954 4.92582
0.766446 2.30053 4.91662
0.776632 2.3015 4.90737
0.790089 2.30316 4.8996
0.804218 2.30497 4.89211
0.818972 2.3069 4.88488
0.830693 2.30819 4.87626
0.846885 2.31043 4.86963
0.866494 2.3134 4.8645
0.887379 2.31663 4.85991
0.908888 2.32 4.85556
0.939751 2.32534 4.85532
-0.0156915 1.85305 1.33622
-0.051519 1.84556 1.32174
-0.0745612 1.84045 1.30903
-0.0932933 1.83614 1.29693
-0.109024 1.83239 1.28528
-0.120352 1.82946 1.27422
-0.131383 1.82658 1.26324
-0.139143 1.82432 1.2527
-0.148634 1.82173 1.24197
-0.154984 1.81973 1.23166
-0.160215 1.81794 1.22151
-0.167627 1.81574 1.2111
-0.173096 1.81391 1.20096
-0.177384 1.81229 1.19098
-0.181362 1.81074 1.18106
-0.184152 1.8094 1.17129
-0.187467 1.80797 1.16147
-0.189565 1.80677 1.15182
-0.189119 1.80603 1.14247
-0.191518 1.80478 1.1328
-0.192677 1.80375 1.12328
-0.194287 1.80263 1.11373
-0.194635 1.80176 1.10433
-0.194557 1.80096 1.09498
-0.193172 1.8004 1.08579
-0.192271 1.79975 1.07655
-0.191097 1.79916 1.06735
-0.189469 1.79864 1.0582
-0.18824 1.79806 1.04901
-0.185689 1.79772 1.03997
-0.182665 1.79746 1.03099
-0.178766 1.79736 1.0221
-0.175029 1.79724 1.01319
-0.170813 1.7972 1.00433
-0.166991 1.79709 0.995433
-0.162257 1.79715 0.986628
-0.156845 1.79733 0.97789
-0.150956 1.7976 0.969198
-0.14344 1.79817 0.960661
-0.135474 1.79881 0.952162
-0.127933 1.79938 0.943615
-0.117975 1.80039 0.935291
-0.109299 1.80116 0.926837
-0.0976774 1.80247 0.918648
-0.0841733 1.80412 0.910619
-0.0706745 1.80577 0.902572
-0.0518531 1.80839 0.894987
-0.0286033 1.8118 0.887769
0.00742376 1.81754 0.881642
0.711136 2.34334 5.32697
0.683243 2.33599 5.29886
0.669198 2.33167 5.27768
0.656575 2.32767 5.25727
0.648638 2.3247 5.2392
0.644798 2.32262 5.22319
0.641621 2.32069 5.20752
0.639149 2.31892 5.19222
0.637421 2.31731 5.1773
0.638385 2.31629 5.16371
0.638121 2.315 5.14954
0.639964 2.31417 5.1364
0.642151 2.31342 5.12344
0.643884 2.31257 5.11026
0.647016 2.31202 5.09777
0.650514 2.31156 5.08546
0.654353 2.31117 5.07332
0.658884 2.31093 5.06151
0.663522 2.31071 5.04975
0.66852 2.31057 5.03817
0.674011 2.31054 5.02682
0.679578 2.31052 5.0155
0.685894 2.31067 5.00454
0.692259 2.31082 4.9936
0.69935 2.31114 4.98299
0.706482 2.31146 4.9724
0.714357 2.31194 4.96215
0.72224 2.31242 4.9519
0.730482 2.31298 4.94181
0.741101 2.31406 4.9328
0.750225 2.3148 4.92309
0.760126 2.31572 4.91373
0.769918 2.31661 4.90431
0.782836 2.31817 4.8963
0.7934 2.31922 4.88721
0.807448 2.32103 4.87967
0.82212 2.32296 4.8724
0.834295 2.32435 4.86398
0.849907 2.32649 4.85708
0.869383 2.32944 4.85188
0.886635 2.33192 4.84566
0.912207 2.33618 4.8431
0.93854 2.34059 4.84082
-0.0288081 1.86393 1.33446
-0.0579008 1.85765 1.32089
-0.0777986 1.85308 1.3086
-0.0955944 1.84892 1.29663
-0.108096 1.84574 1.2854
-0.119427 1.84279 1.27434
-0.130459 1.83989 1.26336
-0.140191 1.83724 1.25257
-0.146816 1.83518 1.2422
-0.1558 1.83267 1.23156
-0.161855 1.83071 1.2213
-0.166725 1.82897 1.21122
-0.17132 1.82729 1.20118
-0.175622 1.82566 1.1912
-0.178717 1.82426 1.18138
-0.182389 1.82275 1.1715
-0.185718 1.82131 1.16168
-0.187802 1.82009 1.15202
-0.19041 1.81879 1.14232
-0.191745 1.81772 1.13277
-0.191773 1.81689 1.12339
-0.191681 1.81609 1.11402
-0.192009 1.8152 1.10462
-0.192809 1.81424 1.09518
-0.192284 1.81352 1.08589
-0.191316 1.81288 1.07665
-0.189349 1.81242 1.06754
-0.187708 1.81191 1.05839
-0.185606 1.81148 1.04929
-0.183038 1.81114 1.04025
-0.180903 1.81072 1.03117
-0.177394 1.81055 1.02224
-0.173408 1.81047 1.01335
-0.169025 1.81046 1.00451
-0.16432 1.81051 0.995703
-0.159136 1.81066 0.986941
-0.153473 1.81088 0.978226
-0.147333 1.8112 0.969554
-0.14072 1.8116 0.960926
-0.133637 1.81209 0.952339
-0.124355 1.81298 0.943957
-0.116122 1.81368 0.935467
-0.10515 1.81488 0.927226
-0.0922422 1.81644 0.919153
-0.0793475 1.81799 0.911062
-0.0655489 1.8197 0.903038
-0.0463198 1.82241 0.895485
-0.0216504 1.82611 0.888388
0.0241625 1.83367 0.883117
0.707822 2.35809 5.31105
0.680517 2.35082 5.28328
0.670654 2.34739 5.26421
0.658327 2.34343 5.24397
0.653677 2.34116 5.22754
0.646956 2.33844 5.21013
0.643974 2.33654 5.19457
0.64171 2.3348 5.17939
0.642264 2.33368 5.16559
0.641461 2.33227 5.15116
0.642872 2.33134 5.1378
0.643244 2.33018 5.12396
0.645549 2.32945 5.11106
0.648454 2.32885 5.09846
0.651495 2.32828 5.08593
0.654733 2.32776 5.0735
0.658683 2.32739 5.06141
0.663144 2.32713 5.04957
0.667695 2.32689 5.03778
0.672627 2.32674 5.02616
0.678287 2.32674 5.01489
0.683914 2.32674 5.00361
0.690178 2.32688 4.99263
0.696477 2.32702 4.98165
0.703153 2.32725 4.97085
0.710606 2.32764 4.96041
0.718043 2.32803 4.94996
0.725845 2.3285 4.93967
0.735847 2.32944 4.93039
0.744549 2.33011 4.92049
0.754066 2.33095 4.91097
0.763456 2.33176 4.90137
0.773167 2.33264 4.89191
0.786008 2.33419 4.88386
0.796489 2.33523 4.87472
0.810457 2.33703 4.86715
0.822194 2.33834 4.85854
0.837181 2.34036 4.85138
0.852707 2.34248 4.84444
0.868719 2.34471 4.83768
0.889256 2.34791 4.83291
0.910443 2.35125 4.82839
0.936534 2.35565 4.82599
0.981174 2.36403 4.8317
0.0195455 1.88721 1.35069
-0.0369012 1.87572 1.33338
-0.0620213 1.87014 1.32034
-0.0809643 1.86573 1.30818
-0.0977425 1.86172 1.29635
-0.110221 1.85853 1.28512
-0.121463 1.85557 1.27408
-0.132385 1.85268 1.26311
-0.139243 1.85055 1.25269
-0.148522 1.84796 1.24198
-0.15486 1.84594 1.23167
-0.159999 1.84413 1.22153
-0.163939 1.84256 1.21156
-0.168552 1.84086 1.20152
-0.174767 1.83886 1.1913
-0.17863 1.8373 1.18139
-0.182161 1.83581 1.17153
-0.184386 1.83456 1.16184
-0.185049 1.83361 1.15235
-0.187679 1.83229 1.14263
-0.189924 1.83104 1.13298
-0.190848 1.83004 1.12349
-0.191363 1.82912 1.11406
-0.191458 1.82827 1.10468
-0.190073 1.82771 1.09548
-0.190462 1.82681 1.08609
-0.189482 1.82617 1.07685
-0.18805 1.82561 1.06768
-0.186161 1.82514 1.05855
-0.183772 1.82476 1.04949
-0.181192 1.82442 1.04045
-0.178141 1.82416 1.03146
-0.174616 1.824 1.02253
-0.171561 1.82374 1.01355
-0.167173 1.82374 1.0047
-0.162459 1.82379 0.995892
-0.157265 1.82393 0.987129
-0.151593 1.82417 0.978412
-0.145445 1.82449 0.96974
-0.138824 1.82489 0.961111
-0.130226 1.82567 0.952668
-0.122442 1.82629 0.94414
-0.114203 1.82699 0.935648
-0.102234 1.82838 0.927499
-0.0902749 1.82977 0.919335
-0.0773749 1.83134 0.911243
-0.0592454 1.83386 0.903611
-0.0395987 1.83667 0.896089
-0.0144695 1.84048 0.889028
0.700425 2.3719 5.29313
0.685619 2.36736 5.2716
0.668501 2.36231 5.24898
0.659972 2.35916 5.23063
0.655635 2.35695 5.21438
0.651734 2.35483 5.19836
0.648704 2.35291 5.18279
0.646395 2.35115 5.1676
0.645068 2.3496 5.1529
0.646055 2.34858 5.13934
0.64584 2.34728 5.12521
0.647703 2.34645 5.1121
0.650191 2.34575 5.09929
0.651962 2.3449 5.08615
0.655422 2.34442 5.07382
0.65898 2.34396 5.06155
0.662742 2.34355 5.04938
0.667164 2.34328 5.03752
0.67199 2.3431 5.02586
0.676854 2.34293 5.01422
0.682101 2.34285 5.00276
0.688079 2.34292 4.99164
0.693915 2.34296 4.98046
0.700131 2.34309 4.96945
0.707158 2.34339 4.95882
0.714144 2.34369 4.94816
0.7215 2.34406 4.93767
0.730876 2.34488 4.9281
0.739149 2.34545 4.91802
0.748274 2.34621 4.90832
0.757253 2.34694 4.89855
0.766563 2.34774 4.88891
0.77885 2.34919 4.88062
0.788957 2.35016 4.87132
0.799932 2.35131 4.86241
0.813245 2.35298 4.85453
0.824943 2.35429 4.8459
0.839846 2.3563 4.8387
0.855287 2.35842 4.8317
0.871212 2.36065 4.8249
0.887563 2.36296 4.81826
0.908496 2.36627 4.81362
0.934336 2.37064 4.81109
0.97872 2.37902 4.81665
-0.00485868 1.89597 1.3474
-0.0438869 1.8877 1.33244
-0.0680882 1.88225 1.31954
-0.0860161 1.878 1.30752
-0.0997338 1.87455 1.29609
-0.112179 1.87134 1.28487
-0.123324 1.86838 1.27384
-0.133102 1.86568 1.26302
-0.140949 1.86335 1.25247
-0.146563 1.86144 1.24223
-0.155311 1.85894 1.23162
-0.160346 1.85715 1.22149
-0.166104 1.85522 1.21129
-0.170586 1.85353 1.20127
-0.17379 1.85209 1.19142
-0.17766 1.85052 1.1815
-0.181197 1.84901 1.17164
-0.183415 1.84776 1.16195
-0.186247 1.84639 1.15221
-0.186743 1.84546 1.14274
-0.187083 1.84456 1.13331
-0.187985 1.84356 1.12382
-0.189454 1.84245 1.11428
-0.189536 1.8416 1.1049
-0.190164 1.84065 1.09547
-0.188402 1.84015 1.08632
-0.186614 1.83966 1.07717
-0.186141 1.83891 1.06788
-0.184239 1.83844 1.05876
-0.181874 1.83806 1.04969
-0.180022 1.83758 1.04057
-0.17622 1.83746 1.03166
-0.172684 1.83729 1.02273
-0.168671 1.83722 1.01384
-0.164275 1.83721 1.005
-0.159545 1.83727 0.996187
-0.154337 1.83742 0.987423
-0.148651 1.83765 0.978705
-0.141444 1.83817 0.970134
-0.134576 1.83863 0.961525
-0.127242 1.83917 0.952956
-0.119448 1.8398 0.944426
-0.109122 1.84089 0.936129
-0.0978021 1.84218 0.927915
-0.0882405 1.84313 0.919524
-0.0712653 1.84546 0.911804
-0.0571668 1.84725 0.9038
-0.0337229 1.85078 0.896618
-0.00816274 1.8547 0.889589
0.747329 2.39908 5.31633
0.701243 2.38752 5.2793
0.682937 2.38216 5.25608
0.669824 2.37797 5.23547
0.664634 2.37555 5.21878
0.657348 2.37266 5.2011
0.653834 2.37062 5.18529
0.651016 2.36873 5.16984
0.651089 2.36749 5.15582
0.649504 2.36588 5.141
0.648713 2.36445 5.12659
0.650141 2.36351 5.11327
0.651913 2.36265 5.10011
0.65338 2.36173 5.08683
0.656095 2.36108 5.07414
0.659515 2.36059 5.06181
0.662986 2.36011 5.0495
0.666833 2.35971 5.03737
0.671058 2.3594 5.02542
0.675735 2.35918 5.0137
0.680897 2.35908 5.0022
0.686111 2.35898 4.99073
0.691664 2.35897 4.97941
0.697864 2.35909 4.9684
0.704016 2.3592 4.95736
0.710547 2.3594 4.9465
0.718718 2.35996 4.93639
0.726194 2.36036 4.92595
0.732889 2.36059 4.91515
0.740907 2.36112 4.90496
0.751318 2.36216 4.89584
0.760217 2.36288 4.88603
0.769447 2.36367 4.87636
0.779585 2.36465 4.86709
0.791685 2.36606 4.85869
0.802623 2.36722 4.84976
0.813237 2.36831 4.84066
0.827471 2.37018 4.83317
0.842292 2.37219 4.82592
0.85391 2.37349 4.81722
0.869582 2.37567 4.8103
0.889745 2.37884 4.80534
0.910582 2.38215 4.80064
0.936314 2.38652 4.79805
0.980555 2.39493 4.8035
-0.0226235 1.90593 1.34501
-0.0518711 1.89947 1.33137
-0.0710183 1.89495 1.31915
-0.0878262 1.89088 1.30728
-0.101564 1.8874 1.29585
-0.112901 1.88438 1.28477
-0.123938 1.88142 1.27376
-0.132067 1.87901 1.26315
-0.141411 1.87638 1.25241
-0.147981 1.87428 1.24205
-0.153274 1.87242 1.23187
-0.15832 1.87061 1.22174
-0.1631 1.86885 1.21166
-0.169388 1.86681 1.20142
-0.173442 1.8652 1.19146
-0.174666 1.86412 1.18186
-0.178221 1.8626 1.172
-0.181428 1.86115 1.16219
-0.183266 1.85996 1.15256
-0.185742 1.85865 1.14286
-0.187828 1.85741 1.13322
-0.187494 1.85663 1.12388
-0.187755 1.85574 1.11447
-0.187553 1.85494 1.10512
-0.187191 1.85418 1.0958
-0.187404 1.8533 1.08643
-0.186164 1.8527 1.07722
-0.183444 1.85237 1.06818
-0.182255 1.85176 1.05898
-0.179877 1.85138 1.04991
-0.177032 1.85108 1.04089
-0.173715 1.85087 1.03193
-0.170947 1.85056 1.02291
-0.166684 1.85053 1.01405
-0.162163 1.85055 1.00521
-0.157184 1.85065 0.996426
-0.151727 1.85085 0.987684
-0.145794 1.85113 0.978988
-0.139388 1.8515 0.970336
-0.132512 1.85196 0.961726
-0.12517 1.85251 0.953156
-0.115512 1.85349 0.944802
-0.107033 1.85425 0.936327
-0.0957056 1.85554 0.928111
-0.0823404 1.85721 0.920071
-0.0691234 1.85886 0.912001
-0.0505151 1.86151 0.904404
-0.0315408 1.86422 0.896814
0.00371507 1.86998 0.890647
0.725991 2.40977 5.29151
0.70192 2.40308 5.26542
0.6839 2.39776 5.24237
0.674578 2.39439 5.22365
0.666229 2.39124 5.20543
0.658968 2.38835 5.18779
0.65565 2.38633 5.17209
0.655332 2.385 5.15787
0.653208 2.38325 5.14279
0.651855 2.38169 5.12811
0.652856 2.38065 5.11457
0.654532 2.37976 5.10137
0.65509 2.37862 5.08764
0.657355 2.37787 5.07475
0.660353 2.37728 5.0622
0.662953 2.3766 5.04948
0.666751 2.37619 5.03733
0.670513 2.37577 5.02517
0.674926 2.3755 5.01332
0.679623 2.37529 5.0016
0.684404 2.3751 4.98993
0.689724 2.37503 4.97851
0.69547 2.37506 4.96729
0.701182 2.37507 4.95605
0.707254 2.37517 4.94498
0.714776 2.37559 4.93457
0.721063 2.37573 4.9236
0.728278 2.37608 4.91304
0.735858 2.37651 4.90265
0.745656 2.37743 4.89327
0.754137 2.37806 4.88327
0.762958 2.37876 4.87342
0.772109 2.37953 4.86372
0.782212 2.38052 4.85443
0.792009 2.38143 4.84499
0.805094 2.38307 4.83702
0.815626 2.38415 4.82788
0.829781 2.38602 4.82035
0.840962 2.38724 4.81147
0.856051 2.38931 4.80431
0.871636 2.39149 4.79735
0.891708 2.39466 4.79233
0.912447 2.39796 4.78757
0.938071 2.40234 4.78491
0.969547 2.408 4.78475
0.0107299 1.92655 1.35926
-0.030418 1.91775 1.34396
-0.0546986 1.91221 1.331
-0.0738749 1.90765 1.31877
-0.0906141 1.90357 1.30691
-0.10323 1.90028 1.29563
-0.114472 1.89726 1.28457
-0.12286 1.89478 1.2739
-0.133531 1.89187 1.26297
-0.14035 1.88971 1.25255
-0.148107 1.88736 1.24204
-0.15438 1.8853 1.23173
-0.160375 1.8833 1.22149
-0.165027 1.88155 1.21142
-0.168333 1.88007 1.20154
-0.172392 1.87844 1.19159
-0.176127 1.87687 1.18169
-0.179523 1.87537 1.17184
-0.181518 1.87414 1.16218
-0.183142 1.87299 1.15257
-0.182649 1.87223 1.14322
-0.184756 1.87098 1.13358
-0.186461 1.86981 1.12399
-0.186715 1.86892 1.11459
-0.186545 1.86811 1.10524
-0.185133 1.86753 1.09603
-0.184318 1.86684 1.08677
-0.184108 1.86604 1.07744
-0.182401 1.86553 1.06829
-0.180235 1.8651 1.05919
-0.177604 1.86476 1.05015
-0.17496 1.86442 1.04111
-0.17163 1.86421 1.03215
-0.167827 1.86409 1.02323
-0.163547 1.86406 1.01437
-0.159016 1.86408 1.00554
-0.155091 1.86399 0.996637
-0.149624 1.86419 0.987895
-0.143682 1.86448 0.979198
-0.137267 1.86485 0.970545
-0.128978 1.86558 0.96207
-0.121399 1.86618 0.95352
-0.113363 1.86686 0.945008
-0.101582 1.86825 0.936843
-0.08992 1.86961 0.928653
-0.0773103 1.87115 0.920538
-0.0626597 1.87308 0.912595
-0.044769 1.87561 0.904927
-0.0203727 1.87936 0.897819
0.0205051 1.88622 0.892141
0.726324 2.42529 5.27743
0.698726 2.41776 5.24965
0.684743 2.41331 5.22862
0.675619 2.40997 5.21002
0.6675 2.40686 5.19194
0.663479 2.40467 5.17589
0.660126 2.40264 5.16019
0.659389 2.4012 5.14578
0.657574 2.39951 5.13086
0.656191 2.39793 5.11617
0.657118 2.39687 5.10261
0.657086 2.39559 5.0886
0.658907 2.39473 5.07548
0.661487 2.39404 5.06274
0.663468 2.39322 5.04972
0.666973 2.39274 5.03743
0.670274 2.39222 5.02506
0.674412 2.39188 5.01308
0.678488 2.39153 5.00107
0.682948 2.39127 4.98925
0.688139 2.39117 4.97777
0.693176 2.39104 4.96622
0.698596 2.39099 4.95485
0.704267 2.391 4.9436
0.711136 2.39127 4.9329
0.717196 2.39137 4.92182
0.723961 2.39162 4.91107
0.731099 2.39195 4.90048
0.740274 2.39274 4.89082
0.74833 2.39328 4.88063
0.756733 2.39389 4.8706
0.765477 2.39458 4.86072
0.775209 2.39549 4.85128
0.784618 2.39633 4.84167
0.794336 2.39723 4.8322
0.804351 2.3982 4.82285
0.817796 2.39993 4.81502
0.828511 2.40105 4.80595
0.842969 2.403 4.79853
0.857975 2.40507 4.79132
0.873472 2.40725 4.78431
0.889406 2.40952 4.77747
0.909887 2.41279 4.77258
0.935252 2.41714 4.76979
0.962087 2.42181 4.76759
-0.00777147 1.93634 1.35675
-0.0381797 1.92957 1.34291
-0.0613483 1.9242 1.33011
-0.0793541 1.91984 1.31804
-0.093313 1.91627 1.30655
-0.104728 1.91318 1.29544
-0.115866 1.91016 1.28439
-0.125393 1.90745 1.27357
-0.133668 1.90499 1.26295
-0.141575 1.90259 1.25239
-0.147006 1.90068 1.24218
-0.1522 1.89882 1.23201
-0.158958 1.89665 1.22166
-0.16349 1.89492 1.21161
-0.167724 1.89324 1.20162
-0.171644 1.89163 1.19168
-0.172909 1.89053 1.18207
-0.176322 1.88901 1.17222
-0.179381 1.88757 1.16243
-0.180988 1.88641 1.15282
-0.183304 1.88511 1.14314
-0.184139 1.8841 1.13365
-0.183277 1.88341 1.12436
-0.183506 1.88251 1.11495
-0.184405 1.88149 1.10548
-0.183786 1.88076 1.09618
-0.183819 1.8799 1.08682
-0.181217 1.87955 1.07776
-0.179181 1.8791 1.06864
-0.17809 1.87846 1.05943
-0.175445 1.87812 1.05038
-0.172332 1.87787 1.04139
-0.169847 1.8775 1.03233
-0.165793 1.87743 1.02345
-0.161375 1.87742 1.0146
-0.156607 1.87749 1.00578
-0.151363 1.87765 0.997015
-0.145643 1.87789 0.988295
-0.139449 1.87823 0.979619
-0.132785 1.87866 0.970986
-0.125655 1.87917 0.962394
-0.116312 1.8801 0.954011
-0.108041 1.88083 0.945516
-0.0970206 1.88209 0.937275
-0.0876547 1.88302 0.928865
-0.0709481 1.88535 0.921128
-0.0571274 1.88713 0.913103
-0.0376837 1.88998 0.905571
-0.0128207 1.89385 0.898498
0.053535 1.90558 0.895082
0.722579 2.43986 5.26135
0.699227 2.43325 5.23571
0.68547 2.42883 5.21482
0.676556 2.42551 5.19635
0.671875 2.42316 5.17997
0.664844 2.42028 5.16247
0.664069 2.41882 5.14804
0.66139 2.41693 5.1327
0.659461 2.41521 5.11774
0.659969 2.41404 5.10397
0.660806 2.41295 5.09037
0.66116 2.41176 5.07656
0.662911 2.41088 5.06342
0.66428 2.40991 5.05011
0.667493 2.40936 5.03768
0.670337 2.40873 5.02509
0.673955 2.40828 5.01286
0.677661 2.40784 5.00068
0.681657 2.40747 4.98865
0.686565 2.40731 4.97704
0.691189 2.40708 4.9653
0.696147 2.40693 4.95372
0.702056 2.40699 4.94258
0.707798 2.40701 4.93136
0.713629 2.40706 4.92018
0.719942 2.40721 4.90923
0.726632 2.40745 4.89844
0.735178 2.4081 4.88849
0.741763 2.40831 4.87765
0.749565 2.4088 4.86736
0.75772 2.40936 4.85722
0.766219 2.41 4.84723
0.775053 2.41072 4.83738
0.786804 2.41208 4.82883
0.796444 2.41297 4.81932
0.80638 2.41393 4.80993
0.819749 2.41566 4.80206
0.830382 2.41677 4.79296
0.84476 2.41871 4.78549
0.859681 2.42078 4.77824
0.875092 2.42295 4.77119
0.890936 2.42521 4.76429
0.908019 2.42775 4.75792
0.928839 2.43112 4.75313
0.95449 2.43556 4.75041
0.031779 1.95831 1.37191
-0.0202863 1.94725 1.35505
-0.0458849 1.94137 1.34187
-0.0639984 1.93696 1.32975
-0.0819699 1.93257 1.31769
-0.0947291 1.9292 1.30637
-0.107245 1.92589 1.29511
-0.114703 1.92356 1.28454
-0.125495 1.92059 1.27356
-0.13252 1.91835 1.26309
-0.141434 1.91574 1.25241
-0.147923 1.91361 1.24206
-0.154145 1.91153 1.23176
-0.157821 1.90995 1.2218
-0.162357 1.9082 1.21175
-0.166596 1.90652 1.20176
-0.17052 1.90489 1.19182
-0.174114 1.90333 1.18193
-0.176235 1.90206 1.17223
-0.177992 1.90086 1.1626
-0.179372 1.89973 1.15301
-0.179981 1.89875 1.14353
-0.181922 1.89752 1.13391
-0.183458 1.89636 1.12434
-0.183459 1.89551 1.11496
-0.181892 1.89495 1.10576
-0.18157 1.89416 1.09643
-0.180495 1.89351 1.08719
-0.180101 1.89273 1.07788
-0.178129 1.89226 1.06876
-0.175695 1.89187 1.05968
-0.173224 1.8915 1.05062
-0.170097 1.89125 1.04163
-0.166499 1.89109 1.03269
-0.162426 1.89102 1.0238
-0.159023 1.89082 1.01484
-0.15436 1.89087 1.00601
-0.149104 1.89103 0.997244
-0.143374 1.89128 0.988522
-0.13717 1.89162 0.979845
-0.130497 1.89205 0.971211
-0.12183 1.89286 0.962767
-0.114003 1.89351 0.954234
-0.103635 1.89465 0.945937
-0.0946947 1.89551 0.937495
-0.0815067 1.89719 0.929442
-0.0685746 1.89881 0.921348
