ply
format ascii 1.0
comment Created by Open3D
element vertex 1752
property double x
property double y
property double z
end_header
-0.668574 -0.541839 2.24958
-0.790327 -0.541797 2.1776
-0.418458 -0.541735 2.35253
-0.72282 -0.541697 2.18923
-0.382699 -0.541634 2.34829
-0.616963 -0.5416 2.22003
-0.489127 -0.541534 2.27296
-0.384784 -0.541505 2.31398
-0.586771 -0.541471 2.20186
-0.538619 -0.541412 2.21493
-0.556969 -0.541392 2.19457
-0.541857 -0.541321 2.19117
-0.594589 -0.541305 2.1536
-0.593766 -0.541269 2.14291
-0.367936 -0.541221 2.24477
-0.568568 -0.541215 2.13321
-0.525519 -0.541177 2.14364
-0.563687 -0.541137 2.11347
-0.606026 -0.541178 2.08082
-0.72631 -0.5411 2.00978
-0.449444 -0.541107 2.13691
-0.530261 -0.541067 2.08542
-0.420471 -0.541038 2.12918
-0.672759 -0.541054 1.99169
-0.421591 -0.541012 2.1062
-0.503175 -0.54099 2.05425
-0.355114 -0.541015 2.11688
-0.616121 -0.541044 1.97496
-0.391876 -0.541 2.07603
-0.373979 -0.54099 2.07376
-0.454045 -0.541027 2.02226
-0.541406 -0.541115 1.96686
-0.450619 -0.541023 2.00145
-0.592746 -0.541069 1.91888
-0.394246 -0.54112 2.00659
-0.339358 -0.541174 2.02248
-0.40548 -0.541127 1.97839
-0.328505 -0.541185 2.00529
-0.211433 -0.541248 2.05222
-0.589359 -0.541314 1.85163
-0.516747 -0.541385 1.87629
-0.393694 -0.541459 1.92614
-0.333282 -0.541537 1.94464
-0.592249 -0.541619 1.80344
-0.34085 -0.541704 1.91739
-0.30263 -0.541793 1.92473
-0.401209 -0.541886 1.86366
-0.355078 -0.542035 1.87462
-0.37986 -0.542134 1.85039
-0.445319 -0.542291 1.8055
-0.235141 -0.542397 1.89871
-0.431932 -0.542683 1.78744
-0.390372 -0.542857 1.79594
-0.471984 -0.543163 1.74212
-0.207442 -0.543348 1.86204
-0.400737 -0.543726 1.75195
-0.146617 -0.544116 1.86549
-0.295432 -0.544516 1.77748
-0.207591 -0.544926 1.80773
-0.424659 -0.54637 1.67963
-1.59666 -0.523529 4.52593
-2.02429 -0.521644 4.29981
-1.34471 -0.520668 4.6279
-1.76604 -0.520055 4.40577
-2.08778 -0.519382 4.23343
-1.89652 -0.519038 4.3178
-1.86096 -0.518419 4.32419
-1.81613 -0.518114 4.33539
-1.67528 -0.517825 4.39462
-1.88207 -0.517467 4.28001
-1.80266 -0.517213 4.30856
-1.73964 -0.516824 4.32887
-1.72811 -0.51676 4.32357
-2.07164 -0.516562 4.1407
-1.74814 -0.516385 4.29136
-1.78329 -0.516228 4.26271
-1.62771 -0.516198 4.32947
-1.81845 -0.516173 4.22307
-1.80501 -0.516057 4.21874
-1.66983 -0.516043 4.2753
-1.77384 -0.516044 4.21228
-1.98062 -0.515971 4.09785
-2.03342 -0.515999 4.06043
-1.77871 -0.516021 4.17677
-1.87449 -0.516048 4.11786
-1.80586 -0.516118 4.14116
-1.69211 -0.516162 4.18702
-1.57351 -0.516264 4.2353
-1.67145 -0.516323 4.1753
-1.74699 -0.516388 4.12651
-1.75222 -0.516532 4.11286
-1.67666 -0.516614 4.1396
-1.70315 -0.516773 4.11531
-1.7878 -0.516937 4.06194
-1.70953 -0.517063 4.09002
-1.67751 -0.517241 4.09496
-1.63906 -0.517424 4.10311
-1.91738 -0.517612 3.95287
-1.27136 -0.517752 4.26479
-1.61561 -0.517993 4.08156
-1.7169 -0.518199 4.0198
-1.68114 -0.518405 4.02657
-1.61089 -0.518625 4.05056
-1.53503 -0.518844 4.07734
-1.58627 -0.519067 4.04057
-1.40784 -0.519295 4.11862
-1.60394 -0.519526 4.0094
-1.63639 -0.519873 3.98194
-1.26676 -0.520117 4.15555
-1.56259 -0.520366 3.99643
-1.73997 -0.520682 3.89648
-1.59826 -0.520938 3.95609
-1.53092 -0.521198 3.97851
-1.37722 -0.521607 4.04402
-1.54743 -0.52194 3.94759
-1.44047 -0.522215 3.98977
-1.64346 -0.522494 3.87697
-1.51004 -0.522836 3.93231
-1.34265 -0.523121 4.00466
-1.34709 -0.523468 3.99105
-1.62122 -0.52376 3.84261
-1.56091 -0.524296 3.86121
-1.51047 -0.524598 3.87502
-1.30131 -0.524959 3.96814
-1.52801 -0.525266 3.84334
-1.60542 -0.525631 3.79314
-1.42495 -0.525944 3.8719
-1.68698 -0.526313 3.72935
-1.32016 -0.526684 3.90121
-1.49408 -0.527056 3.80269
-1.31982 -0.527378 3.87828
-1.31524 -0.527754 3.86896
-1.54835 -0.528131 3.74079
-1.32255 -0.52846 3.84211
-1.4938 -0.52884 3.74483
-1.18073 -0.529222 3.88969
-1.36519 -0.529604 3.78577
-1.45816 -0.529987 3.72759
-1.35484 -0.530324 3.76757
-1.34511 -0.53071 3.7607
-1.25731 -0.530848 3.79312
-1.15657 -0.531233 3.83172
-1.09133 -0.531617 3.85256
-1.23991 -0.532002 3.76647
-1.25567 -0.53209 3.74713
-1.36301 -0.532474 3.68163
-1.27401 -0.532859 3.71429
-1.18924 -0.532985 3.74514
-1.38436 -0.533326 3.63577
-1.1167 -0.533449 3.75804
-1.19507 -0.53357 3.70731
-1.18069 -0.533949 3.7026
-1.15636 -0.534028 3.70326
-1.01321 -0.534143 3.76327
-1.2678 -0.534257 3.62441
-0.961075 -0.534332 3.76625
-1.0928 -0.534442 3.68882
-1.05845 -0.534515 3.69448
-1.12922 -0.534635 3.6475
-0.992723 -0.534719 3.7042
-1.20353 -0.534803 3.58725
-1.24461 -0.534665 3.5555
-1.11191 -0.534706 3.61037
-1.04144 -0.534826 3.63399
-1.193 -0.534905 3.54666
-1.02815 -0.534983 3.61754
-1.26108 -0.53506 3.48952
-1.09676 -0.534878 3.56055
-1.14522 -0.534953 3.52477
-1.23395 -0.535027 3.46886
-0.892794 -0.535137 3.62782
-1.04451 -0.534988 3.54079
-1.09898 -0.535024 3.50207
-0.946585 -0.535094 3.56671
-1.05627 -0.535163 3.50032
-1.04332 -0.535231 3.49524
-1.14598 -0.535045 3.43282
-0.913541 -0.535144 3.53743
-1.00948 -0.535209 3.4779
-1.03347 -0.535053 3.45477
-1.04859 -0.535085 3.43573
-1.02471 -0.535147 3.43611
-1.00598 -0.535208 3.43393
-1.11282 -0.535049 3.36939
-1.09701 -0.535079 3.36581
-0.978044 -0.535166 3.41369
-1.07395 -0.535006 3.35464
-1.18708 -0.535034 3.28659
-1.1285 -0.535089 3.30434
-0.872362 -0.535143 3.42086
-0.858425 -0.534953 3.41681
-1.00013 -0.535006 3.33442
-0.986514 -0.535082 3.32963
-0.966347 -0.534893 3.32871
-1.02754 -0.534942 3.28658
-0.829118 -0.53499 3.37425
-0.886833 -0.534801 3.3344
-0.860647 -0.534847 3.33596
-1.0397 -0.534892 3.23491
-0.949696 -0.534725 3.26888
-1.00945 -0.534747 3.22753
-0.642452 -0.53481 3.39946
-0.809785 -0.534622 3.30482
-1.06574 -0.534662 3.16533
-0.93161 -0.534701 3.22088
-0.95901 -0.534514 3.19622
-1.04253 -0.534551 3.14295
-0.891608 -0.534587 3.20691
-0.968361 -0.534401 3.15759
-1.07158 -0.534435 3.09447
-0.852434 -0.534284 3.19302
-1.04455 -0.5343 3.08551
-0.864723 -0.534331 3.16393
-0.819214 -0.534162 3.17572
-0.953734 -0.534176 3.09702
-0.947791 -0.534205 3.0885
-0.767291 -0.534036 3.1678
-0.90957 -0.534049 3.08522
-0.722819 -0.534074 3.16712
-0.901996 -0.533906 3.06659
-0.924309 -0.533929 3.04397
-0.918542 -0.533761 3.03592
-0.96615 -0.533771 3.00069
-0.856686 -0.533792 3.04396
-0.863375 -0.533624 3.0297
-0.868232 -0.533633 3.01585
-0.871997 -0.533651 3.00252
-0.953587 -0.533476 2.95084
-0.806061 -0.533491 3.01316
-0.854311 -0.533506 2.9776
-0.916471 -0.533333 2.93565
-0.666682 -0.533351 3.04909
-1.02794 -0.533181 2.85759
-1.00964 -0.533191 2.85532
-0.733098 -0.533028 2.98271
-1.08123 -0.533032 2.79725
-0.641108 -0.533039 3.0059
-0.728957 -0.532874 2.95112
-1.02976 -0.53288 2.78931
-0.850979 -0.532884 2.86731
-1.04898 -0.532721 2.75746
-0.69651 -0.532724 2.9223
-0.82023 -0.532565 2.84958
-0.706356 -0.532565 2.89515
-0.788963 -0.532407 2.84299
-0.676044 -0.532405 2.88808
-0.888458 -0.532403 2.77052
-0.627862 -0.532248 2.88997
-0.97672 -0.532243 2.70419
-0.55424 -0.532091 2.90458
-0.976547 -0.532085 2.68208
-0.659384 -0.532077 2.82932
-0.765181 -0.531928 2.76558
-0.724833 -0.531919 2.77443
-0.986559 -0.531774 2.63271
-0.751374 -0.531756 2.73901
-0.791859 -0.531621 2.70789
-0.644177 -0.531601 2.77045
-0.811288 -0.531463 2.67604
-0.552296 -0.531447 2.79424
-0.651884 -0.531431 2.73316
-0.698964 -0.531295 2.69876
-0.648588 -0.531277 2.71267
-0.455402 -0.531146 2.79841
-0.870189 -0.531125 2.57975
-0.793132 -0.530998 2.60741
-0.14294 -0.530976 2.92125
-0.616202 -0.530953 2.67336
-0.587301 -0.530828 2.67695
-0.521592 -0.530803 2.69856
-0.738124 -0.530683 2.57943
-0.444678 -0.530656 2.71492
-0.719106 -0.53054 2.56683
-0.885727 -0.530511 2.4723
-0.970117 -0.530399 2.41921
-0.597582 -0.530368 2.59428
-0.764697 -0.53032 2.49958
-0.734625 -0.530227 2.50366
-0.801951 -0.530177 2.45888
-0.711531 -0.530089 2.49312
-0.732344 -0.530035 2.47161
-0.792449 -0.529934 2.43065
-0.528975 -0.529896 2.55123
-0.828215 -0.5298 2.39069
-0.415943 -0.52976 2.58568
-0.575571 -0.529667 2.49494
-0.724751 -0.529626 2.40921
-0.707087 -0.529538 2.4071
-0.536225 -0.529494 2.48141
-0.456762 -0.52941 2.51019
-0.538909 -0.529364 2.45801
-0.698699 -0.529285 2.36715
-0.490935 -0.529237 2.45993
-0.684306 -0.529162 2.35227
-0.699292 -0.529112 2.33369
-0.754312 -0.529042 2.29519
-0.69585 -0.52899 2.31335
-0.606386 -0.528923 2.34708
-0.441303 -0.52887 2.41857
-0.451996 -0.528808 2.4022
-0.756199 -0.528752 2.23906
-0.681915 -0.528694 2.26517
-0.611788 -0.528637 2.2892
-0.712766 -0.528579 2.22769
-0.740063 -0.52852 2.20302
-0.293694 -0.528464 2.41518
-0.513531 -0.528403 2.29425
-0.640587 -0.528352 2.21968
-0.6866 -0.528288 2.18568
-0.648567 -0.528241 2.19364
-0.617071 -0.528199 2.1983
-0.715125 -0.528133 2.13831
-0.491787 -0.528096 2.23888
-0.313388 -0.528028 2.31712
-0.54812 -0.527994 2.18864
-0.514788 -0.527959 2.1942
-0.363498 -0.527895 2.25888
-0.743276 -0.527859 2.05789
-0.389744 -0.527834 2.2235
-0.463676 -0.527798 2.17544
-0.601343 -0.52774 2.09562
-0.362197 -0.527724 2.204
-0.44924 -0.527686 2.14939
-0.799563 -0.527636 1.96321
-0.536589 -0.52763 2.08346
-0.401117 -0.52759 2.14013
-0.29455 -0.527548 2.18236
-0.253251 -0.52755 2.19173
-0.569461 -0.527509 2.02257
-0.359183 -0.527473 2.11662
-0.569992 -0.527484 1.9999
-0.561697 -0.527442 1.993
-0.457014 -0.527457 2.034
-0.476009 -0.527476 2.01313
-0.297268 -0.527432 2.09147
-0.213631 -0.527412 2.12213
-0.348731 -0.527439 2.04317
-0.503785 -0.527472 1.9542
-0.502831 -0.527426 1.94366
-0.362615 -0.527462 2.00231
-0.397041 -0.527503 1.97361
-0.0845588 -0.5275 2.1186
-0.470896 -0.527597 1.91365
-0.436696 -0.527548 1.91974
-0.407406 -0.527601 1.92283
-0.593422 -0.527657 1.81824
-0.552316 -0.527718 1.8272
-0.415725 -0.527783 1.88386
-0.464722 -0.527851 1.84772
-0.219881 -0.527923 1.95846
-0.334274 -0.527998 1.88957
-0.325738 -0.528077 1.88212
-0.354882 -0.52816 1.85581
-0.281827 -0.528302 1.88025
-0.303108 -0.528397 1.85779
-0.397709 -0.528495 1.79864
-0.351039 -0.528755 1.80921
-0.392955 -0.528917 1.77603
-0.358163 -0.52903 1.78148
-0.16478 -0.529317 1.86522
-0.194141 -0.529492 1.83822
-0.164144 -0.529852 1.83982
-0.248014 -0.529982 1.78581
-0.348237 -0.530359 1.72217
-0.303369 -0.530998 1.72953
-0.138268 -0.531399 1.79837
-0.212283 -0.532334 1.74448
-1.56882 -0.510174 4.55086
-1.89771 -0.508339 4.37407
-1.96058 -0.507389 4.33092
-1.69997 -0.506793 4.44976
-2.00061 -0.506138 4.28797
-1.69566 -0.505805 4.42917
-1.96812 -0.505203 4.28154
-2.03187 -0.504722 4.23836
-1.97977 -0.504542 4.25327
-2.0141 -0.504279 4.22493
-1.67695 -0.503875 4.38228
-2.08163 -0.503656 4.16881
-1.63945 -0.503456 4.37879
-1.68025 -0.503404 4.34734
-1.8175 -0.503233 4.26763
-1.51893 -0.503082 4.40584
-1.81039 -0.503054 4.24908
-1.74876 -0.502933 4.26884
-1.71918 -0.50292 4.27261
-1.75044 -0.502831 4.24595
-1.86941 -0.502833 4.17544
-1.95741 -0.50284 4.12043
-1.64623 -0.502793 4.265
-1.94119 -0.502844 4.10651
-1.70016 -0.502877 4.21602
-1.96314 -0.502916 4.07351
-1.78774 -0.503008 4.1502
-1.46593 -0.503063 4.3001
-1.61414 -0.503187 4.21497
-1.65889 -0.503256 4.18158
-1.72279 -0.503331 4.13861
-1.66309 -0.503484 4.15743
-1.74427 -0.50364 4.1058
-1.55529 -0.503755 4.18925
-1.54545 -0.503926 4.18312
-1.72548 -0.504102 4.08205
-1.63555 -0.504259 4.11595
-1.71283 -0.504449 4.06623
-2.02515 -0.504643 3.89899
-1.61543 -0.504841 4.09276
-1.54268 -0.505044 4.11803
-1.64264 -0.505251 4.05694
-1.60896 -0.505461 4.06265
-1.84327 -0.505765 3.93434
-1.23281 -0.505989 4.22842
-1.67199 -0.506218 3.99767
-1.68103 -0.50645 3.98198
-1.62239 -0.5068 4.00007
-1.5926 -0.507045 4.00377
-1.62695 -0.507294 3.97538
-1.55858 -0.507546 3.99835
-1.77874 -0.507941 3.87697
-1.5447 -0.508266 3.9827
-1.42742 -0.508534 4.03007
-1.36104 -0.508805 4.05198
-1.81433 -0.509139 3.81401
-1.57368 -0.509416 3.92302
-1.46269 -0.509867 3.96709
-1.58181 -0.510213 3.89615
-1.45812 -0.510504 3.94663
-1.51083 -0.510854 3.90887
-1.48525 -0.511341 3.91014
-1.38345 -0.5117 3.94958
-1.3579 -0.51206 3.95089
-1.45996 -0.512369 3.88841
-1.6745 -0.512733 3.76964
-1.27844 -0.51331 3.95598
-1.33732 -0.513629 3.91504
-1.20588 -0.514002 3.9692
-1.30135 -0.514377 3.90988
-1.45187 -0.514752 3.82303
-1.25856 -0.515079 3.90811
-1.50081 -0.515457 3.77536
-1.37063 -0.516071 3.82857
-1.4221 -0.516454 3.79117
-1.33186 -0.516838 3.82459
-1.38128 -0.517222 3.78818
-1.24589 -0.517607 3.84415
-1.48063 -0.517946 3.71508
-1.29534 -0.518332 3.79597
-1.36792 -0.518718 3.7479
-1.23074 -0.51936 3.80441
-1.13869 -0.519748 3.83861
-1.03995 -0.520136 3.87615
-1.12306 -0.520524 3.82274
-1.08696 -0.520912 3.82892
-1.08147 -0.521299 3.81978
-1.32656 -0.521686 3.68533
-1.10389 -0.521807 3.78509
-1.13776 -0.522191 3.75622
-1.11784 -0.522575 3.75424
-0.858929 -0.522652 3.87214
-1.18757 -0.523033 3.69586
-0.967754 -0.523146 3.79415
-1.32678 -0.523257 3.60302
-0.819136 -0.523597 3.8449
-1.24267 -0.523437 3.62189
-0.947624 -0.523508 3.75785
-0.96414 -0.523626 3.73795
-1.16564 -0.523709 3.6256
-1.15718 -0.523523 3.61864
-1.09382 -0.523604 3.63873
-0.967874 -0.523683 3.69011
-1.11988 -0.523535 3.60287
-1.32072 -0.523573 3.49092
-1.05108 -0.523688 3.61408
-1.00522 -0.523536 3.62579
-1.15873 -0.523573 3.53751
-0.75488 -0.523647 3.72784
-1.13259 -0.523491 3.52778
-1.19978 -0.523527 3.48266
-0.893522 -0.523598 3.62419
-0.94726 -0.523439 3.58614
-1.15107 -0.523473 3.4727
-0.758947 -0.523575 3.65711
-1.09821 -0.52338 3.47637
-1.08534 -0.523446 3.47122
-0.889524 -0.523511 3.55754
-0.954367 -0.523315 3.51403
-0.908351 -0.523378 3.52545
-0.807517 -0.52344 3.56428
-0.912383 -0.523242 3.50077
-1.03152 -0.523332 3.42956
-0.831505 -0.523164 3.51845
-0.790444 -0.523193 3.52746
-0.926104 -0.52325 3.44805
-0.726136 -0.523051 3.53699
-1.14132 -0.523106 3.31782
-0.9653 -0.523161 3.39425
-1.12008 -0.522961 3.30583
-1.00532 -0.523014 3.35165
-0.901451 -0.522841 3.39251
-0.984545 -0.522891 3.33939
-1.07206 -0.52294 3.28407
-0.963585 -0.52274 3.32731
-0.760404 -0.522788 3.41734
-0.954741 -0.522612 3.30913
-0.677809 -0.522635 3.43609
-1.01356 -0.522679 3.25666
-0.808033 -0.522502 3.3484
-1.03368 -0.522523 3.22408
-0.884702 -0.522366 3.2875
-0.877607 -0.522386 3.27956
-0.990448 -0.522426 3.2116
-1.00405 -0.522247 3.1938
-0.651409 -0.522265 3.35863
-0.741006 -0.522302 3.3023
-0.48245 -0.522105 3.42064
-0.690902 -0.522139 3.30489
-0.789393 -0.52196 3.24467
-0.996133 -0.521976 3.12983
-0.731878 -0.521813 3.25095
-0.973198 -0.521828 3.11882
-0.648519 -0.521858 3.26965
-1.03462 -0.521678 3.06566
-1.00183 -0.521692 3.07059
-1.01669 -0.521719 3.05165
-0.931023 -0.521525 3.0836
-1.14685 -0.52155 2.96419
-0.739433 -0.521371 3.15698
-0.82519 -0.521382 3.10265
-0.872886 -0.521416 3.06728
-0.854992 -0.521214 3.06539
-0.987381 -0.521245 2.98769
-0.782978 -0.521056 3.07903
-0.819919 -0.521074 3.04909
-0.836884 -0.520896 3.02972
-0.711656 -0.520904 3.0809
-0.956418 -0.52092 2.94706
-0.823522 -0.520735 3.00266
-0.876219 -0.520748 2.96487
-0.502314 -0.520572 3.14096
-0.938759 -0.520577 2.91131
-0.595793 -0.520594 3.07134
-0.679357 -0.520407 3.01874
-0.82743 -0.520421 2.93326
-0.895459 -0.520242 2.88842
-0.836732 -0.520249 2.90637
-0.811917 -0.520075 2.90794
-0.645332 -0.520078 2.97983
-0.849159 -0.520082 2.86651
-0.898534 -0.519908 2.83101
-0.775302 -0.51991 2.88123
-0.736482 -0.519739 2.88982
-0.748284 -0.519739 2.87254
-0.850205 -0.519737 2.8102
-0.778432 -0.519567 2.83528
-0.846216 -0.519564 2.79002
-0.955157 -0.519397 2.72474
-0.800049 -0.519392 2.79094
-0.575495 -0.519228 2.89241
-0.819732 -0.519221 2.75894
-0.418768 -0.519061 2.94862
-0.710546 -0.519052 2.79139
-0.591726 -0.519042 2.83946
-0.870983 -0.518884 2.68904
-0.72803 -0.518873 2.74919
-0.790463 -0.518718 2.70717
-0.777033 -0.518705 2.70257
-0.879519 -0.518554 2.64053
-0.44934 -0.518531 2.84434
-0.803554 -0.518514 2.65594
-0.44003 -0.518365 2.8269
-0.85916 -0.518347 2.60605
-0.751049 -0.518202 2.64931
-0.38345 -0.518181 2.82183
-0.751474 -0.51804 2.62702
-0.624045 -0.518018 2.67947
-0.865745 -0.51788 2.54781
-0.530793 -0.517856 2.70403
-0.94314 -0.517722 2.48705
-0.639193 -0.517696 2.62778
-0.771385 -0.517566 2.55086
-0.684856 -0.517538 2.5829
-0.70072 -0.517412 2.56414
-0.622694 -0.517382 2.59194
-0.729665 -0.517352 2.52724
-0.492366 -0.517228 2.63507
-0.710741 -0.517196 2.51468
-0.689089 -0.517077 2.51467
-0.65278 -0.517043 2.52164
-0.804969 -0.516927 2.4347
-0.774838 -0.516891 2.4386
-0.695765 -0.51678 2.46728
-0.639478 -0.516742 2.48427
-0.53246 -0.516635 2.52691
-0.817806 -0.516595 2.37309
-0.732185 -0.516492 2.40503
-0.783354 -0.51645 2.36832
-0.612291 -0.516351 2.44297
-0.66345 -0.516308 2.40627
-0.803201 -0.516213 2.3255
-0.857655 -0.516167 2.28716
-0.540453 -0.516077 2.43486
-0.880766 -0.516006 2.25372
-0.468709 -0.515943 2.44872
-0.829289 -0.515869 2.25747
-0.764303 -0.515812 2.27892
-0.745543 -0.515735 2.27735
-0.531316 -0.515682 2.3734
-0.707139 -0.515603 2.27456
-0.519292 -0.515548 2.35744
-0.579162 -0.515493 2.31647
-0.295446 -0.515417 2.44739
-0.831037 -0.51536 2.16857
-0.554724 -0.515288 2.29578
-0.631764 -0.515229 2.24625
-0.62254 -0.515161 2.2399
-0.33679 -0.5151 2.37178
-0.491527 -0.515036 2.28344
-0.40865 -0.514973 2.3139
-0.507401 -0.514913 2.25353
-0.371881 -0.514881 2.31017
-0.419882 -0.514793 2.27532
-0.47039 -0.514776 2.23887
-0.426209 -0.514709 2.25001
-0.57073 -0.514663 2.16671
-0.782243 -0.514594 2.05002
-0.659356 -0.514553 2.1004
-0.681539 -0.514516 2.07822
-0.344265 -0.514444 2.23595
-0.539804 -0.514408 2.12709
-0.59249 -0.514337 2.08984
-0.552397 -0.514309 2.09876
-0.5328 -0.514271 2.09749
-0.593929 -0.514208 2.05598
-0.596028 -0.514189 2.04377
-0.199632 -0.514149 2.23091
-0.517149 -0.514094 2.06117
-0.589745 -0.514083 2.01367
-0.47741 -0.514042 2.05879
-0.195365 -0.514036 2.18859
-0.419322 -0.513994 2.06557
-0.528749 -0.51395 1.99984
-0.484251 -0.513952 2.01082
-0.646752 -0.513958 1.91827
-0.445218 -0.513915 2.00802
-0.398348 -0.513881 2.02037
-0.427028 -0.513896 1.9947
-0.513608 -0.513915 1.94005
-0.455361 -0.513869 1.95816
-0.298876 -0.513892 2.02502
-0.460727 -0.51392 1.93269
-0.718056 -0.513873 1.79302
-0.288573 -0.513904 1.99633
-0.353157 -0.51394 1.95259
-0.506059 -0.513931 1.86493
-0.469228 -0.513974 1.87184
-0.427607 -0.514021 1.88113
-0.303502 -0.514072 1.93163
-0.657537 -0.514177 1.74275
-0.300093 -0.514127 1.9105
-0.437813 -0.514185 1.83004
-0.225683 -0.514248 1.92448
-0.745255 -0.514318 1.65303
-0.381332 -0.514393 1.82329
-0.336054 -0.514471 1.8342
-0.389754 -0.514553 1.7956
-0.308533 -0.51478 1.82361
-0.499326 -0.514874 1.71638
-0.101536 -0.51497 1.90343
-0.345863 -0.515123 1.76908
-0.34567 -0.515226 1.75728
-0.243078 -0.515495 1.79568
-0.343131 -0.515661 1.73336
-0.214743 -0.515949 1.78453
-0.099449 -0.516124 1.82981
-0.256623 -0.516483 1.73774
-0.280231 -0.516852 1.71238
-0.281926 -0.517231 1.69789
-0.271967 -0.51787 1.68762
-0.117266 -0.518785 1.748
-1.64259 -0.496585 4.5248
-1.8905 -0.494812 4.38848
-1.94491 -0.49435 4.34985
-1.76589 -0.493544 4.42774
-1.55501 -0.492702 4.52158
-1.82618 -0.492385 4.37473
-1.93228 -0.491813 4.31029
-1.78701 -0.491534 4.37171
-1.91344 -0.49127 4.29731
-1.80088 -0.490942 4.34238
-1.89012 -0.490713 4.28662
-1.84217 -0.490501 4.29946
-1.94095 -0.490308 4.23896
-1.78273 -0.490259 4.30703
-1.70142 -0.490094 4.3366
-1.69055 -0.489948 4.33097
-1.73813 -0.489823 4.29612
-1.88507 -0.489806 4.21163
-1.46756 -0.489711 4.40935
-1.64697 -0.489709 4.30863
-1.80585 -0.489645 4.21817
-1.81346 -0.489659 4.20336
-1.87336 -0.489677 4.1624
-1.79049 -0.489689 4.19283
-1.81914 -0.489728 4.1675
-1.88903 -0.489772 4.12155
-1.56769 -0.489821 4.27122
-1.52386 -0.489935 4.28213
-1.65013 -0.489999 4.20798
-1.7022 -0.49014 4.17094
-1.80091 -0.490214 4.11057
-1.67249 -0.490308 4.16375
-1.80997 -0.490468 4.08399
-1.86032 -0.490632 4.04778
-1.7442 -0.490768 4.0948
-1.78906 -0.490945 4.06132
-1.71349 -0.491128 4.08804
-1.6999 -0.491305 4.08378
-1.783 -0.491501 4.03115
-1.66944 -0.491699 4.07685
-1.67175 -0.491905 4.06459
-1.71111 -0.492113 4.03381
-1.76698 -0.49239 3.99474
-1.76648 -0.492635 3.98386
-1.75685 -0.49286 3.97753
-1.79419 -0.493089 3.9477
-1.64949 -0.493435 4.00885
-1.83117 -0.493676 3.90683
-1.73155 -0.493921 3.94545
-1.70621 -0.494231 3.94689
-1.59339 -0.494483 3.99208
-1.47155 -0.494879 4.04171
-1.72085 -0.495142 3.90581
-1.9198 -0.495468 3.79504
-1.63573 -0.495896 3.92571
-1.52965 -0.496173 3.96745
-1.46351 -0.496511 3.98918
-1.32307 -0.496794 4.04807
-1.50495 -0.497314 3.94565
-1.52978 -0.497607 3.92187
-1.51633 -0.497958 3.91718
-1.26529 -0.498256 4.0313
-1.44571 -0.498807 3.9295
-1.34035 -0.499167 3.97071
-1.55815 -0.499475 3.85036
-1.634 -0.500048 3.80077
-1.26334 -0.500416 3.97457
-1.4899 -0.501004 3.84956
-1.43122 -0.501327 3.86737
-1.48245 -0.501702 3.83016
-1.56734 -0.502307 3.77591
-1.21385 -0.502686 3.94102
-1.26129 -0.503066 3.90564
-1.22538 -0.503685 3.91171
-1.2636 -0.504068 3.8809
-1.33581 -0.504697 3.83284
-1.16034 -0.505082 3.90884
-1.18818 -0.505718 3.88291
-1.21715 -0.506105 3.85665
-1.10726 -0.506746 3.89952
-1.25921 -0.507434 3.81139
-1.21409 -0.50808 3.82182
-1.38494 -0.508728 3.72423
-0.791946 -0.513607 3.59944
-1.08037 -0.513139 3.44461
-0.797306 -0.512905 3.57507
-0.808282 -0.512701 3.55847
-0.904485 -0.512496 3.49926
-0.73406 -0.512291 3.57337
-0.955508 -0.512085 3.45156
-0.774529 -0.511907 3.53091
-0.931737 -0.511934 3.44074
-0.886607 -0.511727 3.45224
-0.940285 -0.511781 3.41379
-0.902519 -0.511573 3.42162
-0.96642 -0.511391 3.37857
-0.926338 -0.511416 3.38706
-0.640579 -0.511209 3.51891
-0.75515 -0.511257 3.45002
-0.90886 -0.511049 3.36216
-1.00377 -0.511096 3.3031
-1.01769 -0.510888 3.28514
-0.581032 -0.510932 3.49188
-1.0266 -0.510724 3.25811
-1.29762 -0.510559 3.11152
-0.799741 -0.51058 3.34893
-0.922179 -0.510392 3.27669
-0.94791 -0.510412 3.2523
-0.721099 -0.510224 3.35471
-0.9553 -0.510243 3.22609
-0.847027 -0.510055 3.26924
-0.854133 -0.510073 3.25417
-0.815307 -0.510108 3.26202
-0.743593 -0.509901 3.28696
-0.676281 -0.509935 3.30906
-0.753377 -0.509728 3.2596
-0.607764 -0.509776 3.32082
-0.915986 -0.50957 3.15581
-0.62367 -0.509599 3.29043
-0.916045 -0.509394 3.13335
-0.937412 -0.509422 3.11114
-0.715832 -0.509218 3.21105
-0.730353 -0.509244 3.19226
-0.858942 -0.509054 3.11706
-0.951982 -0.509066 3.05906
-0.726806 -0.508876 3.16076
-0.841368 -0.508887 3.092
-0.791564 -0.508909 3.1054
-0.690135 -0.508708 3.14527
-1.09937 -0.508738 2.92913
-0.858681 -0.508538 3.03864
-0.800301 -0.508556 3.05634
-0.834027 -0.508358 3.02865
-0.640409 -0.508374 3.11398
-0.872671 -0.508185 2.987
-0.875894 -0.508192 2.97395
-0.955941 -0.508005 2.92309
-0.539886 -0.508011 3.11968
-0.712111 -0.508022 3.02211
-1.04703 -0.507829 2.84384
-0.720054 -0.507839 2.99589
-0.650186 -0.507652 3.02001
-0.557563 -0.507659 3.05488
-0.764601 -0.507471 2.94058
-0.543634 -0.507476 3.03963
-0.647461 -0.507292 2.97693
-1.00985 -0.507294 2.78432
-0.7634 -0.507111 2.89676
-0.840821 -0.507112 2.84665
-0.632769 -0.507113 2.93927
-0.879871 -0.50693 2.80495
-0.702984 -0.506929 2.882
-0.526806 -0.506749 2.95932
-0.970856 -0.506744 2.72592
-0.556397 -0.506569 2.92238
-0.759909 -0.506562 2.80926
-0.797524 -0.506387 2.77969
-0.910413 -0.50638 2.71189
-0.754937 -0.506209 2.77887
-0.767688 -0.5062 2.76115
-0.717847 -0.506031 2.77531
-0.936564 -0.50602 2.65461
-0.797602 -0.506009 2.71276
-0.828243 -0.505842 2.68669
-0.523846 -0.505829 2.82756
-0.789273 -0.505666 2.6841
-0.65439 -0.505651 2.74023
-0.638404 -0.505491 2.73747
-0.67887 -0.505474 2.70594
-0.797836 -0.505317 2.6357
-0.82492 -0.505299 2.61087
-1.006 -0.505269 2.50909
-0.773456 -0.505114 2.61461
-0.735973 -0.505092 2.62208
-0.471979 -0.504941 2.74333
-0.685659 -0.504795 2.62573
-0.634576 -0.50477 2.64002
-0.738291 -0.504627 2.5774
-0.494535 -0.504601 2.68804
-0.758143 -0.504573 2.545
-0.588995 -0.504433 2.61881
-0.539715 -0.504404 2.63223
-0.697954 -0.504267 2.54234
-0.785549 -0.504236 2.48734
-0.731726 -0.504104 2.50348
-0.718153 -0.504071 2.49907
-0.561884 -0.503942 2.56642
-0.633193 -0.503907 2.51959
-0.638685 -0.503782 2.50605
-0.610092 -0.503746 2.50918
-0.54314 -0.503624 2.53186
-0.728549 -0.503586 2.428
-0.755603 -0.503469 2.40367
-0.562622 -0.503429 2.48902
-0.592561 -0.503315 2.46324
-0.977898 -0.503273 2.25944
-0.624847 -0.503164 2.42514
-0.677433 -0.50312 2.38773
-0.407706 -0.503014 2.51177
-0.545054 -0.502969 2.43199
-0.415252 -0.502867 2.48605
-0.444816 -0.50282 2.46018
-0.472023 -0.502722 2.43572
-0.433254 -0.502673 2.44403
-0.399113 -0.50258 2.45024
-0.18105 -0.502529 2.54821
-0.698449 -0.502439 2.27864
-0.523021 -0.502387 2.35531
-0.614759 -0.502301 2.29855
-0.495961 -0.502221 2.34704
-0.428206 -0.502165 2.36989
-0.545666 -0.502089 2.30024
-0.656469 -0.502032 2.23383
-0.539863 -0.501959 2.2812
-0.439024 -0.5019 2.32063
-0.450914 -0.501824 2.30377
-0.435362 -0.501771 2.30053
-0.543783 -0.501707 2.23536
-0.47784 -0.501644 2.25736
-0.328039 -0.50158 2.32131
-0.554602 -0.501515 2.19707
-0.387424 -0.501453 2.2697
-0.678069 -0.501387 2.11344
-0.544767 -0.501329 2.16912
-0.554388 -0.50126 2.15339
-0.518072 -0.501206 2.16055
-0.671647 -0.501157 2.07275
-0.474063 -0.501086 2.16065
-0.554568 -0.501041 2.10936
-0.393529 -0.501001 2.17883
-0.67203 -0.500927 2.0287
-0.773726 -0.500889 1.96679
-0.50652 -0.500815 2.08953
-0.554365 -0.500782 2.05452
-0.615833 -0.500743 2.01274
-0.484664 -0.500715 2.06721
-0.507571 -0.500676 2.04472
-0.620526 -0.500612 1.97733
-0.653989 -0.500593 1.94945
-0.668205 -0.500552 1.93131
-0.445959 -0.500537 2.03126
-0.305763 -0.500484 2.0904
-0.667644 -0.500478 1.89824
-0.449615 -0.500435 1.99624
-0.623031 -0.500389 1.89854
-0.750765 -0.500435 1.82316
-0.348768 -0.500391 2.01316
-0.56895 -0.500352 1.89203
-0.399544 -0.500362 1.96543
-0.238201 -0.500377 2.03477
-0.515859 -0.500331 1.88495
-0.541269 -0.500349 1.8609
-0.312308 -0.500325 1.96427
-0.310097 -0.500351 1.95397
-0.274745 -0.50043 1.95995
-0.410545 -0.500381 1.88108
-0.255501 -0.500416 1.94715
-0.503621 -0.500405 1.8119
-0.00929425 -0.500446 2.04757
-0.366603 -0.500496 1.85737
-0.53638 -0.50055 1.76091
-0.42843 -0.500608 1.80329
-0.276858 -0.50067 1.86745
-0.473646 -0.500736 1.7574
-0.44947 -0.500805 1.75781
-0.429981 -0.500879 1.75585
-0.304305 -0.500956 1.80696
-0.324033 -0.501037 1.78534
-0.430465 -0.501173 1.72003
-0.189735 -0.501261 1.82859
-0.229487 -0.501352 1.79688
-0.385982 -0.501447 1.70678
-0.310829 -0.501597 1.73214
-0.30682 -0.501698 1.72224
-0.07757 -0.501962 1.82394
-0.366572 -0.502125 1.66713
-0.162245 -0.502406 1.75624
-0.146677 -0.502578 1.75164
-0.261632 -0.502929 1.68064
-0.254147 -0.50329 1.67078
-0.251949 -0.503659 1.6582
-0.160497 -0.504533 1.68701
-1.5493 -0.483264 4.58242
-1.79233 -0.482082 4.4489
-1.96524 -0.481175 4.35069
-1.83133 -0.480308 4.40595
-2.11044 -0.479491 4.25477
-1.95253 -0.479184 4.32247
-1.84145 -0.478628 4.36661
-1.79719 -0.478358 4.37753
-1.7363 -0.478103 4.39679
-1.90155 -0.477785 4.30296
-1.78833 -0.477563 4.34842
-1.88155 -0.477359 4.29069
-1.86837 -0.477173 4.28617
-1.93053 -0.477005 4.244
-1.6918 -0.47689 4.3523
-1.69137 -0.476827 4.34148
-1.60797 -0.476706 4.37213
-2.02109 -0.476616 4.15453
-1.83446 -0.476601 4.23683
-1.8631 -0.476526 4.21149
-1.86233 -0.47654 4.20087
-1.76283 -0.4765 4.23961
-1.87123 -0.476524 4.17441
-1.7582 -0.476553 4.21993
-1.81287 -0.476626 4.18161
-1.83926 -0.47667 4.15741
-1.93413 -0.476703 4.09898
-1.85298 -0.476762 4.12855
-1.72248 -0.476896 4.1828
-1.88371 -0.47697 4.09118
-1.88915 -0.477049 4.07745
-1.85549 -0.477201 4.08327
-1.70825 -0.477358 4.14588
-1.70517 -0.477483 4.13639
-1.72869 -0.477653 4.1136
-1.78961 -0.477809 4.0721
-1.89313 -0.477993 4.00929
-1.74989 -0.478181 4.06985
-1.50103 -0.478373 4.18321
-1.65319 -0.478569 4.09606
-1.54993 -0.478769 4.1366
-1.69446 -0.479055 4.05322
-1.75172 -0.479268 4.01348
-1.61595 -0.479485 4.07024
-1.56805 -0.479807 4.08303
-1.42332 -0.480035 4.14425
-1.41982 -0.480268 4.13484
-1.63235 -0.480625 4.01736
-1.94323 -0.480869 3.85073
-1.50467 -0.481117 4.05881
-1.58887 -0.481507 4.00544
-1.64847 -0.481824 3.96439
-1.60675 -0.482086 3.974
-1.51029 -0.482351 4.01097
-1.45784 -0.482835 4.02581
-1.58907 -0.483111 3.9489
-1.53518 -0.48356 3.96444
-1.51641 -0.4839 3.96247
-1.71897 -0.484188 3.84984
-1.60265 -0.484717 3.89649
-1.64859 -0.485067 3.8621
-1.71162 -0.485561 3.81906
-1.72347 -0.485918 3.80167
-1.4881 -0.486429 3.90777
-1.44376 -0.486792 3.91845
-1.71391 -0.487156 3.77185
-1.36433 -0.487738 3.93494
-1.45764 -0.488329 3.87654
-1.36256 -0.488701 3.9125
-1.36868 -0.489303 3.89764
-1.40437 -0.489913 3.86796
-1.24759 -0.490291 3.9347
-1.13775 -0.490909 3.97773
-1.4945 -0.491532 3.78743
-1.48008 -0.49216 3.78268
-1.22416 -0.492837 3.8986
-1.33746 -0.493721 3.82967
-1.22304 -0.494908 3.87425
-0.557972 -0.501545 3.52822
-1.03947 -0.500534 3.27832
-0.896156 -0.500061 3.33956
-0.964948 -0.499846 3.29415
-0.844628 -0.49961 3.34335
-0.853459 -0.499395 3.32793
-0.753098 -0.49918 3.36713
-0.786194 -0.498964 3.3396
-0.745914 -0.498768 3.34872
-0.65953 -0.498553 3.38095
-0.853464 -0.498571 3.27243
-0.967978 -0.498356 3.20423
-0.732141 -0.498158 3.31116
-0.975709 -0.498175 3.17783
-1.13023 -0.49796 3.08965
-0.718256 -0.497761 3.28468
-0.762318 -0.497777 3.25111
-1.03917 -0.497578 3.10174
-0.787578 -0.497592 3.21601
-0.913714 -0.497379 3.14205
-0.96663 -0.497406 3.10403
-0.697631 -0.497193 3.22766
-0.892394 -0.496993 3.11937
-0.69811 -0.497006 3.205
-0.986654 -0.496806 3.04984
-0.97523 -0.496818 3.04405
-0.767685 -0.496618 3.13694
-0.766465 -0.496628 3.12606
-0.978439 -0.496419 3.00924
-0.7878 -0.49623 3.09367
-0.870734 -0.496239 3.04072
-0.843062 -0.49604 3.04371
-0.713762 -0.496048 3.09688
-0.922553 -0.49585 2.98166
-0.928711 -0.495857 2.9671
-0.690095 -0.495659 3.07559
-0.576418 -0.495666 3.12097
-0.835992 -0.495468 2.98037
-0.687658 -0.495474 3.04308
-0.840982 -0.495277 2.95562
-0.810879 -0.495282 2.95922
-0.889002 -0.495086 2.90938
-0.839938 -0.49509 2.92246
-0.78616 -0.494898 2.93857
-0.594312 -0.494901 3.02306
-0.784015 -0.494706 2.91744
-0.779889 -0.494708 2.90808
-0.597043 -0.494515 2.98875
-0.784134 -0.494516 2.88378
-0.978313 -0.494324 2.77595
-0.74938 -0.494324 2.879
-0.846501 -0.494134 2.8197
-0.920763 -0.494132 2.77117
-0.891051 -0.494129 2.77462
-0.711746 -0.49394 2.85355
-0.965469 -0.493933 2.71531
-0.93702 -0.493749 2.71881
-0.856427 -0.49374 2.74774
-0.661635 -0.493555 2.83442
-0.684844 -0.493547 2.81145
-0.558424 -0.493365 2.86395
-0.688373 -0.493355 2.78762
-0.914979 -0.493176 2.66361
-0.914755 -0.493164 2.65238
-0.717329 -0.492988 2.74038
-0.628598 -0.492974 2.77342
-0.938993 -0.492801 2.60752
-0.745883 -0.492785 2.69275
-0.904535 -0.492615 2.60272
-0.823075 -0.492598 2.63214
-0.706494 -0.49243 2.67973
-0.597275 -0.492411 2.72304
-0.770631 -0.492247 2.62566
-0.851987 -0.492226 2.5737
-0.657306 -0.492065 2.66034
-0.894212 -0.492043 2.53061
-0.906133 -0.491885 2.51394
-0.6673 -0.491849 2.62215
-0.89084 -0.491706 2.49962
-0.752432 -0.491667 2.55764
-0.63543 -0.491515 2.60543
-0.689931 -0.491487 2.56695
-0.750476 -0.491339 2.52596
-0.554984 -0.491309 2.61249
-0.843422 -0.491164 2.45755
-0.59086 -0.491133 2.57263
-0.678639 -0.490992 2.51801
-0.706431 -0.490958 2.49293
-0.882504 -0.490821 2.39416
-0.748049 -0.490786 2.45021
-0.732315 -0.490651 2.44734
-0.455955 -0.490615 2.57436
-0.419113 -0.490484 2.58204
-0.516831 -0.490446 2.52203
-0.653426 -0.490319 2.44299
-0.561159 -0.490279 2.47798
-0.728293 -0.490156 2.38366
-0.632771 -0.490114 2.4203
-0.587413 -0.489994 2.43221
-0.533947 -0.489951 2.44784
-0.596023 -0.489835 2.40603
-0.626878 -0.48979 2.3795
-0.578316 -0.489678 2.393
-0.559954 -0.489631 2.3911
-0.339922 -0.489523 2.49033
-0.738831 -0.489474 2.27981
-0.70152 -0.48937 2.28766
-0.371993 -0.489319 2.44137
-0.457807 -0.489219 2.38765
-0.717851 -0.489124 2.2468
-0.345239 -0.48907 2.42208
-0.732656 -0.488979 2.21753
-0.477943 -0.488924 2.33387
-0.846174 -0.488837 2.1389
-0.422234 -0.488779 2.33987
-0.750455 -0.488696 2.16489
-0.572398 -0.488637 2.24293
-0.568738 -0.488558 2.23388
-0.683804 -0.488497 2.16538
-0.587687 -0.488422 2.20255
-0.495903 -0.488359 2.23748
-0.639736 -0.488288 2.15466
-0.554208 -0.488224 2.18648
-0.386649 -0.488156 2.25934
-0.576897 -0.48809 2.15329
-0.538082 -0.488023 2.16178
-0.556705 -0.487958 2.14154
-0.431337 -0.48789 2.19333
-0.638196 -0.487829 2.07896
-0.613744 -0.487758 2.0803
-0.654013 -0.487702 2.0492
-0.355983 -0.487666 2.18715
-0.45395 -0.487576 2.12739
-0.542532 -0.487566 2.0719
-0.568257 -0.487491 2.04819
-0.393209 -0.487447 2.1247
-0.471411 -0.487408 2.07456
-0.506825 -0.487331 2.04603
-0.626699 -0.487295 1.97504
-0.463213 -0.487256 2.04575
-0.426536 -0.487185 2.05324
-0.287483 -0.487158 2.11166
-0.412132 -0.487117 2.03832
-0.323134 -0.487052 2.07194
-0.471654 -0.487076 1.9863
-0.52464 -0.486991 1.94904
-0.424749 -0.486977 1.98783
-0.383383 -0.486967 1.99733
-0.567084 -0.486923 1.89448
-0.447311 -0.486873 1.94342
-0.474127 -0.486871 1.91878
-0.3453 -0.486873 1.97194
-0.317404 -0.486828 1.97491
-0.433395 -0.486834 1.90564
-0.372511 -0.486844 1.92478
-0.49495 -0.486797 1.8526
-0.322488 -0.486811 1.92751
-0.502228 -0.486829 1.82629
-0.612256 -0.486803 1.76019
-0.497245 -0.486831 1.80629
-0.572392 -0.486864 1.75728
-0.120218 -0.486901 1.97189
-0.216019 -0.486853 1.91304
-0.543333 -0.486895 1.73789
-0.460733 -0.48694 1.76767
-0.441949 -0.48699 1.76551
-0.323247 -0.487043 1.81328
-0.488564 -0.487101 1.71902
-0.312062 -0.487163 1.79564
-0.445877 -0.487228 1.71707
-0.44516 -0.487297 1.70575
-0.327298 -0.487369 1.75297
-0.442176 -0.487445 1.68379
-0.40104 -0.487524 1.6926
-0.463468 -0.487607 1.6496
-0.21444 -0.487693 1.76231
-0.251955 -0.487834 1.73138
-0.144261 -0.487926 1.77337
-0.178058 -0.488173 1.7436
-0.224183 -0.488327 1.70826
-0.347882 -0.488431 1.63446
-0.269356 -0.488754 1.66033
-0.490377 -0.488865 1.5378
-0.264911 -0.489204 1.63701
-0.192247 -0.489552 1.65974
-0.309177 -0.489908 1.5876
-0.333569 -0.490512 1.56006
-0.0498817 -0.491874 1.68146
-1.65691 -0.469956 4.53958
-1.66914 -0.468808 4.52144
-2.09052 -0.467712 4.29882
-1.66563 -0.467086 4.49972
-1.77273 -0.466293 4.43454
-1.82418 -0.465995 4.39755
-1.95224 -0.465632 4.32223
-1.85471 -0.465195 4.35967
-1.7492 -0.464948 4.40124
-1.57365 -0.46464 4.47781
-1.66817 -0.464426 4.4194
-1.89413 -0.464229 4.2953
-1.6317 -0.46405 4.41541
-1.85409 -0.463888 4.29313
-1.88968 -0.463777 4.26427
-1.89109 -0.463643 4.25251
-1.78896 -0.463602 4.29255
-2.1972 -0.463515 4.0774
-1.97396 -0.46343 4.17798
-1.75502 -0.46343 4.27646
-1.64286 -0.463446 4.32155
-1.89481 -0.463389 4.18456
-1.79062 -0.463433 4.22567
-1.75999 -0.463427 4.22998
-1.88811 -0.463466 4.15493
-1.89753 -0.463511 4.13923
-1.87992 -0.463614 4.13706
-1.83977 -0.463672 4.14613
-1.57612 -0.463804 4.26698
-1.62299 -0.463878 4.23254
-1.89711 -0.463956 4.08447
-1.9278 -0.464105 4.05813
-1.4836 -0.464219 4.26922
-1.77716 -0.464382 4.11142
-1.67442 -0.464526 4.15177
-1.91371 -0.464702 4.02109
-1.75416 -0.464883 4.08982
-1.84845 -0.465065 4.03163
-1.86986 -0.465255 4.00986
-1.87691 -0.465456 3.99527
-1.83534 -0.465719 4.00497
-1.65301 -0.465948 4.08503
-1.64443 -0.466161 4.07822
-1.79113 -0.466378 3.99376
-1.88021 -0.466704 3.93807
-1.71732 -0.466933 4.00837
-1.57214 -0.467165 4.06981
-1.83566 -0.467524 3.92684
-1.51227 -0.467768 4.07736
-1.45014 -0.468151 4.09717
-1.64167 -0.468462 3.99017
-1.50143 -0.468719 4.04907
-1.65501 -0.469132 3.96097
-1.55279 -0.469455 4.00079
-1.4883 -0.469725 4.02176
-1.48304 -0.470166 4.01301
-1.50169 -0.4705 3.99235
-1.40539 -0.47096 4.02907
-1.4752 -0.471301 3.98279
-1.41367 -0.471833 4.00204
-1.52656 -0.472128 3.93421
-1.63662 -0.472676 3.86761
-1.55905 -0.473233 3.8948
-1.36586 -0.473541 3.97994
-1.68693 -0.473901 3.8079
-1.43309 -0.474476 3.92314
-1.53942 -0.475059 3.85826
-1.45077 -0.47565 3.89083
-1.49102 -0.476247 3.85893
-1.35202 -0.476851 3.91661
-1.35932 -0.477507 3.90106
-1.37514 -0.478359 3.88105
-1.34204 -0.478978 3.88568
-1.3541 -0.480134 3.86719
-0.648817 -0.487738 3.33294
-0.848829 -0.487266 3.22267
-1.02246 -0.486794 3.12561
-0.820114 -0.486558 3.2159
-0.810051 -0.486102 3.21068
-0.702706 -0.485882 3.25345
-0.832377 -0.485662 3.17773
-0.911417 -0.485442 3.12732
-0.847908 -0.485454 3.14752
-0.983204 -0.485234 3.069
-0.453022 -0.485015 3.32324
-0.82622 -0.484807 3.12575
-0.527946 -0.484818 3.26335
-0.94118 -0.4846 3.0459
-0.663345 -0.484382 3.17399
-0.801992 -0.484175 3.09381
-0.793693 -0.484184 3.08644
-0.889058 -0.483968 3.02795
-0.792468 -0.483984 3.06471
-0.901792 -0.483769 2.99926
-0.613879 -0.483562 3.1324
-0.802702 -0.483568 3.02649
-0.764454 -0.483355 3.03484
-0.506657 -0.483367 3.15222
-0.798799 -0.483155 2.99539
-0.955851 -0.482949 2.90609
-0.847594 -0.482954 2.94874
-0.735707 -0.482748 2.99392
-0.590223 -0.482752 3.05519
-0.83649 -0.482544 2.92132
-0.816642 -0.482343 2.92049
-0.693348 -0.482345 2.97068
-0.604681 -0.482142 3.00428
-0.790628 -0.482144 2.89986
-0.731359 -0.48194 2.91878
-0.582704 -0.481942 2.98166
-0.812907 -0.48174 2.85585
-0.698803 -0.481739 2.90147
-0.613287 -0.481539 2.93353
-0.650577 -0.481537 2.90347
-0.666857 -0.481338 2.88463
-1.02296 -0.481334 2.69518
-0.728024 -0.481137 2.83196
-0.817332 -0.481129 2.77592
-0.616981 -0.480937 2.8654
-0.757536 -0.480926 2.78376
-0.689655 -0.480733 2.80702
-0.665446 -0.480723 2.80776
-0.481855 -0.480533 2.88889
-0.751792 -0.480345 2.74325
-0.888743 -0.480333 2.66342
-0.943617 -0.480148 2.62532
-0.626277 -0.480135 2.77265
-0.856815 -0.479952 2.64672
-0.660929 -0.479937 2.73333
-0.802694 -0.479757 2.65179
-0.593415 -0.47974 2.74511
-0.632971 -0.479563 2.71468
-0.626762 -0.479544 2.70648
-0.799064 -0.47937 2.60967
-0.912955 -0.47935 2.54144
-0.670626 -0.479178 2.65194
-0.366345 -0.479156 2.79281
-0.921111 -0.478988 2.50477
-0.842498 -0.478964 2.53281
-0.536209 -0.478798 2.6753
-0.600833 -0.478773 2.63173
-0.793397 -0.47861 2.5248
-0.878061 -0.478569 2.47129
-0.671419 -0.478424 2.56389
-0.725883 -0.47838 2.5255
-0.747795 -0.478224 2.50388
-0.639301 -0.478193 2.54692
-0.601904 -0.478039 2.55496
-0.897821 -0.478007 2.3958
-0.803125 -0.477857 2.43248
-0.504458 -0.477822 2.57063
-0.532598 -0.477676 2.5459
-0.686781 -0.477533 2.45812
-0.60393 -0.477497 2.48839
-0.75797 -0.477358 2.40068
-0.854304 -0.477319 2.34137
-0.732157 -0.477184 2.39175
-0.669729 -0.477143 2.41183
-0.453237 -0.477012 2.50938
-0.5346 -0.476969 2.45758
-0.377758 -0.476841 2.5253
-0.708606 -0.476798 2.34877
-0.608497 -0.476673 2.38811
-0.656936 -0.476627 2.3528
-0.684726 -0.476507 2.32818
-0.489403 -0.476459 2.41477
-0.585142 -0.476342 2.35617
-0.833366 -0.476293 2.221
-0.777385 -0.47618 2.23825
-0.618494 -0.476071 2.30694
-0.434007 -0.476019 2.38815
-0.743458 -0.475914 2.22265
-0.653753 -0.475861 2.25648
-0.559241 -0.47576 2.29296
-0.573793 -0.475705 2.27468
-0.636976 -0.475607 2.2323
-0.523305 -0.475551 2.27814
-0.610669 -0.475486 2.22351
-0.585395 -0.475399 2.22532
-0.64291 -0.475339 2.1856
-0.486607 -0.475249 2.25294
-0.473335 -0.475187 2.24862
-0.50754 -0.475101 2.22071
-0.44372 -0.475038 2.24168
-0.836638 -0.474955 2.03439
-0.333919 -0.47489 2.27483
-0.423963 -0.474811 2.21896
-0.699382 -0.474745 2.07035
-0.564895 -0.4747 2.12656
-0.503427 -0.474601 2.14658
-0.84087 -0.474564 1.9668
-0.496847 -0.474495 2.12793
-0.389146 -0.474427 2.17089
-0.330392 -0.474356 2.18941
-0.527223 -0.474293 2.08009
-0.317971 -0.474234 2.17379
-0.241372 -0.47416 2.20126
-0.494989 -0.474105 2.06351
-0.67886 -0.474054 1.96061
-0.552364 -0.473978 2.01304
-0.547842 -0.473931 2.00433
-0.411056 -0.473889 2.06172
-0.320246 -0.47381 2.09633
-0.61649 -0.473771 1.93719
-0.5802 -0.473731 1.94433
-0.552234 -0.473697 1.94727
-0.387262 -0.473656 2.01876
-0.529988 -0.473625 1.93633
-0.504272 -0.473557 1.93835
-0.509565 -0.473535 1.9246
-0.476399 -0.473492 1.9302
-0.513024 -0.473431 1.90102
-0.603996 -0.473417 1.84439
-0.497806 -0.473452 1.88604
-0.431039 -0.473363 1.90873
-0.192732 -0.473357 2.01668
-0.356742 -0.473355 1.92345
-0.190939 -0.473309 1.9954
-0.386742 -0.473311 1.88626
-0.398708 -0.47327 1.8693
-0.607607 -0.473283 1.75354
-0.413575 -0.4733 1.83922
-0.366363 -0.473321 1.85146
-0.373363 -0.473274 1.83702
-0.503354 -0.473299 1.76063
-0.207518 -0.473329 1.89713
-0.366734 -0.473363 1.80608
-0.0361425 -0.473315 1.96045
-0.351155 -0.473352 1.79147
-0.43675 -0.473394 1.73717
-0.139094 -0.47344 1.87446
-0.392042 -0.47344 1.73676
-0.279067 -0.473493 1.78166
-0.162742 -0.47355 1.82822
-0.327329 -0.47361 1.73429
-0.0138969 -0.473674 1.87935
-0.41241 -0.473742 1.6684
-0.268701 -0.473813 1.72855
-0.251495 -0.473887 1.72541
-0.295851 -0.473964 1.69147
-0.358087 -0.474097 1.64822
-0.481201 -0.474181 1.57485
-0.306107 -0.474267 1.65056
-0.123506 -0.47441 1.72964
-0.440131 -0.474502 1.55944
-0.222349 -0.474749 1.65539
-0.268607 -0.474903 1.61994
-0.0953108 -0.475005 1.69462
-0.210699 -0.475327 1.62344
0.00939114 -0.475658 1.71992
-0.21551 -0.475997 1.59383
-0.568205 -0.476344 1.40378
-0.204568 -0.477591 1.56559
-1.52498 -0.456663 4.6165
-1.73894 -0.455548 4.49748
-1.77275 -0.454485 4.46862
-1.67614 -0.453877 4.50537
-1.76918 -0.453295 4.44735
-1.80093 -0.45282 4.42007
-1.81044 -0.452468 4.40402
-1.97744 -0.452045 4.3092
-1.89432 -0.451806 4.33957
-1.6749 -0.451508 4.43807
-1.84564 -0.451302 4.34156
-1.73676 -0.451112 4.38488
-1.92733 -0.450939 4.27849
-1.56733 -0.450823 4.44742
-1.94167 -0.450676 4.24918
-1.90121 -0.450548 4.25835
-1.9602 -0.450439 4.21781
-1.79515 -0.450426 4.28933
-1.91593 -0.450345 4.21791
-1.86165 -0.450346 4.23406
-1.9342 -0.450294 4.18678
-1.52902 -0.450309 4.37838
-1.85302 -0.450286 4.20538
-1.94736 -0.45035 4.14724
-2.07647 -0.450389 4.0717
-1.89899 -0.450415 4.14945
-1.54745 -0.450469 4.31424
-1.88569 -0.45059 4.13415
-1.75158 -0.450658 4.19021
-1.85486 -0.450731 4.12758
-1.63048 -0.450873 4.22878
-1.63573 -0.450977 4.21516
-1.63539 -0.451132 4.20433
-1.80226 -0.451265 4.10988
-1.93562 -0.451434 4.03219
-1.76042 -0.451596 4.10877
-1.58492 -0.451777 4.18548
-1.6032 -0.451962 4.16531
-1.61825 -0.452151 4.14673
-1.58125 -0.452344 4.15417
-1.55921 -0.452621 4.15411
-1.6138 -0.452826 4.11573
-1.6708 -0.453034 4.07614
-1.67064 -0.453345 4.06509
-1.684 -0.453565 4.04729
-1.70783 -0.453843 4.02423
-1.62917 -0.454132 4.0524
-1.81971 -0.454435 3.94594
-1.68861 -0.454733 4.0003
-1.88865 -0.454979 3.88909
-1.49155 -0.455369 4.07638
-1.74988 -0.455774 3.93593
-1.59068 -0.45609 4.00427
-1.43066 -0.456355 4.07302
-1.58675 -0.456787 3.98363
-1.73512 -0.457114 3.89813
-1.28677 -0.457565 4.1109
-1.46603 -0.457899 4.00992
-1.40297 -0.45842 4.02996
-1.54533 -0.458709 3.94742
-1.42321 -0.459245 3.99694
-1.3322 -0.45979 4.03088
-1.41418 -0.460345 3.97828
-1.72112 -0.46065 3.81336
-1.59899 -0.461217 3.86277
-1.45534 -0.461792 3.9229
-1.5027 -0.462643 3.88728
-1.3601 -0.463234 3.94682
-1.3307 -0.46383 3.94971
-1.49551 -0.464942 3.85504
-1.41551 -0.465786 3.88294
-0.591362 -0.474965 3.24354
-0.733433 -0.474006 3.16388
-0.814106 -0.473537 3.11344
-0.765583 -0.47307 3.12761
-0.737929 -0.472847 3.1306
-0.851589 -0.472614 3.06298
-0.788114 -0.472391 3.0839
-0.732467 -0.472169 3.10091
-0.460013 -0.471946 3.22634
-0.799576 -0.471725 3.04577
-0.770994 -0.471738 3.0485
-0.710706 -0.47151 3.06789
-0.737544 -0.47129 3.04371
-0.627069 -0.471076 3.08817
-0.626532 -0.470857 3.07768
-0.776828 -0.470644 2.99178
-0.760575 -0.470648 2.9884
-0.97635 -0.470431 2.86978
-0.684191 -0.470218 3.00513
-0.626915 -0.470221 3.02228
-0.540691 -0.470006 3.05468
-0.795728 -0.469795 2.91644
-0.586566 -0.469797 3.00955
-0.921839 -0.469584 2.83122
-0.878326 -0.469587 2.84151
-0.454723 -0.469375 3.04262
-0.653516 -0.469166 2.93255
-0.639344 -0.469165 2.92819
-0.783027 -0.468957 2.84567
-0.837984 -0.468954 2.80676
-0.726533 -0.468747 2.85183
-0.85069 -0.468543 2.77909
-0.663446 -0.468538 2.86129
-0.614367 -0.468335 2.87518
-0.523381 -0.468328 2.90927
-0.80182 -0.468127 2.75941
-0.791425 -0.468114 2.75323
-0.935464 -0.467914 2.67058
-0.479877 -0.467904 2.887
-0.563147 -0.467706 2.83474
-0.625704 -0.467511 2.79283
-0.881081 -0.467498 2.65378
-0.648524 -0.467305 2.75944
-0.64101 -0.467291 2.75185
-0.742428 -0.4671 2.69053
-0.728455 -0.466913 2.6869
-0.73844 -0.466896 2.67058
-0.660591 -0.46671 2.69889
-0.6738 -0.466692 2.68097
-0.755858 -0.466509 2.62933
-0.584101 -0.466489 2.70391
-0.931387 -0.466309 2.51966
-0.563718 -0.466287 2.69221
-0.643271 -0.466109 2.64182
-0.660848 -0.466086 2.62176
-0.383527 -0.465911 2.74982
-0.767936 -0.465886 2.54635
-0.736226 -0.465714 2.5516
-0.680239 -0.465687 2.56835
-0.467786 -0.465518 2.66397
-0.549068 -0.465475 2.61216
-0.871813 -0.465323 2.44012
-0.590391 -0.465277 2.56968
-0.769635 -0.465129 2.46939
-0.411651 -0.465081 2.63725
-0.570757 -0.464921 2.54709
-0.740293 -0.464781 2.45163
-0.322518 -0.464729 2.64942
-0.542706 -0.464594 2.52862
-0.546761 -0.464539 2.51551
-0.374143 -0.464408 2.59111
-0.899181 -0.464351 2.31753
-0.764162 -0.464204 2.37442
-0.77954 -0.464164 2.35559
-0.687093 -0.464021 2.39119
-0.458301 -0.463979 2.49446
-0.72933 -0.463839 2.34831
-0.704879 -0.463796 2.34943
-0.64889 -0.463659 2.36678
-0.922093 -0.463614 2.21909
-0.534563 -0.463481 2.40221
-0.358244 -0.463375 2.47959
-0.540043 -0.463304 2.37774
-0.624646 -0.463179 2.32477
-0.602553 -0.46313 2.32476
-0.549064 -0.463008 2.34083
-0.319383 -0.462957 2.44463
-0.600091 -0.462839 2.29359
-0.639643 -0.462787 2.26279
-0.529598 -0.462672 2.30712
-0.391265 -0.462588 2.36543
-0.693038 -0.462506 2.20369
-0.591484 -0.462427 2.24359
-0.693625 -0.462372 2.18153
-0.595615 -0.462269 2.2198
-0.453278 -0.462211 2.28
-0.806607 -0.462112 2.09259
-0.359282 -0.462018 2.30549
-0.712486 -0.461957 2.11794
-0.367534 -0.461867 2.27964
-0.591351 -0.461804 2.1568
-0.340788 -0.461718 2.27129
-0.61014 -0.461647 2.12574
-0.208445 -0.461571 2.31574
-0.483625 -0.461492 2.16733
-0.567442 -0.461426 2.11452
-0.628745 -0.461351 2.07303
-0.314132 -0.46128 2.21948
-0.465357 -0.461212 2.133
-0.51844 -0.461142 2.0956
-0.480422 -0.461072 2.10376
-0.681497 -0.461001 1.99238
-0.456043 -0.460931 2.09426
-0.626012 -0.460866 1.9984
-0.516647 -0.460793 2.04226
-0.447908 -0.460731 2.06575
-0.336486 -0.460694 2.11043
-0.754995 -0.460598 1.8905
-0.580953 -0.460584 1.96636
-0.473033 -0.460506 2.00955
-0.621879 -0.460457 1.92418
-0.493987 -0.460413 1.97715
-0.440336 -0.460332 1.99323
-0.631877 -0.460291 1.88647
-0.521261 -0.460251 1.93079
-0.36496 -0.460172 1.99819
-0.324516 -0.460139 2.00738
-0.3002 -0.46011 2.00849
-0.743989 -0.460067 1.77562
-0.632686 -0.460042 1.8202
-0.237155 -0.459999 2.00701
-0.35234 -0.459978 1.93832
-0.371826 -0.459917 1.91774
-0.50367 -0.459904 1.84067
-0.398681 -0.459858 1.88223
-0.459898 -0.459849 1.84045
-0.610484 -0.459801 1.75424
-0.309984 -0.459802 1.89326
-0.599853 -0.459853 1.73678
-0.350028 -0.459761 1.85106
-0.251107 -0.459771 1.88923
-0.28373 -0.459785 1.86161
-0.24601 -0.459803 1.86913
-0.530788 -0.459756 1.71582
-0.275696 -0.459778 1.832
-0.281937 -0.459757 1.8178
-0.307317 -0.459787 1.79369
-0.388204 -0.459821 1.74179
-0.240178 -0.459859 1.80433
-0.035883 -0.45981 1.89558
-0.185151 -0.459852 1.80944
-0.528835 -0.459897 1.62607
-0.358457 -0.459946 1.6997
-0.587361 -0.459999 1.57366
-0.25667 -0.460055 1.72739
-0.493358 -0.460004 1.59817
-0.353659 -0.460064 1.65638
-0.450112 -0.460126 1.59649
-0.470231 -0.460192 1.57474
-0.335527 -0.460262 1.63038
-0.189449 -0.460462 1.69079
-0.32121 -0.46054 1.61312
-0.451947 -0.460621 1.53594
-0.327291 -0.460758 1.58605
-0.372894 -0.460845 1.55139
-0.298501 -0.460934 1.57671
-0.159262 -0.461174 1.63337
-0.14387 -0.461325 1.62872
-0.208303 -0.461634 1.58303
-0.127127 -0.461737 1.61161
-0.158517 -0.46206 1.58231
-0.00510685 -0.462614 1.64372
-0.377431 -0.462954 1.44379
-0.147579 -0.464232 1.53809
-1.79534 -0.443383 4.49226
-1.81313 -0.442302 4.4713
-1.7069 -0.44127 4.51245
-1.97094 -0.440681 4.36887
-1.76495 -0.440193 4.46041
-1.78107 -0.439658 4.44089
-1.86071 -0.439317 4.38977
-1.91564 -0.438908 4.35097
-2.06081 -0.438678 4.26721
-1.79192 -0.43839 4.39044
-1.74133 -0.438191 4.40459
-2.05444 -0.438007 4.23692
-1.70813 -0.437841 4.39897
-1.91801 -0.437729 4.28297
-1.91193 -0.437588 4.27494
-1.9009 -0.437465 4.2694
-1.71974 -0.437361 4.34893
-1.94045 -0.437274 4.22755
-1.9479 -0.437272 4.21283
-1.96171 -0.437213 4.19492
-1.97838 -0.437225 4.1756
-1.67087 -0.437195 4.31836
-1.78324 -0.43722 4.2512
-1.81794 -0.43725 4.22287
-1.90354 -0.437258 4.16909
-1.73083 -0.43735 4.24448
-1.82071 -0.437403 4.18856
