ply
format ascii 1.0
comment Created by Open3D
element vertex 1941
property double x
property double y
property double z
end_header
-2.23961 1.64764 3.69525
-2.21775 1.65245 3.69534
-2.40333 1.66889 4.08762
-2.30393 1.66287 4.12598
-2.29269 1.65885 4.12066
-2.39223 1.65529 4.06007
-2.36969 1.65278 4.06072
-2.47798 1.65002 3.99595
-2.57624 1.64781 3.9363
-2.56613 1.64572 3.93089
-2.4692 1.64422 3.96898
-2.50011 1.64277 3.94317
-2.62966 1.64138 3.86807
-2.3112 1.63967 4.01696
-2.43063 1.63843 3.94698
-2.3154 1.63725 3.99433
-2.37612 1.63667 3.95379
-2.3967 1.63562 3.93328
-2.49101 1.63517 3.87597
-2.46243 1.63444 3.88009
-2.4594 1.63409 3.87146
-2.5403 1.63327 3.82085
-2.61736 1.63306 3.7722
-2.3951 1.63292 3.87321
-2.37652 1.63234 3.87237
-2.44301 1.6323 3.82902
-2.37704 1.63231 3.8519
-2.43706 1.63238 3.81179
-2.42179 1.63251 3.80932
-2.34982 1.63272 3.8352
-2.19426 1.6323 3.90287
-2.44415 1.63261 3.76782
-2.29573 1.63299 3.83192
-2.40839 1.63398 3.76546
-2.36901 1.6345 3.77502
-2.4723 1.63508 3.71324
-2.3859 1.63572 3.74629
-2.53189 1.63642 3.66314
-2.4291 1.63775 3.70434
-2.4298 1.63858 3.6938
-2.5054 1.63946 3.6458
-2.31846 1.64097 3.72902
-2.29848 1.64249 3.72874
-2.24246 1.64413 3.74645
-2.21525 1.64641 3.74968
-2.29084 1.64879 3.70147
-2.2515 1.65128 3.71069
-2.20145 1.65385 3.72522
-2.23631 1.65722 3.69718
-2.32349 1.66203 3.64276
-2.08129 1.67555 3.7519
-2.1252 1.68069 4.22663
-2.5225 1.67439 4.01661
-2.514 1.66943 4.00978
-2.42941 1.66569 4.04123
-2.3922 1.66325 4.04925
-2.43388 1.66038 4.01777
-2.70332 1.65816 3.87255
-2.52386 1.65656 3.95188
-2.51299 1.65453 3.94688
-2.55552 1.65307 3.91528
-2.41345 1.65167 3.976
-2.335 1.65032 4.00494
-2.50794 1.64958 3.90825
-2.48959 1.64836 3.90717
-2.42658 1.6472 3.92845
-2.34494 1.64665 3.9591
-2.51526 1.64562 3.86374
-2.51066 1.64466 3.85586
-2.45467 1.6443 3.87372
-2.40077 1.64402 3.89055
-2.53201 1.64326 3.81479
-2.54593 1.64318 3.79773
-2.60787 1.64307 3.75666
-2.55828 1.64249 3.77134
-2.29524 1.64249 3.89276
-2.59959 1.64256 3.73049
-2.55197 1.64269 3.74421
-2.43658 1.64279 3.79181
-2.51675 1.64303 3.74163
-2.3625 1.64333 3.80865
-2.33514 1.64371 3.81222
-2.47141 1.64416 3.73398
-2.35211 1.64467 3.78351
-2.45901 1.64525 3.71994
-2.51313 1.64589 3.68274
-2.3314 1.64623 3.76347
-2.29595 1.64792 3.771
-2.31439 1.64875 3.7516
-2.39829 1.65021 3.69943
-2.35992 1.65115 3.70841
-2.43077 1.65272 3.66272
-2.28038 1.65433 3.72763
-2.43523 1.65603 3.63989
-2.35705 1.65839 3.66858
-2.18724 1.66086 3.74305
-2.2769 1.6641 3.68768
-2.18328 1.66806 3.72382
-2.10906 1.67157 3.75027
-2.07464 1.68081 3.75607
-2.30474 1.69247 4.13681
-2.37587 1.68501 4.08969
-2.51177 1.68037 4.01072
-2.51613 1.67725 3.99781
-2.48208 1.6736 4.00407
-2.41894 1.67125 4.02509
-2.3151 1.66955 4.06659
-2.4128 1.66686 4.0072
-2.49866 1.6653 3.95391
-2.37399 1.66334 4.00586
-2.39351 1.66192 3.98579
-2.45147 1.66111 3.94658
-2.45152 1.65981 3.9363
-2.44039 1.65858 3.93162
-2.438 1.65741 3.9226
-2.44899 1.65685 3.90694
-2.39369 1.65582 3.9244
-2.56397 1.65539 3.82913
-2.35792 1.65449 3.922
-2.44915 1.6542 3.86627
-2.29187 1.65353 3.93479
-2.49497 1.65335 3.82314
-2.57269 1.65323 3.77419
-2.59098 1.65264 3.75493
-2.34824 1.65264 3.86622
-2.42445 1.6527 3.81803
-2.43233 1.65276 3.804
-2.38766 1.65293 3.81626
-2.54109 1.65317 3.72946
-2.47573 1.65347 3.75204
-2.5013 1.65385 3.72917
-2.34032 1.65429 3.79955
-2.39221 1.65454 3.76351
-2.31826 1.65508 3.79037
-2.34595 1.65569 3.7664
-2.4267 1.65694 3.71587
-2.45678 1.65767 3.69069
-2.44632 1.65847 3.68576
-2.37802 1.66036 3.70967
-2.29737 1.6613 3.7398
-2.22943 1.66288 3.76352
-2.15967 1.66394 3.78816
-2.26765 1.6662 3.72383
-2.21467 1.66857 3.73993
-2.16306 1.67105 3.75531
-2.28114 1.67362 3.68581
-2.14518 1.67758 3.74314
-2.22952 1.68241 3.69017
-2.30103 1.68954 3.64328
-2.48853 1.70425 4.04487
-2.46996 1.6967 4.04259
-2.48099 1.69143 4.02596
-2.26897 1.68759 4.12114
-2.56606 1.68509 3.96201
-2.53243 1.68214 3.9682
-2.37753 1.67985 4.03515
-2.59229 1.67712 3.91725
-2.51742 1.6761 3.9444
-2.46036 1.67412 3.96254
-2.60886 1.67214 3.87794
-2.59718 1.67132 3.87356
-2.49717 1.67002 3.91331
-2.48703 1.66877 3.90815
-2.40461 1.66814 3.9392
-2.44342 1.66703 3.9096
-2.59523 1.66598 3.82352
-2.52366 1.66555 3.84918
-2.52875 1.66463 3.83649
-2.54373 1.66448 3.8189
-2.55318 1.66422 3.80408
-2.57525 1.66348 3.78293
-2.39396 1.66336 3.86349
-2.42647 1.66332 3.83715
-2.40105 1.66332 3.83979
-2.68617 1.66278 3.68714
-2.40556 1.66287 3.81737
-2.39894 1.66304 3.81061
-2.50966 1.66327 3.74517
-2.33193 1.66358 3.82396
-2.41447 1.66375 3.7726
-2.5152 1.66416 3.71215
-2.446 1.66464 3.73666
-2.34615 1.66518 3.77648
-2.43304 1.66637 3.7229
-2.43799 1.66704 3.7103
-2.35465 1.66778 3.74183
-2.5315 1.66916 3.64323
-2.31573 1.67002 3.74095
-2.28457 1.67093 3.74635
-2.34291 1.673 3.7069
-2.24167 1.67465 3.74726
-2.43753 1.67692 3.63899
-2.37835 1.67811 3.65831
-2.24245 1.68056 3.71585
-2.53052 1.68439 3.56124
-2.29861 1.68706 3.6667
-2.14717 1.69188 3.73165
-2.28726 1.69764 3.65065
-2.28403 1.71657 4.14715
-2.319 1.70762 4.11789
-2.53232 1.70232 4.00012
-2.50282 1.69845 4.00405
-2.31012 1.69538 4.08974
-2.47434 1.69241 3.99702
-2.5453 1.6901 3.95105
-2.42751 1.68843 3.99957
-2.45309 1.68632 3.97636
-2.58027 1.68479 3.90245
-2.35642 1.68289 4.00404
-2.48873 1.68151 3.92762
-2.56751 1.68019 3.87798
-2.58878 1.67893 3.85713
-2.50252 1.6783 3.8901
-2.62825 1.67717 3.81705
-2.49297 1.6761 3.87452
-2.46371 1.67567 3.87904
-2.61387 1.67548 3.79387
-2.39678 1.67459 3.89228
-2.50812 1.67433 3.82653
-2.52193 1.67357 3.80952
-2.54942 1.67345 3.7857
-2.32597 1.67342 3.88735
-2.40148 1.6734 3.83953
-2.67179 1.67343 3.69431
-2.39574 1.67294 3.82226
-2.501 1.67311 3.75956
-2.40002 1.67334 3.79999
-2.51476 1.67348 3.73255
-2.30956 1.67382 3.82508
-2.69919 1.67423 3.62019
-2.26294 1.6747 3.82823
-2.40813 1.67583 3.74552
-2.42229 1.67643 3.72834
-2.44552 1.67711 3.70661
-2.49319 1.67784 3.67265
-2.42638 1.67923 3.69589
-2.31614 1.68009 3.74085
-2.39228 1.6816 3.69257
-2.34297 1.68258 3.70704
-2.42659 1.68474 3.65493
-2.31454 1.68645 3.70068
-2.32122 1.68821 3.68704
-2.35749 1.69068 3.65851
-2.28456 1.69385 3.68448
-2.3441 1.69721 3.64415
-2.17813 1.70131 3.71646
-2.14996 1.70707 3.71962
-2.40702 1.72914 4.08574
-2.40297 1.71872 4.07575
-2.40828 1.71334 4.062
-2.46836 1.70941 4.02113
-2.40015 1.70563 4.04449
-2.51689 1.7032 3.97559
-2.58396 1.70031 3.9315
-2.5895 1.69863 3.91836
-2.48269 1.6965 3.96136
-2.35714 1.69496 4.01383
-2.47002 1.69348 3.9471
-2.55959 1.69206 3.89206
-2.53045 1.69032 3.89635
-2.4055 1.68962 3.94866
-2.49879 1.68841 3.89183
-2.41089 1.68727 3.9256
-2.38982 1.68701 3.92604
-2.48249 1.68597 3.86955
-2.4727 1.68557 3.86435
-2.40176 1.68466 3.8897
-2.50459 1.6844 3.82821
-2.50843 1.68421 3.81622
-2.40612 1.68356 3.85729
-2.3869 1.68347 3.85684
-2.43821 1.68346 3.82113
-2.44221 1.68347 3.80907
-2.4416 1.68357 3.79932
-2.41617 1.68373 3.80197
-2.54375 1.68337 3.72812
-2.46671 1.68352 3.75659
-2.40013 1.68385 3.77981
-2.54081 1.68484 3.6994
-2.45855 1.68532 3.73045
-2.28898 1.68586 3.80515
-2.52663 1.68647 3.67623
-2.47063 1.68714 3.69413
-2.43313 1.68847 3.70273
-2.43043 1.68927 3.69395
-2.21241 1.69013 3.79282
-2.37053 1.69165 3.70356
-2.37593 1.69263 3.69069
-2.61037 1.6948 3.56319
-2.34954 1.69652 3.68334
-2.48578 1.69889 3.60486
-2.28951 1.70137 3.69261
-2.34111 1.70395 3.65639
-2.38851 1.70662 3.62222
-2.41601 1.71145 3.59773
-2.2662 1.71646 3.66181
-2.31687 1.72979 4.11865
-2.38806 1.72418 4.07193
-2.40087 1.71965 4.05462
-2.6363 1.71707 3.92634
-2.47435 1.71397 3.99671
-2.465 1.71164 3.9909
-2.54505 1.7088 3.94037
-2.48668 1.70716 3.95923
-2.48442 1.7051 3.94999
-2.40969 1.7036 3.97708
-2.45585 1.70274 3.94381
-2.59282 1.70137 3.86509
-2.3574 1.70005 3.97259
-2.54048 1.6988 3.87086
-2.52666 1.6982 3.86765
-2.74269 1.69708 3.74948
-2.52194 1.6966 3.84975
-2.52098 1.69562 3.84011
-2.51101 1.69528 3.83501
-2.66489 1.69443 3.74797
-2.42662 1.69424 3.85705
-2.37799 1.69416 3.87131
-2.53971 1.69349 3.78038
-2.61122 1.69347 3.73458
-2.50256 1.69349 3.77886
-2.56558 1.69358 3.7373
-2.40575 1.69365 3.80717
-2.47928 1.69384 3.76036
-2.49811 1.69411 3.74089
-2.53692 1.69444 3.71143
-2.4669 1.69484 3.73638
-2.52433 1.69532 3.6976
-2.5427 1.69558 3.67835
-2.58816 1.69615 3.64554
-2.47666 1.69679 3.6912
-2.28627 1.6981 3.77627
-2.47912 1.69886 3.66973
-2.39843 1.70074 3.69988
-2.35513 1.70166 3.71139
-2.37835 1.70325 3.68957
-2.41553 1.70428 3.66079
-2.28265 1.70655 3.71693
-2.43791 1.70833 3.62902
-2.37929 1.71078 3.64796
-2.29814 1.71334 3.67813
-2.42088 1.71669 3.60624
-2.15783 1.72081 3.72711
-2.28058 1.72581 3.65493
-2.45973 1.74123 4.04713
-2.53914 1.73515 3.99624
-2.3644 1.73102 4.07277
-2.48666 1.72727 4.00091
-2.55689 1.72419 3.9552
-2.51696 1.72179 3.9647
-2.50925 1.71951 3.95813
-2.51152 1.71786 3.94667
-2.53302 1.7152 3.9255
-2.61195 1.71369 3.87577
-2.52676 1.71283 3.90818
-2.62954 1.71144 3.84657
-2.51286 1.71011 3.89471
-2.56509 1.70885 3.85841
-2.54754 1.70824 3.85707
-2.54329 1.70711 3.84905
-2.65264 1.70663 3.78428
-2.5859 1.70563 3.80755
-2.63738 1.70529 3.77173
-2.67038 1.70443 3.74515
-2.53433 1.70432 3.80312
-2.5758 1.70416 3.77234
-2.45923 1.70347 3.82057
-2.55012 1.70345 3.76509
-2.52586 1.70346 3.76718
-2.28413 1.70355 3.87801
-2.561 1.70362 3.72954
-2.37569 1.70381 3.81216
-2.54754 1.70407 3.71619
-2.45223 1.70441 3.7538
-2.60705 1.70481 3.66634
-2.52513 1.70503 3.69725
-2.50399 1.70554 3.69776
-2.47577 1.70611 3.7018
-2.38236 1.70736 3.7384
-2.30055 1.70806 3.76922
-2.25833 1.70883 3.78022
-2.42383 1.71027 3.68732
-2.49035 1.71116 3.64392
-2.50268 1.71323 3.62753
-2.48972 1.71488 3.62379
-2.3096 1.71597 3.70366
-2.27687 1.71833 3.7097
-2.22623 1.72079 3.72467
-2.43471 1.72336 3.61003
-2.42614 1.72603 3.60388
-2.54405 1.73013 3.5343
-2.3 1.73513 3.64554
-2.32215 1.74697 3.62277
-2.41737 1.75226 4.06816
-2.52971 1.74537 4.00069
-2.49174 1.74132 4.00886
-2.6344 1.73742 3.9268
-2.49873 1.73491 3.98413
-2.50656 1.73191 3.96968
-2.52521 1.73017 3.95
-2.41829 1.72795 3.99308
-2.62836 1.72634 3.87776
-2.47606 1.72434 3.94359
-2.63007 1.72287 3.85635
-2.50806 1.72147 3.90714
-2.50343 1.72014 3.89926
-2.45651 1.71945 3.91261
-2.5939 1.71824 3.83376
-2.37681 1.7171 3.93217
-2.48853 1.71662 3.86623
-2.68761 1.71561 3.75658
-2.4115 1.71526 3.88458
-2.44214 1.71512 3.85922
-2.56496 1.71428 3.78774
-2.49314 1.71411 3.81361
-2.49933 1.71402 3.80048
-2.58177 1.71339 3.74922
-2.39215 1.71341 3.834
-2.49912 1.71344 3.77049
-2.55251 1.71355 3.73377
-2.55234 1.71374 3.72383
-2.5408 1.714 3.71957
-2.56845 1.71433 3.69571
-2.4421 1.71453 3.74885
-2.43493 1.71496 3.7424
-2.54402 1.71546 3.6778
-2.55946 1.71665 3.66
-2.43702 1.71729 3.71115
-2.56642 1.71799 3.63637
-2.52573 1.71938 3.64659
-2.43235 1.72021 3.68317
-2.39087 1.7211 3.69378
-2.40758 1.72267 3.67525
-2.43082 1.72483 3.65338
-2.4018 1.72592 3.65771
-2.36775 1.72829 3.66443
-2.28879 1.73014 3.69362
-2.31592 1.73268 3.66968
-2.30675 1.73666 3.66371
-2.20362 1.74015 3.70472
-2.36772 1.74581 3.61183
-2.25425 1.75402 3.65734
-2.48344 1.76326 4.03496
-2.49016 1.75688 4.02039
-2.52685 1.75147 3.99105
-2.50815 1.74881 3.98985
-2.46532 1.74501 4.0006
-2.53425 1.74259 3.95568
-2.54499 1.74024 3.93989
-2.62991 1.73801 3.88706
-2.5417 1.73639 3.92088
-2.64714 1.73482 3.85791
-2.61005 1.73289 3.86618
-2.51584 1.73147 3.90309
-2.66481 1.73012 3.81842
-2.50644 1.72944 3.88749
-2.54888 1.72821 3.85613
-2.59443 1.72766 3.82327
-2.55013 1.72657 3.83531
-2.49995 1.72555 3.85031
-2.47453 1.72537 3.85298
-2.69409 1.72505 3.73316
-2.48165 1.72421 3.82932
-2.3983 1.72403 3.86097
-2.48139 1.72394 3.8094
-2.56288 1.72391 3.75864
-2.54839 1.72391 3.75586
-2.55429 1.72334 3.74288
-2.51388 1.72345 3.75308
-2.32747 1.72364 3.83627
-2.67335 1.7239 3.65331
-2.38101 1.72405 3.78945
-2.42935 1.72442 3.75526
-2.47574 1.72485 3.72203
-2.52358 1.72597 3.68805
-2.47111 1.72654 3.70424
-2.50694 1.72718 3.67626
-2.4809 1.72788 3.67921
-2.51397 1.72927 3.65256
-2.42669 1.7301 3.6861
-2.32597 1.73163 3.72632
-2.49401 1.73258 3.63216
-2.47405 1.73422 3.63195
-2.43389 1.73647 3.64177
-2.44742 1.73762 3.62481
-2.26699 1.74007 3.7047
-2.29511 1.74327 3.68021
-2.44804 1.74662 3.59327
-2.24367 1.7494 3.68499
-2.21835 1.75441 3.6869
-2.1971 1.76247 3.68635
-2.3589 1.77485 4.09717
-2.298 1.76703 4.1162
-2.40846 1.76289 4.05017
-2.34734 1.7589 4.07
-2.4356 1.75572 4.0153
-2.53408 1.75324 3.95561
-2.41673 1.75027 4.0038
-2.50911 1.74802 3.94725
-2.58769 1.74639 3.89769
-2.60653 1.74481 3.87803
-2.64335 1.74347 3.84941
-2.50955 1.74144 3.90606
-2.57289 1.74068 3.86427
-2.6544 1.73938 3.81337
-2.50754 1.73815 3.87666
-2.61158 1.73759 3.81457
-2.46752 1.73673 3.87652
-2.55313 1.73627 3.82366
-2.65511 1.73527 3.7626
-2.70208 1.73495 3.72908
-2.68038 1.73471 3.72991
-2.59166 1.73392 3.76422
-2.55154 1.73386 3.77427
-2.46854 1.73379 3.80576
-2.42991 1.73378 3.81507
-2.62432 1.73383 3.70786
-2.49092 1.73332 3.76454
-2.54243 1.7335 3.72878
-2.40837 1.73362 3.78581
-2.61907 1.73391 3.67045
-2.36955 1.7349 3.78518
-2.52152 1.73533 3.69917
-2.45472 1.73583 3.72254
-2.33771 1.7364 3.771
-2.46836 1.73703 3.69563
-2.55825 1.73837 3.6406
-2.42488 1.73913 3.69721
-2.48505 1.7406 3.657
-2.47022 1.74149 3.65431
-2.4096 1.74308 3.67446
-2.44559 1.74409 3.64633
-2.67487 1.74636 3.52143
-2.3698 1.74815 3.66374
-2.52779 1.75061 3.57442
-2.42975 1.75318 3.61308
-2.29482 1.75585 3.67015
-2.33494 1.75999 3.6395
-2.38272 1.76361 3.60504
-2.34833 1.77168 3.61107
-2.34819 1.78623 4.10243
-2.25217 1.7785 4.13905
-2.51559 1.77298 3.99635
-2.37235 1.76896 4.05725
-2.57984 1.76637 3.94302
-2.64291 1.76326 3.90097
-2.48937 1.76088 3.96734
-2.58135 1.75915 3.91106
-2.60156 1.75636 3.89056
-2.55879 1.75477 3.90171
-2.63255 1.75385 3.85468
-2.54835 1.75238 3.88659
-2.51286 1.7506 3.89413
-2.55313 1.74929 3.86385
-2.43623 1.74866 3.91223
-2.48232 1.74776 3.87909
-2.60216 1.74723 3.80912
-2.41116 1.74615 3.89454
-2.52903 1.74576 3.82557
-2.53518 1.74482 3.81244
-2.41355 1.74457 3.86324
-2.63379 1.74439 3.74311
-2.55258 1.7437 3.7737
-2.61481 1.74363 3.73258
-2.49551 1.74363 3.78224
-2.4785 1.74366 3.78075
-2.5892 1.74377 3.7154
-2.59468 1.74385 3.70266
-2.5495 1.74407 3.71525
-2.56411 1.74436 3.69794
-2.4594 1.74472 3.74029
-2.56967 1.74515 3.67514
-2.4051 1.74565 3.74741
-2.39296 1.74592 3.74346
-2.58927 1.74652 3.63527
-2.41526 1.74783 3.7122
-2.61563 1.74857 3.60195
-2.37949 1.75001 3.70992
-2.28363 1.75087 3.74776
-2.44817 1.75292 3.65531
-2.3243 1.75393 3.70712
-2.30382 1.75565 3.70716
-2.41477 1.758 3.64142
-2.2635 1.76047 3.70675
-2.51041 1.7624 3.57301
-2.3384 1.76574 3.64856
-2.43611 1.76917 3.58921
-2.34371 1.77419 3.62469
-2.23037 1.78085 3.67039
-2.41123 1.79717 4.07075
-2.65703 1.78859 3.93634
-2.4478 1.78364 4.03007
-2.54794 1.78022 3.96937
-2.54806 1.77637 3.95867
-2.59942 1.77325 3.92248
-2.51003 1.77085 3.95679
-2.44008 1.76911 3.98148
-2.31691 1.76629 4.03268
-2.34264 1.76531 4.00966
-2.51872 1.76377 3.91142
-2.65111 1.76229 3.83504
-2.52667 1.76087 3.8871
-2.45726 1.76013 3.91172
-2.40945 1.75884 3.9255
-2.64009 1.75762 3.80008
-2.52484 1.75708 3.84766
-2.58823 1.75599 3.8059
-2.6281 1.7556 3.77594
-2.67969 1.75464 3.7401
-2.5253 1.75439 3.80729
-2.54556 1.75429 3.78717
-2.57732 1.75351 3.76127
-2.46159 1.75344 3.80915
-2.44477 1.75343 3.80757
-2.57242 1.75346 3.73376
-2.65273 1.75357 3.68362
-2.34665 1.75365 3.82668
-2.53691 1.75386 3.72156
-2.3389 1.75415 3.81057
-2.43066 1.75451 3.75469
-2.4319 1.75493 3.74407
-2.42905 1.75517 3.73549
-2.39771 1.75571 3.74115
-2.38751 1.75695 3.7362
-2.35819 1.75762 3.74082
-2.53803 1.75835 3.64085
-2.44351 1.7598 3.67801
-2.58124 1.76066 3.59907
-2.2541 1.76224 3.75251
-2.42055 1.76439 3.65909
-2.4022 1.76545 3.65813
-2.41978 1.76782 3.63908
-2.30829 1.76968 3.68459
-2.2963 1.77224 3.68026
-2.43642 1.77489 3.59983
-2.38726 1.77903 3.61386
-2.40983 1.78332 3.59195
-2.30679 1.78998 3.63251
-2.46969 1.80872 4.04146
-2.34034 1.79989 4.0946
-2.55428 1.79439 3.97667
-2.44023 1.79029 4.02298
-2.58824 1.78634 3.93833
-2.37323 1.78319 4.03534
-2.44267 1.78136 3.99031
-2.49545 1.77903 3.95358
-2.54499 1.77733 3.91856
-2.55623 1.7752 3.90267
-2.71181 1.77364 3.81469
-2.59783 1.77215 3.86151
-2.60015 1.77072 3.8502
-2.56974 1.76998 3.85533
-2.52101 1.76868 3.86958
-2.6065 1.76744 3.81675
-2.62066 1.7669 3.79963
-2.60635 1.7658 3.79673
-2.67302 1.7654 3.75339
-2.54696 1.76443 3.80638
-2.54973 1.7643 3.79501
-2.63188 1.76407 3.74394
-2.49287 1.76392 3.80346
-2.61745 1.76321 3.73118
-2.46323 1.76319 3.79831
-2.5076 1.76323 3.76615
-2.55521 1.76327 3.73237
-2.59965 1.76341 3.70018
-2.45022 1.76362 3.76491
-2.53681 1.7639 3.71163
-2.51991 1.76426 3.7101
-2.51596 1.76446 3.70209
-2.5615 1.76492 3.66932
-2.50179 1.7661 3.68915
-2.48355 1.7667 3.68826
-2.54868 1.76737 3.64567
-2.47662 1.76876 3.67163
-2.41309 1.76955 3.69334
-2.41965 1.77107 3.67995
-2.50554 1.772 3.62692
-2.41471 1.77415 3.66215
-2.35174 1.77589 3.68347
-2.3914 1.77701 3.65349
-2.46693 1.77946 3.60545
-2.39526 1.78203 3.63097
-2.40805 1.78538 3.61415
-2.38203 1.78814 3.61676
-2.46635 1.79317 3.56392
-2.35724 1.79839 3.60771
-2.3712 1.82025 4.09063
-2.43395 1.81005 4.04753
-2.45342 1.80438 4.02683
-2.46028 1.80025 4.0127
-2.56371 1.79757 3.95052
-2.6352 1.79436 3.90427
-2.50089 1.79189 3.96105
-2.4734 1.78891 3.96439
-2.44213 1.7872 3.96979
-2.57916 1.78505 3.89101
-2.68741 1.78348 3.8267
-2.51434 1.78198 3.90308
-2.70011 1.78117 3.80011
-2.46536 1.77979 3.90737
-2.36104 1.77847 3.94943
-2.46338 1.77786 3.88822
-2.80051 1.77668 3.70959
-2.52815 1.77557 3.83572
-2.64341 1.77516 3.76809
-2.44565 1.77483 3.85698
-2.53522 1.77405 3.80219
-2.51903 1.77382 3.80031
-2.48012 1.77367 3.80978
-2.48609 1.77359 3.79683
-2.6735 1.77292 3.69315
-2.61183 1.77293 3.71401
-2.45234 1.77299 3.78379
-2.73729 1.77313 3.63135
-2.66912 1.77334 3.65547
-2.69946 1.77362 3.63033
-2.52374 1.77378 3.70822
-2.65297 1.77417 3.63363
-2.56004 1.77529 3.67009
-2.52521 1.77582 3.67751
-2.49694 1.77641 3.68164
-2.50677 1.77708 3.66671
-2.51736 1.77847 3.65135
-2.33311 1.77927 3.73344
-2.4921 1.7808 3.64385
-2.49544 1.78172 3.63211
-2.53221 1.78337 3.60359
-2.35461 1.78563 3.68219
-2.43275 1.78743 3.63293
-2.41345 1.78989 3.63231
-2.47922 1.79114 3.58925
-2.31282 1.79515 3.66198
-2.28847 1.79793 3.66377
-2.37365 1.80222 3.61059
-2.24583 1.80743 3.66375
-2.23115 1.8213 3.65922
-2.57254 1.83259 3.99001
-2.63913 1.82132 3.94485
-2.61411 1.81497 3.9463
-2.63632 1.81017 3.92442
-2.56108 1.80748 3.95159
-2.55565 1.80424 3.94381
-2.55517 1.80176 3.93369
-2.65362 1.79875 3.87407
-2.4477 1.79703 3.9668
-2.40502 1.79536 3.97794
-2.54125 1.79329 3.8996
-2.55077 1.79177 3.88469
-2.42422 1.79096 3.93789
-2.6062 1.78956 3.8368
-2.55935 1.78823 3.85013
-2.53489 1.78762 3.85233
-2.41801 1.78643 3.90072
-2.51721 1.78595 3.84112
-2.6157 1.78489 3.78185
-2.53262 1.78471 3.81341
-2.49378 1.78376 3.82283
-2.53085 1.78353 3.79433
-2.66 1.78337 3.71979
-2.49187 1.78329 3.79389
-2.65604 1.78327 3.70185
-2.64695 1.78264 3.69644
-2.46878 1.78268 3.77556
-2.41629 1.78281 3.79186
-2.59767 1.78302 3.69121
-2.61586 1.78315 3.67216
-2.48143 1.78346 3.72941
-2.35498 1.78451 3.78265
-2.49026 1.78497 3.70504
-2.29803 1.78549 3.79117
-2.57735 1.78609 3.64152
-2.61767 1.78742 3.61132
-2.47429 1.78815 3.67299
-2.61322 1.78962 3.59346
-2.46737 1.79048 3.65634
-2.33924 1.79208 3.7103
-2.46534 1.79306 3.63717
-2.50418 1.79478 3.6076
-2.357 1.79713 3.67098
-2.60138 1.799 3.53859
-2.49022 1.80155 3.58388
-2.45982 1.80421 3.58875
-2.37101 1.80837 3.62264
-2.43765 1.81199 3.57882
-2.23017 1.81792 3.67175
-2.21214 1.82798 3.66937
-2.33846 1.84559 4.10721
-2.56226 1.83142 3.98303
-2.46723 1.82563 4.01958
-2.3668 1.82141 4.0591
-2.59149 1.81735 3.93613
-2.59182 1.81409 3.92549
-2.59462 1.81159 3.91374
-2.59303 1.80977 3.90428
-2.56362 1.80747 3.9087
-2.34613 1.80579 4.00725
-2.68186 1.80306 3.82911
-2.67431 1.80218 3.82281
-2.46886 1.80071 3.91541
-2.53088 1.7993 3.87431
-2.46773 1.79796 3.8958
-2.55479 1.79734 3.84226
-2.57452 1.79613 3.82234
-2.56264 1.79565 3.8183
-2.64502 1.79478 3.7671
-2.70709 1.7944 3.72609
-2.62867 1.7941 3.75534
-2.73703 1.7932 3.69117
-2.4818 1.79304 3.80884
-2.51335 1.79299 3.78311
-2.55109 1.79294 3.7543
-2.59835 1.79294 3.72072
-2.60502 1.793 3.70744
-2.33287 1.79313 3.83357
-2.47137 1.79333 3.75437
-2.46446 1.79346 3.74787
-2.56277 1.79377 3.68876
-2.58247 1.79415 3.66895
-2.5216 1.79461 3.68942
-2.58766 1.79513 3.64642
-2.61268 1.7964 3.6239
-2.42747 1.79673 3.70653
-2.47056 1.79742 3.67498
-2.51845 1.79886 3.64098
-2.36755 1.80013 3.70638
-2.3682 1.80173 3.69596
-2.43478 1.80271 3.6526
-2.51959 1.80444 3.60006
-2.41466 1.8068 3.64232
-2.29152 1.80867 3.6937
-2.45722 1.81123 3.60058
-2.40116 1.8139 3.61829
-2.48436 1.81737 3.56626
-2.4405 1.82097 3.57771
-2.32574 1.8269 3.6243
-2.25894 1.83615 3.64644
-2.39377 1.842 4.06708
-2.51803 1.83617 3.994
-2.32895 1.83127 4.07777
-2.67628 1.82718 3.89349
-2.64141 1.82456 3.90054
-2.49292 1.82139 3.96436
-2.56549 1.81956 3.91783
-2.47737 1.81724 3.95162
-2.51844 1.81555 3.9209
-2.7478 1.81391 3.79606
-2.49602 1.8119 3.91178
-2.41249 1.81042 3.94343
-2.5228 1.809 3.87819
-2.5389 1.80831 3.86012
-2.56371 1.80702 3.83766
-2.53793 1.8058 3.84052
-2.53187 1.80555 3.83358
-2.50001 1.8051 3.83954
-2.48206 1.80405 3.83852
-2.67368 1.80374 3.73275
-2.55491 1.80284 3.78217
-2.64311 1.80267 3.72812
-2.46975 1.80262 3.80487
-2.70443 1.80256 3.67759
-2.5145 1.80256 3.76262
-2.60809 1.80261 3.70589
-2.61531 1.80274 3.69235
-2.44276 1.80283 3.76869
-2.73204 1.80307 3.6141
-2.52856 1.80338 3.7059
-2.53033 1.80376 3.69507
-2.5679 1.80421 3.66633
-2.58892 1.80473 3.64586
-2.61145 1.8057 3.62461
-2.50083 1.80633 3.66994
-2.55096 1.80702 3.63488
-2.49883 1.80847 3.65091
-2.47581 1.8093 3.6524
-2.47035 1.81088 3.64505
-2.55132 1.81302 3.59443
-2.45933 1.81406 3.63035
-2.29923 1.81586 3.70026
-2.47243 1.81831 3.60343
-2.43323 1.82087 3.61277
-2.38623 1.82426 3.6259
-2.32404 1.82704 3.64665
-2.36221 1.83137 3.61702
-2.40651 1.83661 3.58417
-2.19423 1.84509 3.67915
-2.54167 1.85268 3.99296
-2.43771 1.84602 4.03388
-2.3964 1.84109 4.04378
-2.76521 1.83764 3.84886
-2.70096 1.83434 3.87052
-2.65983 1.83114 3.88067
-2.58403 1.8293 3.90834
-2.36397 1.82697 4.00812
-2.50584 1.82526 3.92701
-2.51698 1.82361 3.91129
-2.62697 1.82159 3.84613
-2.66238 1.82009 3.81832
-2.72718 1.81866 3.77585
-2.55567 1.81797 3.85159
-2.44968 1.81667 3.89455
-2.69248 1.81611 3.76316
-2.54937 1.81518 3.82472
-2.51124 1.81472 3.83383
-2.61578 1.81366 3.77157
-2.63571 1.81335 3.75166
-2.536 1.81311 3.79158
-2.62165 1.81234 3.7388
-2.73497 1.81221 3.67221
-2.58467 1.81215 3.73743
-2.42776 1.81215 3.80597
-2.63654 1.8122 3.69166
-2.61488 1.81232 3.69256
-2.51973 1.81241 3.73021
-2.54738 1.81264 3.70646
-2.52358 1.81295 3.70843
-2.3764 1.81332 3.77208
-2.41894 1.81377 3.74087
-2.57073 1.81472 3.65501
-2.73919 1.81527 3.56082
-2.68502 1.81589 3.57793
-2.38561 1.81728 3.71763
-2.40731 1.81804 3.69678
-2.56248 1.81957 3.60915
-2.52722 1.82045 3.61675
-2.50875 1.8226 3.61587
-2.42351 1.82435 3.64837
-2.43402 1.82545 3.63304
-2.37382 1.8279 3.65293
-2.59825 1.82985 3.53052
-2.40161 1.8325 3.61856
-2.36223 1.83667 3.62777
-2.37435 1.84028 3.61126
-2.39469 1.8455 3.59041
-2.17866 1.85326 3.68739
-2.68675 1.86253 3.92013
-2.60256 1.85651 3.95128
-2.50375 1.85154 3.98993
-2.52217 1.84809 3.97021
-2.71016 1.84473 3.86576
-2.69309 1.84215 3.86396
-2.60038 1.839 3.89995
-2.63212 1.83666 3.87383
-2.70042 1.83494 3.82952
-2.66736 1.83328 3.83591
-2.81683 1.83168 3.75106
-2.46095 1.83041 3.91893
-2.73272 1.82829 3.77292
-2.59095 1.82759 3.83381
-2.35987 1.82658 3.93934
-2.57771 1.82598 3.82044
-2.68304 1.82477 3.75777
-2.77303 1.82431 3.70283
-2.65127 1.82324 3.75373
-2.64523 1.82292 3.74682
-2.33176 1.82268 3.89363
-2.62583 1.82258 3.73667
-2.50757 1.82176 3.78587
-2.67516 1.8217 3.69216
-2.58931 1.82169 3.72517
-2.56065 1.82174 3.72959
-2.49674 1.82179 3.75163
-2.56834 1.82195 3.70592
-2.53834 1.82218 3.711
-2.59331 1.82248 3.6736
-2.53639 1.82285 3.69213
-2.64167 1.82307 3.62956
-2.44744 1.82425 3.71672
-2.56644 1.8248 3.64727
-2.43173 1.82542 3.70467
-2.64146 1.82682 3.5898
-2.42323 1.82757 3.68894
-2.52999 1.8291 3.62552
-2.53868 1.82999 3.61116
-2.44651 1.83165 3.64717
-2.71925 1.8339 3.50066
-2.37087 1.83571 3.66473
-2.38181 1.83686 3.64917
-2.37099 1.84013 3.64428
-2.52094 1.84279 3.55903
-2.48657 1.84556 3.5659
-2.34387 1.84989 3.62674
-2.43011 1.85436 3.57304
-2.21371 1.86211 3.67023
-2.55692 1.87383 3.98497
-2.66681 1.86706 3.91898
-2.49547 1.8613 3.99381
-2.60941 1.85782 3.92634
-2.64374 1.85511 3.89881
-2.57957 1.85184 3.92049
-2.62033 1.84936 3.88983
-2.65511 1.84754 3.86225
-2.46882 1.84458 3.94512
-2.61808 1.8429 3.86036
-2.55614 1.84129 3.88123
-2.65629 1.84042 3.82113
-2.46702 1.83894 3.90569
-2.5737 1.83751 3.84231
-2.67238 1.83684 3.78299
-2.59619 1.83555 3.81108
-2.65059 1.83433 3.77389
-2.62324 1.83386 3.77762
-2.55094 1.83347 3.80384
-2.65801 1.83246 3.74035
-2.73981 1.83232 3.68954
-2.43868 1.83211 3.83019
-2.66165 1.83197 3.7088
-2.71819 1.83121 3.67061
-2.79978 1.8312 3.61991
-2.58408 1.83124 3.71786
-2.62493 1.83129 3.68753
-2.61314 1.83145 3.68353
-2.52489 1.83167 3.71775
-2.6475 1.83197 3.64653
-2.589 1.83215 3.66588
-2.55214 1.83326 3.67437
-2.69977 1.83374 3.59063
-2.5968 1.83429 3.63217
-2.52024 1.83562 3.66047
-2.52189 1.83631 3.6497
-2.55985 1.83778 3.6207
-2.59632 1.8386 3.59248
-2.6871 1.8402 3.53705
-2.52132 1.84115 3.60992
-2.50184 1.84288 3.60958
-2.4614 1.84523 3.61964
-2.46635 1.84711 3.60702
-2.53718 1.84966 3.56139
-2.42854 1.85233 3.60545
-2.23645 1.85511 3.69119
-2.42819 1.85945 3.58482
-2.35756 1.86395 3.60957
-2.31856 1.87092 3.61816
-2.4811 1.88362 4.02259
-2.62566 1.87681 3.93928
-2.64281 1.87243 3.92005
-2.56517 1.86751 3.9482
-2.4865 1.86479 3.97718
-2.63834 1.86149 3.89087
-2.72088 1.85899 3.83933
-2.77351 1.85716 3.80284
-2.6206 1.85418 3.86903
-2.63586 1.85249 3.85128
-2.57729 1.85156 3.87053
-2.62573 1.85 3.83624
-2.66502 1.84849 3.80654
-2.64719 1.84706 3.80542
-2.59187 1.84638 3.82311
-2.72326 1.84508 3.74742
-2.56341 1.84454 3.81741
-2.50012 1.84337 3.83908
-2.64758 1.84298 3.75543
-2.75116 1.84195 3.6937
-2.47375 1.84181 3.8225
-2.48046 1.8416 3.80924
-2.62921 1.84145 3.72497
-2.63418 1.84139 3.71259
-2.49915 1.84067 3.7702
-2.61005 1.84068 3.70487
-2.61722 1.84076 3.69139
-2.70874 1.84091 3.63574
-2.54974 1.84113 3.70535
-2.55543 1.84214 3.69259
-2.72071 1.84231 3.60005
-2.69694 1.84272 3.60203
-2.58707 1.84319 3.64704
-2.67679 1.84374 3.59226
-2.50185 1.84508 3.66976
-2.44345 1.84576 3.68902
-2.4154 1.84724 3.69305
-2.52305 1.84806 3.62925
-2.42222 1.84967 3.66963
-2.60304 1.85061 3.56921
-2.61742 1.85235 3.55195
-2.41616 1.8547 3.64244
-2.53819 1.85659 3.57129
-2.47391 1.85916 3.59322
-2.53636 1.86183 3.55175
-2.30122 1.86537 3.65896
-2.41481 1.86825 3.59183
-2.19803 1.87425 3.6895
-2.50021 1.87969 3.5277
-2.42348 1.89477 4.05131
-2.37754 1.88652 4.06305
-2.52892 1.88212 3.97673
-2.55412 1.87786 3.95356
-2.55555 1.87443 3.94241
-2.73276 1.87111 3.84343
-2.46423 1.86859 3.96743
-2.69143 1.86675 3.84367
-2.70112 1.86374 3.82857
-2.77046 1.86275 3.78385
-2.56865 1.86111 3.87467
-2.63008 1.85953 3.8339
-2.73003 1.85802 3.77388
-2.8668 1.85727 3.69552
-2.59328 1.85589 3.82227
-2.64387 1.85457 3.78699
-2.58613 1.85403 3.80593
-2.61539 1.85285 3.78134
-2.60223 1.85245 3.77801
-2.51637 1.85141 3.81101
-2.74427 1.85127 3.68717
-2.54299 1.85105 3.77792
-2.72035 1.8509 3.67936
-2.59345 1.85083 3.73292
-2.58521 1.85082 3.72716
-2.65592 1.85083 3.68192
-2.47768 1.8509 3.76116
-2.79101 1.85105 3.59461
-2.63466 1.85127 3.6629
-2.77965 1.85156 3.58052
-2.67148 1.85174 3.62471
-2.4185 1.85214 3.7413
-2.4448 1.85261 3.71825
-2.53825 1.85388 3.66159
-2.47706 1.8545 3.68225
-2.54053 1.85591 3.64055
-2.44502 1.85666 3.67836
-2.65286 1.85821 3.56443
-2.45821 1.85909 3.65177
-2.57257 1.86078 3.58455
-2.48989 1.86178 3.61588
-2.48465 1.86359 3.60841
-2.51469 1.86603 3.58323
-2.63876 1.86935 3.51093
-2.50748 1.87064 3.56647
-2.44868 1.87484 3.58546
-2.32415 1.87849 3.63732
-2.39871 1.88299 3.5895
-2.36661 1.88999 3.59468
-2.63315 1.9046 3.94619
-2.5456 1.8969 3.97884
-2.62575 1.89176 3.92804
-2.64752 1.88748 3.9066
-2.58077 1.88403 3.92956
-2.4299 1.88068 3.99462
-2.59117 1.87816 3.90374
-2.67497 1.8763 3.85168
-2.67448 1.87398 3.84175
-2.73854 1.87227 3.79962
-2.53559 1.87062 3.89103
-2.55674 1.86903 3.8704
-2.68549 1.8675 3.79599
-2.76629 1.86675 3.74563
-2.70552 1.86535 3.76602
-2.81353 1.86402 3.70204
-2.6752 1.86348 3.76128
-2.59104 1.86228 3.79342
-2.53289 1.86188 3.81259
-2.70359 1.8617 3.71736
-2.76434 1.86068 3.67707
-2.80009 1.86046 3.64932
-2.54192 1.86031 3.76852
-2.66069 1.86023 3.69927
-2.54989 1.86022 3.7448
-2.60633 1.86023 3.70671
-2.60517 1.8603 3.69742
-2.65305 1.86044 3.66361
-2.68622 1.86066 3.63714
-2.63651 1.86079 3.65212
-2.54247 1.86112 3.68926
-2.49105 1.86152 3.70509
-2.50507 1.86272 3.68816
-2.65011 1.86326 3.60574
-2.56898 1.86387 3.63639
-2.52576 1.86529 3.64804
-2.51604 1.86604 3.64296
-2.65404 1.8676 3.56397
-2.64013 1.86848 3.56096
-2.42051 1.87017 3.66074
-2.48848 1.87192 3.6167
-2.67808 1.87298 3.51188
-2.51032 1.87619 3.58555
-2.44702 1.8774 3.60713
-2.39177 1.88081 3.62447
-2.3541 1.88358 3.63304
-2.39176 1.88794 3.60376
-2.32192 1.89247 3.62816
-2.22027 1.89792 3.6683
-2.53518 1.915 3.99498
-2.56429 1.90732 3.96931
-2.49634 1.90137 3.99248
-2.64358 1.89707 3.90831
-2.65473 1.89359 3.89232
-2.72853 1.89094 3.84515
-2.56505 1.88768 3.91657
-2.66893 1.88581 3.85449
-2.70149 1.88347 3.82804
-2.57556 1.88175 3.88092
-2.6918 1.88009 3.81274
-2.59904 1.87848 3.84907
-2.81749 1.87694 3.72983
-2.60397 1.87619 3.82664
-2.56816 1.87478 3.83456
-2.69309 1.87416 3.76217
-2.5923 1.87289 3.80262
-2.49498 1.8724 3.84138
-2.72748 1.87127 3.71521
-2.77066 1.87109 3.68374
-2.65771 1.87079 3.73034
-2.5381 1.86983 3.78025
-2.6393 1.86968 3.71979
-2.6537 1.86959 3.70273
-2.59677 1.86958 3.72133
-2.52954 1.86959 3.74509
-2.63561 1.86965 3.68219
-2.61487 1.86979 3.68271
-2.82195 1.87 3.5693
-2.77415 1.87014 3.58334
-2.73076 1.87046 3.59517
-2.67115 1.87085 3.61509
-2.60724 1.87206 3.63715
-2.66436 1.8726 3.59869
-2.54949 1.87321 3.64623
-2.50215 1.87429 3.65997
-2.66527 1.875 3.56849
-2.45189 1.87653 3.6652
-2.67445 1.87738 3.54397
-2.58421 1.87952 3.57904
-2.59809 1.88128 3.56206
-2.50576 1.8831 3.59816
-2.44581 1.88556 3.618
-2.54905 1.88753 3.55625
-2.49055 1.8902 3.5753
-2.39766 1.89298 3.6115
-2.39966 1.89663 3.60013
-2.52226 1.90114 3.52833
-2.40854 1.90815 3.57435
-2.05943 1.92032 3.73737
-2.63671 1.92548 3.94403
-2.73633 1.91693 3.88301
-2.70888 1.91094 3.88594
-2.66555 1.90661 3.89706
-2.74623 1.90311 3.84632
-2.67644 1.90044 3.87095
-2.69681 1.89789 3.85054
-2.54606 1.89528 3.91571
-2.47354 1.89346 3.94186
-2.73984 1.89119 3.79859
-2.63769 1.88952 3.83961
-2.53165 1.8879 3.8826
-2.59834 1.88708 3.8393
-2.67676 1.88559 3.7901
-2.63117 1.88417 3.80292
-2.67526 1.88354 3.77096
-2.71336 1.88226 3.74197
-2.55864 1.88177 3.80945
-2.69721 1.88062 3.73025
-2.93331 1.88044 3.60234
-2.78314 1.88014 3.66755
-2.80954 1.87917 3.64448
-2.61025 1.87901 3.73427
-2.69479 1.87895 3.68215
-2.55713 1.8789 3.74113
-2.66112 1.87891 3.67929
-2.64595 1.87897 3.67703
-2.75245 1.8791 3.61393
-2.79061 1.87931 3.585
-2.80642 1.87944 3.56724
-2.63718 1.87976 3.642
-2.66482 1.8809 3.6183
-2.57395 1.88137 3.65386
-2.5811 1.8819 3.6404
-2.60534 1.8822 3.61841
-2.58661 1.88359 3.61784
-2.55381 1.8843 3.62434
-2.56713 1.88584 3.60771
-2.43635 1.88744 3.66311
-2.52019 1.88835 3.61124
-2.57255 1.89059 3.575
-2.65663 1.89242 3.52291
-2.39655 1.89431 3.64287
-2.50261 1.89687 3.57968
-2.45978 1.89954 3.5909
-2.33234 1.90311 3.64431
-2.47539 1.906 3.56251
-2.29702 1.91052 3.6412
-2.25193 1.91677 3.65302
-2.42523 1.92811 3.55496
-2.6065 1.93582 3.95894
-2.65399 1.92649 3.9239
-2.43123 1.92047 4.02449
-2.65135 1.91756 3.90407
-2.77168 1.9126 3.83335
-2.62484 1.90991 3.89651
-2.6425 1.90794 3.87753
-2.64482 1.90472 3.86611
-2.78065 1.90288 3.7881
-2.66428 1.9006 3.83617
-2.78984 1.89891 3.76335
-2.74666 1.89728 3.77492
-2.77073 1.89645 3.75294
-2.81077 1.89495 3.72294
-2.61069 1.89352 3.81302
-2.59024 1.89289 3.81335
-2.71513 1.89159 3.74097
-2.83457 1.8911 3.67138
-2.55649 1.88994 3.80051
-2.61074 1.88976 3.76354
-2.78851 1.88945 3.6648
-2.66506 1.88921 3.71668
-2.7193 1.8883 3.6797
-2.59948 1.88824 3.72977
-2.58284 1.88819 3.72825
-2.63167 1.88819 3.694
-2.66704 1.88825 3.66648
-2.50692 1.88838 3.7367
-2.60769 1.88847 3.67648
-2.67039 1.88871 3.63529
-2.50452 1.88978 3.70836
-2.54893 1.89017 3.6763
-2.58842 1.89063 3.6467
-2.62648 1.89089 3.61781
-2.59614 1.89222 3.62307
-2.68276 1.89286 3.56988
-2.62393 1.89433 3.58935
-2.63026 1.89511 3.57628
-2.57445 1.89672 3.59421
-2.65654 1.89762 3.54322
-2.5305 1.89987 3.59619
-2.46659 1.90171 3.61811
-2.48388 1.9036 3.5994
-2.49849 1.90616 3.58195
-2.42646 1.90963 3.60771
-2.50247 1.91243 3.55948
-2.46433 1.91533 3.56829
-2.59085 1.91987 3.49455
-2.24232 1.92614 3.6581
-2.36407 1.93589 3.58602
-2.65004 1.9454 3.93687
-2.75045 1.93676 3.87547
-2.64779 1.93071 3.91602
-2.50375 1.92704 3.97761
-2.60877 1.92278 3.91464
-2.66215 1.91934 3.87762
-2.5696 1.91736 3.91375
-2.74782 1.91411 3.81439
-2.67061 1.913 3.84298
-2.68603 1.90997 3.8251
-2.56423 1.90826 3.87597
-2.56918 1.90737 3.86354
-2.63505 1.90579 3.82062
-2.62591 1.90428 3.81522
-2.6085 1.90283 3.81398
-2.68894 1.90219 3.76387
-2.57293 1.90088 3.81196
-2.78034 1.90039 3.69839
-2.86319 1.90017 3.64711
-2.6885 1.89903 3.72458
-2.86218 1.89871 3.62789
-2.59085 1.89847 3.75372
-2.65792 1.8983 3.71035
-2.62829 1.89749 3.71533
-2.72634 1.89743 3.65648
-2.64022 1.89743 3.68972
-2.75804 1.89748 3.62098
-2.58085 1.89761 3.69975
-2.56827 1.8977 3.69621
-2.64187 1.8987 3.64957
-2.66241 1.89902 3.62946
-2.6361 1.8994 3.63278
-2.69661 1.89986 3.59268
-2.63584 1.90011 3.61321
-2.72887 1.90145 3.55681
-2.4893 1.90208 3.66671
-2.49457 1.90356 3.65416
-2.57465 1.90433 3.60421
-2.60242 1.90595 3.58037
-2.51774 1.90763 3.61273
-2.59191 1.9086 3.56569
-2.48649 1.91173 3.60828
-2.51487 1.91285 3.5841
-2.57235 1.91621 3.54516
-2.29541 1.91746 3.67359
-2.64398 1.92103 3.48903
-2.39235 1.92541 3.60444
-2.5041 1.92842 3.53827
-2.32052 1.93468 3.61936
-2.23957 1.94443 3.64866
-2.61753 1.95653 3.95303
-2.67677 1.94626 3.91202
-2.45395 1.94092 4.01276
-2.61931 1.93647 3.91957
-2.55132 1.9322 3.94311
-2.69489 1.92873 3.86101
-2.62016 1.92674 3.88824
-2.62968 1.92422 3.87332
-2.5999 1.92236 3.87813
-2.65784 1.9193 3.839
-2.49573 1.91758 3.91004
-2.77333 1.91668 3.7613
-2.45786 1.91509 3.90905
-2.64519 1.91356 3.80543
-2.58301 1.91286 3.82663
-2.72146 1.91146 3.74748
-2.69148 1.91014 3.75257
-2.82826 1.90964 3.67432
-2.55437 1.90941 3.80143
-2.75413 1.90826 3.69168
-2.66399 1.90794 3.72692
-2.66644 1.9077 3.71587
-2.56186 1.90753 3.75834
-2.57817 1.90747 3.74036
-2.66708 1.90664 3.68608
-2.57031 1.90664 3.72466
-2.46564 1.90668 3.76718
-2.63898 1.90681 3.6707
-2.49377 1.90767 3.73348
-2.57287 1.9079 3.68411
-2.75264 1.90821 3.5844
-2.66779 1.90859 3.61699
-2.54002 1.90904 3.67104
-2.66591 1.91008 3.59823
-2.6193 1.91064 3.61169
-2.69626 1.91205 3.56331
-2.53983 1.91275 3.63164
-2.56916 1.91431 3.60705
-2.5457 1.91514 3.60888
-2.50853 1.91683 3.61749
-2.50944 1.91859 3.60704
-2.45964 1.92094 3.62189
-2.5874 1.92285 3.54797
-2.56864 1.92543 3.54722
-2.61289 1.92749 3.515
-2.5501 1.93026 3.5362
-2.56875 1.93467 3.51649
-2.48169 1.93849 3.54965
-2.41606 1.94397 3.57187
-2.31619 1.95293 3.61074
-2.5759 1.96604 3.97355
-2.58777 1.95571 3.95623
-2.68679 1.9511 3.89615
-2.6388 1.94587 3.90956
-2.57822 1.94157 3.9294
-2.62414 1.93809 3.89614
-2.7001 1.93608 3.84804
-2.8267 1.93354 3.77459
-2.64583 1.93167 3.85496
-2.59317 1.92859 3.87114
-2.59762 1.92762 3.85897
-2.5943 1.92595 3.85064
-2.72081 1.92435 3.77742
-2.65568 1.92281 3.80003
-2.72981 1.9221 3.75309
-2.60232 1.92069 3.80692
-2.66583 1.92012 3.76531
-2.69642 1.91885 3.74013
-2.56257 1.91862 3.79724
-2.61841 1.91823 3.75948
-2.78923 1.91713 3.66423
-2.5218 1.91688 3.78813
-2.82106 1.91671 3.62869
-2.64786 1.91665 3.70548
-2.5418 1.91658 3.74871
-2.68745 1.91657 3.66608
-2.74191 1.91662 3.62905
-2.69263 1.91674 3.64388
-2.52113 1.91683 3.71982
-2.61953 1.91706 3.66082
-2.53389 1.91736 3.69382
-2.56364 1.91774 3.66913
-2.63932 1.91874 3.62145
-2.56675 1.91923 3.6479
-2.73213 1.91978 3.55537
-2.65999 1.9212 3.58155
-2.63016 1.9219 3.5866
-2.49536 1.92346 3.64408
-2.62388 1.92429 3.56993
-2.69998 1.92599 3.52192
-2.63468 1.92775 3.54459
-2.66403 1.93011 3.51987
-2.63404 1.93203 3.52484
-2.58988 1.93401 3.53687
-2.47677 1.93667 3.58328
-2.52795 1.94027 3.54744
-2.3967 1.94316 3.60284
-2.45134 1.94772 3.56509
-2.2825 1.95404 3.63883
-2.15995 1.96138 3.68925
-2.53477 1.97551 3.99381
-2.75963 1.96666 3.87021
-2.603 1.96049 3.93777
-2.65015 1.95523 3.90361
-2.60245 1.95091 3.91703
-2.7854 1.9474 3.81526
-2.56966 1.94538 3.91303
-2.73043 1.94283 3.8225
-2.77473 1.94094 3.7903
-2.66176 1.9386 3.83671
-2.58891 1.93686 3.86313
-2.69716 1.93518 3.79903
-2.66344 1.93357 3.80594
-2.68212 1.93201 3.78666
-2.7932 1.9313 3.72125
-2.70668 1.92988 3.75461
-2.80442 1.9293 3.6959
-2.80417 1.92802 3.68615
-2.62732 1.92779 3.76477
-2.66016 1.92739 3.73853
-2.79943 1.92629 3.65906
-2.81025 1.92603 3.64384
-2.65344 1.92585 3.71245
-2.54393 1.92579 3.75742
-2.71032 1.92571 3.66442
-2.60545 1.92571 3.70707
-2.65652 1.92575 3.67174
-2.573 1.92586 3.7037
-2.73288 1.92595 3.61397
-2.62295 1.92618 3.65914
-2.71451 1.92647 3.60356
-2.54659 1.92764 3.67769
-2.52268 1.92786 3.67984
-2.59974 1.92834 3.63149
-2.62356 1.92889 3.60975
-2.5484 1.93031 3.63745
-2.5141 1.93181 3.64471
-2.74976 1.93257 3.51702
-2.4377 1.93421 3.66312
-2.58908 1.9351 3.57753
-2.3965 1.93687 3.66386
-2.65265 1.9387 3.5258
-2.51791 1.94116 3.5831
-2.54871 1.94315 3.55766
-2.4728 1.94582 3.58549
-2.61395 1.94943 3.50467
-2.62101 1.95233 3.49094
-2.35763 1.95691 3.61221
-2.38658 1.96246 3.58716
-2.38523 1.97063 3.5769
-2.45886 1.98494 4.03146
-2.73319 1.97608 3.88314
-2.54107 1.96985 3.96845
-2.59808 1.96455 3.92938
-2.59149 1.9602 3.92225
-2.76489 1.95745 3.82535
-2.5319 1.95464 3.93167
-2.63319 1.95208 3.8709
-2.7103 1.95018 3.8223
-2.608 1.94782 3.86339
-2.62209 1.94607 3.84636
-2.76543 1.94438 3.76472
-2.75296 1.94275 3.76101
-2.70001 1.94196 3.77762
-2.74242 1.94046 3.7465
-2.85574 1.93903 3.67995
-2.60279 1.93845 3.7966
-2.7044 1.93715 3.73593
-2.76293 1.93692 3.69687
-2.65092 1.93652 3.74307
-2.59315 1.9354 3.76213
-2.80617 1.93514 3.64583
-2.8024 1.93495 3.63793
-2.71516 1.93489 3.67177
-2.66838 1.93481 3.68537
-2.72631 1.9348 3.64663
-2.70896 1.93484 3.64552
-2.63549 1.93495 3.67248
-2.56928 1.93503 3.6958
-2.62416 1.93525 3.65857
-2.89877 1.93555 3.51148
-2.60216 1.93672 3.64997
-2.62398 1.93693 3.62926
-2.75965 1.93741 3.55162
-2.59364 1.93876 3.62477
-2.50374 1.93939 3.6599
-2.68868 1.94089 3.55755
-2.66988 1.94165 3.55709
-2.67785 1.94329 3.54319
-2.62374 1.94499 3.56031
-2.71223 1.94595 3.50617
-2.51452 1.94779 3.59505
-2.53575 1.95025 3.57438
-2.66557 1.95224 3.49944
-2.42076 1.95575 3.61166
-2.49616 1.95855 3.5638
-2.41418 1.96229 3.59452
-2.45499 1.96688 3.5637
-2.29479 1.97163 3.63333
-2.37701 1.979 3.5814
-2.52602 1.99596 3.99778
-2.63033 1.98543 3.93427
-2.49912 1.97916 3.98915
-2.59463 1.97462 3.93092
-2.74621 1.96946 3.84463
-2.70077 1.96669 3.85717
-2.52717 1.96464 3.93388
-2.74626 1.96128 3.81414
-2.62612 1.95937 3.86418
-2.68175 1.957 3.82632
-2.73541 1.95524 3.78951
-2.75673 1.95353 3.7689
-2.80323 1.95189 3.73571
-2.79022 1.9511 3.73236
-2.83447 1.94959 3.70033
-2.74352 1.94814 3.73593
-2.93349 1.94755 3.63113
-2.80677 1.94624 3.68464
-2.70875 1.94601 3.72386
-2.67386 1.9456 3.73151
-2.63407 1.94526 3.74162
-2.72261 1.9442 3.68755
-2.65905 1.94401 3.70955
-2.72364 1.94395 3.66749
-2.6189 1.94387 3.71009
-2.62715 1.94385 3.6962
-2.68022 1.94388 3.65989
-2.56627 1.94393 3.7071
-2.6635 1.94407 3.64871
-2.59841 1.94429 3.67148
-2.64829 1.94539 3.63675
-2.70934 1.94575 3.59644
-2.64058 1.94596 3.62104
-2.69469 1.94644 3.58418
-2.528 1.9478 3.65769
-2.65244 1.94842 3.58566
-2.52289 1.94992 3.64056
-2.61017 1.9515 3.58704
-2.43779 1.95232 3.66337
-2.66863 1.95404 3.53803
-2.65561 1.95582 3.53459
-2.66764 1.95684 3.51867
-2.45274 1.96013 3.61602
-2.49389 1.96213 3.58543
-2.40709 1.96482 3.61872
-2.35459 1.96763 3.63483
-2.45171 1.97138 3.576
-2.52754 1.97525 3.52777
-2.5344 1.98076 3.51381
-2.43083 1.98901 3.55469
-2.63409 2.00532 3.94344
-2.54712 1.99473 3.97558
-2.53786 1.98843 3.96949
-2.84883 1.98387 3.80355
-2.72157 1.97868 3.8567
-2.70059 1.97589 3.85701
-2.66471 1.97383 3.86487
-2.51642 1.97045 3.92883
-2.79032 1.96853 3.78187
-2.85233 1.96614 3.74083
-2.56993 1.96436 3.87206
-2.82165 1.96265 3.73626
-2.7031 1.96099 3.78561
-2.63001 1.96019 3.81231
-2.8322 1.95867 3.70133
-2.80448 1.95801 3.70537
-2.69808 1.95662 3.74871
-2.55205 1.9561 3.81193
-2.71968 1.95506 3.7183
-2.66381 1.95465 3.73645
-2.61566 1.95431 3.75075
-2.7655 1.95323 3.66604
-2.72334 1.95304 3.67736
-2.83521 1.95297 3.61167
-2.69475 1.95288 3.67214
-2.6568 1.95287 3.68136
-2.63262 1.95289 3.68369
-2.75452 1.95293 3.61299
-2.63167 1.95307 3.66465
-2.71378 1.95329 3.61383
-2.70851 1.95439 3.60669
-2.66367 1.95475 3.61934
-2.72008 1.95496 3.58136
-2.81664 1.95625 3.52326
-2.87254 1.95679 3.48552
-2.67957 1.95823 3.57216
-2.55912 1.95892 3.62257
-2.62185 1.9605 3.58134
-2.58633 1.96132 3.58925
-2.58533 1.96304 3.57984
-2.62392 1.96482 3.55061
-2.63092 1.96668 3.53716
-2.65172 1.96915 3.51673
-2.64664 1.97116 3.50927
-2.53477 1.97385 3.55511
-2.5561 1.97599 3.53438
-2.52856 1.98044 3.53783
-2.60621 1.98431 3.48871
-2.54658 1.98906 3.50809
-2.46142 1.99644 3.53988
-2.6532 2.01464 3.93357
-2.59498 2.004 3.95136
-2.61344 1.99766 3.93142
-2.71725 1.99308 3.86906
-2.70861 1.98865 3.863
-2.71601 1.98506 3.84905
-2.66947 1.98299 3.86225
-2.66866 1.97958 3.85249
-2.62562 1.97764 3.864
-2.85678 1.97524 3.7384
-2.74059 1.97345 3.78654
-2.68416 1.97172 3.80482
-2.7439 1.97086 3.7651
-2.70835 1.96925 3.77298
-2.83028 1.96771 3.70214
-2.77947 1.96705 3.71774
-2.63021 1.96565 3.78253
-2.8013 1.96512 3.6872
-2.78984 1.96407 3.68313
-2.77118 1.96365 3.68269
-2.84519 1.96331 3.63591
-2.84057 1.96303 3.62847
-2.8124 1.96202 3.63278
-2.86463 1.96195 3.59692
-2.66168 1.96186 3.68865
-2.69858 1.96184 3.66045
-2.70764 1.96186 3.64618
-2.69381 1.9619 3.64335
-2.7627 1.96203 3.59916
-2.74841 1.96306 3.59654
-2.71302 1.96335 3.60448
-2.65751 1.96371 3.62248
-2.62968 1.96391 3.62663
-2.55989 1.96521 3.65173
-2.655 1.96575 3.59439
-2.79293 1.96719 3.5156
-2.63426 1.96787 3.58512
-2.76192 1.96946 3.51144
-2.60014 1.97111 3.58244
-2.50419 1.972 3.62057
-2.796 1.97379 3.46475
-2.68673 1.97565 3.50944
-2.8379 1.97813 3.42384
-2.77913 1.98014 3.44323
-2.57892 1.98369 3.53318
-2.53484 1.98584 3.54517
-2.44395 1.98874 3.58047
-2.51873 1.99334 3.53272
-2.50517 1.9981 3.52907
-2.51612 2.00638 3.51273
-2.80122 2.02473 3.85936
-2.68121 2.01403 3.90804
-2.63592 2.00686 3.91989
-2.77066 2.00225 3.84208
-2.8201 1.9978 3.80699
-2.73528 1.99418 3.83917
-2.70431 1.9921 3.84459
-2.72574 1.98867 3.82372
-2.77305 1.98672 3.79007
-2.75744 1.9843 3.78786
-2.63107 1.9825 3.84111
-2.68676 1.98076 3.80334
-2.86828 1.97989 3.70274
-2.69141 1.97827 3.78129
-2.70154 1.97672 3.76637
-2.61525 1.97605 3.79971
-2.86987 1.97463 3.66258
-2.73518 1.9741 3.72015
-2.70176 1.97386 3.7271
-2.83812 1.97262 3.64913
-2.9017 1.97227 3.60759
-2.70018 1.97199 3.6986
-2.78933 1.97096 3.64427
-2.82564 1.97089 3.61638
-2.60885 1.97079 3.71504
-2.92198 1.97077 3.54874
-2.84958 1.97079 3.57521
-2.75619 1.97088 3.61217
-2.87981 1.97178 3.54062
-2.72374 1.97199 3.60892
-2.55145 1.97227 3.68532
-2.65202 1.97262 3.62529
-2.78411 1.97366 3.54946
-2.75657 1.97412 3.55348
-2.54091 1.97466 3.65153
-2.66673 1.9761 3.57881
-2.67295 1.97763 3.56586
-2.74906 1.97837 3.518
-2.68674 1.98003 3.53929
-2.52659 1.98177 3.60948
-2.53333 1.98271 3.59626
-2.51466 1.98457 3.59567
-2.556 1.9865 3.56504
-2.69658 1.98908 3.48473
-2.49939 1.99115 3.57331
-2.62196 1.9948 3.50185
-2.52566 1.99771 3.53987
-2.56061 2.00319 3.51196
-2.41261 2.00797 3.57555
-2.30382 2.01541 3.61918
-2.52848 2.03398 3.99541
-2.74673 2.02323 3.87498
-2.67357 2.01683 3.90087
-2.56012 2.01138 3.94708
-2.5868 2.0069 3.92338
-2.81948 2.00326 3.79681
-2.66359 2.00117 3.86472
-2.72497 1.99853 3.82395
-2.59833 1.99657 3.87729
-2.68692 1.99332 3.82292
-2.68344 1.99151 3.81473
-2.76319 1.98975 3.76495
-2.72849 1.98888 3.77247
-2.64883 1.98725 3.80243
-2.5404 1.98568 3.84679
-2.72543 1.98501 3.74449
-2.92115 1.98358 3.63682
-2.68491 1.98304 3.74517
-2.74603 1.9828 3.70487
-2.70751 1.98155 3.71435
-2.83485 1.98119 3.64094
-2.71742 1.9809 3.68992
-2.6588 1.98069 3.7095
-2.74024 1.98062 3.65905
-2.78485 1.97969 3.62702
-2.6606 1.97966 3.67942
-2.79118 1.98051 3.60441
-2.73812 1.9806 3.62121
-2.72184 1.98067 3.61963
-2.67033 1.98087 3.63566
-2.6717 1.98115 3.62524
-2.79409 1.98234 3.55429
-2.65209 1.98254 3.61555
-2.90055 1.983 3.48157
-2.69179 1.98438 3.57616
-2.69624 1.98498 3.56416
-2.67583 1.9865 3.56455
-2.47205 1.98725 3.65665
-2.59964 1.98891 3.58299
-2.58472 1.99065 3.58058
-2.66369 1.99245 3.5312
-2.47985 1.99346 3.61326
-2.5998 1.99539 3.54334
-2.57549 1.99884 3.54542
-2.6757 2.00092 3.48531
-2.43799 2.00372 3.59408
-2.58612 2.0075 3.50981
-2.60301 2.01214 3.49103
-2.49763 2.01694 3.53332
-2.49687 2.02358 3.52305
-2.74018 2.04318 3.88925
-2.6884 2.03238 3.90384
-2.62516 2.02595 3.92479
-2.50489 2.02046 3.97442
-2.86229 2.01597 3.78537
-2.68031 2.0123 3.86614
-2.89509 2.0102 3.74872
-2.77019 2.00755 3.80111
-2.7427 2.00557 3.80489
-2.69821 2.0023 3.81707
-2.80609 2.00047 3.75321
-2.77533 1.99953 3.75876
-2.71347 1.99783 3.77981
-2.71911 1.99619 3.76713
-2.79703 1.99461 3.71833
-2.70099 1.99393 3.75658
-2.87341 1.99248 3.66056
-2.855 1.99194 3.66002
-2.54788 1.99147 3.80384
-2.85452 1.99043 3.64076
-2.80224 1.99007 3.65717
-2.76922 1.98978 3.66396
-2.66463 1.98956 3.70653
-2.71226 1.98949 3.67301
-2.73299 1.98938 3.65293
-2.79158 1.98935 3.61392
-2.71323 1.98937 3.64339
-2.70845 1.98945 3.63606
-2.93943 1.98952 3.51086
-2.7574 1.98971 3.59216
-2.7208 1.98998 3.60074
-2.87365 1.99118 3.51457
-2.52812 1.99138 3.67761
-2.71042 1.99183 3.57673
-2.76273 1.99321 3.54079
-2.68052 1.99381 3.57214
-2.58374 1.99534 3.61072
-2.76141 1.99694 3.51206
-2.69022 1.99775 3.53786
-2.80318 1.99949 3.47152
-2.63255 2.0013 3.54694
-2.66395 2.00318 3.52134
-2.7002 2.00512 3.49328
-2.60993 2.0077 3.52841
-2.60107 2.00979 3.52286
-2.64308 2.01259 3.49178
-2.38699 2.01639 3.60963
-2.56934 2.02104 3.50813
-2.45577 2.02675 3.55444
-2.50632 2.03253 3.51862
-2.56594 2.05235 3.97605
-2.6145 2.03985 3.94029
-2.64311 2.03342 3.91533
-2.63838 2.02951 3.90739
-2.71931 2.02499 3.8566
-2.72382 2.02131 3.84413
-2.80337 2.01856 3.79428
-2.86825 2.01652 3.75185
-2.82786 2.01315 3.76197
-2.8065 2.01125 3.76272
-2.8658 2.0094 3.72316
-2.77243 2.00846 3.76003
-2.8021 2.00674 3.73532
-2.74994 2.00508 3.75156
-2.82501 2.00433 3.70425
-2.88289 2.00281 3.66549
-2.80847 2.00135 3.69291
-2.86075 2.00081 3.65704
-2.79639 2.00033 3.67948
-2.83791 1.99928 3.64898
-2.73992 1.99891 3.68825
-2.81893 1.99862 3.63904
-2.83132 1.99839 3.62314
-2.89722 1.99831 3.58049
-2.79558 1.9982 3.62161
-2.70821 1.99817 3.65559
-2.72833 1.99818 3.63583
-2.6899 1.99826 3.64535
-2.63622 1.99833 3.66249
-2.724 1.99852 3.6089
-2.65375 1.99878 3.63432
-2.78979 1.99998 3.55657
-2.65483 2.00018 3.61433
-2.63156 2.00062 3.61624
-2.66475 2.00201 3.58988
-2.81455 2.00347 3.5052
-2.57316 2.00414 3.61614
-2.56554 2.00574 3.61013
-2.7971 2.00742 3.48452
-2.67133 2.00829 3.5376
-2.59766 2.01011 3.56457
-2.76093 2.01199 3.47304
-2.52452 2.01393 3.58133
-2.51707 2.01652 3.57506
-2.46482 2.01862 3.59122
-2.59414 2.02231 3.51642
-2.54753 2.02524 3.52962
-2.5599 2.0308 3.51304
-2.62412 2.03396 3.47073
-2.56742 2.04233 3.48828
-2.42726 2.05707 3.54672
-2.56611 2.06062 3.97554
-2.89199 2.04975 3.80134
-2.66614 2.04245 3.90353
-2.9554 2.03779 3.74852
-2.74184 2.03398 3.84506
-2.68792 2.03027 3.86183
-2.82225 2.02751 3.7846
-2.75309 2.02546 3.8092
-2.8901 2.02206 3.73063
-2.76906 2.02015 3.78123
