ply
format ascii 1.0
comment Created by Open3D
element vertex 1748
property double x
property double y
property double z
end_header
-0.842374 -2.86875 0.867263
-0.800176 -2.86625 0.881524
-1.08375 -2.86445 0.731998
-0.960417 -2.86277 0.785792
-1.04573 -2.86119 0.735134
-0.905368 -2.85965 0.797281
-1.24091 -2.85743 0.622377
-0.74695 -2.85611 0.861051
-0.865415 -2.85472 0.793611
-1.16165 -2.85359 0.636956
-0.85266 -2.8523 0.783129
-0.730877 -2.85137 0.835235
-0.972243 -2.8498 0.706626
-0.938618 -2.84868 0.714918
-1.02816 -2.84808 0.66093
-0.758426 -2.84707 0.787153
-1.06108 -2.84668 0.626345
-0.915409 -2.84577 0.690403
-1.10604 -2.84482 0.586367
-1.08713 -2.84477 0.585883
-0.975807 -2.84404 0.632543
-0.877982 -2.84411 0.671367
-0.880419 -2.84358 0.660876
-0.90463 -2.84395 0.638262
-1.02392 -2.84342 0.569341
-1.1544 -2.844 0.493305
-1.01773 -2.84358 0.552225
-0.999238 -2.84404 0.550835
-0.801114 -2.84451 0.63924
-0.90301 -2.8448 0.577893
-0.755285 -2.84597 0.640115
-0.795262 -2.84651 0.609361
-0.824524 -2.84793 0.582724
-0.949168 -2.84872 0.509281
-0.959673 -2.85125 0.490438
-1.05466 -2.85232 0.431401
-0.945889 -2.85526 0.471581
-0.87729 -2.8566 0.493941
-0.760683 -2.86106 0.535832
-0.93934 -2.86389 0.432399
-1.00652 -2.87157 0.37772
-0.823122 -2.9172 0.953094
-0.972045 -2.90663 0.881543
-1.03672 -2.90137 0.845534
-1.111 -2.89619 0.804665
-0.814861 -2.89047 0.949711
-0.974734 -2.8869 0.864081
-0.81868 -2.88261 0.937362
-0.725915 -2.87865 0.978601
-0.851944 -2.8761 0.908677
-1.07741 -2.87284 0.789952
-1.06539 -2.86966 0.789888
-0.60569 -2.86658 1.01357
-1.0315 -2.86437 0.793396
-1.14621 -2.86226 0.728656
-1.01271 -2.85947 0.788914
-0.796803 -2.85756 0.889252
-0.772117 -2.8551 0.894714
-0.868617 -2.85336 0.838655
-0.826753 -2.85174 0.851641
-1.15683 -2.8502 0.678556
-0.831493 -2.84798 0.83408
-1.12326 -2.84654 0.680052
-0.840336 -2.84528 0.813128
-1.02103 -2.84393 0.714525
-0.953278 -2.84287 0.73978
-0.863521 -2.84162 0.77629
-1.00129 -2.84075 0.698534
-0.88942 -2.83925 0.74645
-1.02544 -2.83817 0.669871
-0.900487 -2.83764 0.723041
-0.680309 -2.83667 0.824433
-0.99705 -2.83634 0.656487
-0.900208 -2.8354 0.696182
-1.2269 -2.83535 0.522881
-1.05159 -2.83459 0.601576
-0.856648 -2.83392 0.689954
-0.885882 -2.83402 0.665198
-0.931712 -2.83356 0.632911
-1.18705 -2.83399 0.494636
-1.22081 -2.83351 0.468426
-0.923885 -2.83376 0.606534
-0.870661 -2.83416 0.622582
-0.887863 -2.83507 0.602713
-0.655148 -2.83482 0.709413
-0.983444 -2.83576 0.533931
-1.04125 -2.83639 0.494132
-1.12031 -2.83772 0.442725
-0.948971 -2.83925 0.516216
-1.07803 -2.84015 0.440388
-0.847536 -2.84191 0.543109
-1.01994 -2.84303 0.445279
-0.782698 -2.84709 0.548078
-0.904806 -2.84852 0.474932
-0.679193 -2.85435 0.569326
-0.864751 -2.85863 0.460319
-0.755546 -2.86807 0.491231
-0.925651 -2.91054 0.905398
-0.831895 -2.90069 0.954278
-0.677111 -2.89322 1.03076
-0.75544 -2.88803 0.987877
-0.78945 -2.88292 0.967078
-0.97087 -2.87792 0.872477
-0.717156 -2.87383 0.994329
-0.964631 -2.87039 0.864771
-0.787038 -2.86655 0.948301
-0.800606 -2.8633 0.93551
-0.72225 -2.86054 0.968077
-1.14746 -2.85784 0.748811
-0.849554 -2.85518 0.89107
-0.988753 -2.85275 0.814489
-1.10817 -2.85019 0.747993
-1.01112 -2.84823 0.788955
-0.97241 -2.84638 0.800625
-0.884215 -2.84396 0.837799
-1.18117 -2.84229 0.681442
-0.961866 -2.84072 0.783074
-1.07388 -2.83922 0.718976
-0.884555 -2.83707 0.806412
-1.09415 -2.83567 0.693426
-0.964031 -2.83447 0.750017
-0.979915 -2.83316 0.733775
-1.05255 -2.83216 0.68875
-1.13247 -2.83095 0.640371
-0.921051 -2.83015 0.737123
-0.98861 -2.82872 0.695233
-0.826956 -2.82768 0.767439
-1.05939 -2.82722 0.641824
-0.941433 -2.82628 0.692055
-0.913669 -2.82602 0.696269
-1.08192 -2.82515 0.603318
-0.877998 -2.82514 0.695278
-1.06352 -2.82441 0.593502
-1.03775 -2.82457 0.596161
-0.845901 -2.82394 0.682931
-0.665425 -2.82379 0.763377
-0.925581 -2.82405 0.622921
-0.958113 -2.82393 0.596807
-0.905511 -2.8243 0.612586
-0.944956 -2.82439 0.582735
-0.702218 -2.82513 0.693046
-0.94469 -2.82569 0.561006
-0.827569 -2.82682 0.60796
-1.16244 -2.82751 0.429535
-0.680926 -2.82897 0.658198
-0.755442 -2.82981 0.609723
-0.684447 -2.83166 0.63257
-1.044 -2.83352 0.440101
-0.811931 -2.83576 0.542883
-0.878768 -2.83897 0.494814
-0.539392 -2.84283 0.648898
-0.811653 -2.8465 0.497409
-0.803066 -2.85569 0.478361
-0.786047 -2.9083 0.973225
-0.687296 -2.89401 1.03015
-0.675799 -2.88574 1.03599
-0.904947 -2.88053 0.917714
-0.835701 -2.87472 0.949416
-0.724186 -2.8697 1.0013
-0.828908 -2.86538 0.944215
-1.06778 -2.86135 0.81972
-0.906545 -2.85796 0.894478
-0.854455 -2.85496 0.914201
-1.02872 -2.85176 0.821008
-0.974982 -2.84866 0.841732
-1.05554 -2.84641 0.794219
-0.801192 -2.84349 0.915045
-0.823402 -2.84143 0.896489
-1.09353 -2.83891 0.754597
-0.847571 -2.83701 0.869949
-0.828809 -2.83522 0.871575
-0.971807 -2.83284 0.79311
-1.12852 -2.83123 0.706799
-1.06011 -2.8297 0.732944
-1.04411 -2.82826 0.732778
-0.918398 -2.82618 0.788322
-1.06601 -2.82481 0.706281
-1.07736 -2.82368 0.692055
-0.885515 -2.82241 0.779631
-0.986111 -2.82148 0.720539
-1.04905 -2.8203 0.680605
-0.563364 -2.81957 0.914401
-1.09065 -2.81821 0.642553
-1.06973 -2.81721 0.644345
-1.00503 -2.81681 0.667205
-0.991701 -2.81591 0.665068
-0.899976 -2.81572 0.701169
-1.09753 -2.81492 0.593472
-0.742769 -2.81494 0.760799
-1.12123 -2.81425 0.562499
-1.08607 -2.81447 0.569756
-0.954631 -2.81388 0.62627
-0.845534 -2.81383 0.670883
-0.994453 -2.81412 0.585995
-0.951372 -2.81407 0.597589
-0.714444 -2.81447 0.705481
-0.802822 -2.81462 0.651065
-0.795463 -2.81564 0.643289
-0.955733 -2.81605 0.552558
-1.1667 -2.81732 0.43525
-0.938023 -2.81797 0.538632
-1.00397 -2.81949 0.493476
-0.889677 -2.82038 0.539316
-0.940312 -2.82304 0.500167
-1.03165 -2.8252 0.441359
-0.776012 -2.82832 0.554642
-0.938136 -2.83092 0.459776
-0.966286 -2.83567 0.428777
-0.655358 -2.83999 0.567901
-0.917106 -2.88879 0.916966
-0.857196 -2.87753 0.950758
-0.770869 -2.87232 0.990216
-0.875444 -2.86717 0.934181
-0.945316 -2.86146 0.896236
-0.872399 -2.85654 0.928735
-0.899175 -2.85307 0.909564
-1.03379 -2.84914 0.837087
-0.923228 -2.84584 0.886419
-1.12137 -2.84261 0.781319
-0.91504 -2.84024 0.877389
-0.915895 -2.83719 0.870758
-0.794065 -2.83499 0.92438
-0.753424 -2.83213 0.938292
-1.05348 -2.83013 0.780748
-1.16564 -2.82765 0.7178
-1.09654 -2.82581 0.744655
-0.984014 -2.82408 0.793095
-1.06004 -2.82174 0.74807
-0.967617 -2.82018 0.786255
-1.00244 -2.81869 0.760741
-0.792613 -2.81731 0.857408
-1.0657 -2.81531 0.713471
-0.890198 -2.81397 0.792942
-0.958834 -2.81291 0.74999
-1.09872 -2.81167 0.671653
-0.997892 -2.81081 0.713186
-0.964755 -2.80967 0.72124
-1.01251 -2.809 0.688226
-0.896536 -2.80772 0.737917
-1.07614 -2.80732 0.638626
-0.755751 -2.80642 0.790006
-1.12966 -2.80556 0.5942
-1.1904 -2.80543 0.553975
-0.919093 -2.80468 0.68064
-1.08234 -2.80476 0.588883
-1.0916 -2.8041 0.575128
-0.851517 -2.80439 0.684755
-0.856563 -2.80384 0.67297
-1.02966 -2.80388 0.576342
-0.896862 -2.80421 0.632262
-1.08974 -2.80496 0.524744
-1.06433 -2.80465 0.52786
-0.836914 -2.80538 0.630508
-0.785766 -2.80594 0.645271
-0.830283 -2.80705 0.611403
-0.908771 -2.80773 0.561162
-0.805038 -2.80921 0.600886
-0.945103 -2.81083 0.518499
-0.815832 -2.81183 0.571656
-1.03088 -2.81464 0.450063
-0.805688 -2.8159 0.550779
-0.861859 -2.82019 0.506451
-0.970344 -2.82291 0.4382
-0.998721 -2.82907 0.405009
-0.806477 -2.84259 0.47139
-0.731883 -2.8857 1.00861
-0.61978 -2.873 1.0703
-1.06412 -2.86408 0.849079
-0.74261 -2.85748 1.00792
-0.817252 -2.85385 0.964958
-0.561241 -2.84825 1.08985
-0.818274 -2.84476 0.955566
-0.862943 -2.84057 0.928391
-0.928824 -2.83747 0.88924
-0.796236 -2.83422 0.949537
-0.90403 -2.83105 0.889563
-1.13471 -2.82797 0.768056
-0.976511 -2.82573 0.839911
-0.945286 -2.82283 0.849161
-0.973805 -2.82079 0.827441
-0.847401 -2.81884 0.883065
-0.846292 -2.8164 0.876709
-0.96121 -2.81462 0.811488
-1.1835 -2.81295 0.692448
-1.01624 -2.81065 0.76902
-1.31012 -2.80915 0.613977
-1.01133 -2.8077 0.755224
-1.09615 -2.80639 0.70449
-0.854365 -2.80445 0.817907
-1.13285 -2.8039 0.669333
-0.805605 -2.80215 0.825242
-1.03654 -2.80096 0.701333
-0.925261 -2.80015 0.748003
-1.0048 -2.79906 0.699672
-0.869082 -2.79845 0.758304
-0.930103 -2.79724 0.719402
-1.11242 -2.79705 0.618454
-0.83593 -2.79605 0.748042
-0.901731 -2.79592 0.705284
-1.05297 -2.79516 0.620668
-1.0279 -2.7945 0.624085
-0.849542 -2.79459 0.703112
-1.01198 -2.79413 0.612497
-0.897879 -2.79432 0.659255
-1.0667 -2.79406 0.565169
-0.91935 -2.79435 0.628408
-0.803201 -2.7943 0.676527
-1.15854 -2.79484 0.488073
-0.91442 -2.79532 0.599415
-1.01327 -2.79624 0.538651
-0.961354 -2.79686 0.553704
-0.734625 -2.79745 0.656193
-0.926558 -2.79889 0.548134
-0.878279 -2.80044 0.560004
-0.862817 -2.80138 0.556336
-0.622497 -2.80336 0.663595
-0.78914 -2.80631 0.565972
-0.886598 -2.80875 0.503652
-0.676325 -2.81212 0.593829
-0.717064 -2.81815 0.554617
-0.963408 -2.8239 0.412963
-0.841938 -2.86621 0.962867
-0.913727 -2.85653 0.92889
-1.00981 -2.85066 0.877995
-1.04098 -2.84415 0.860422
-0.811519 -2.84057 0.969463
-1.0258 -2.83568 0.85834
-1.00273 -2.83168 0.864787
-0.939891 -2.82833 0.890308
-1.09206 -2.82506 0.808255
-0.927104 -2.82186 0.884688
-0.85121 -2.8195 0.915526
-0.986664 -2.81647 0.841578
-1.01321 -2.81353 0.821984
-1.08527 -2.81145 0.778545
-0.947925 -2.80945 0.839696
-0.983805 -2.80757 0.814112
-1.1105 -2.80517 0.743813
-0.676713 -2.80344 0.952874
-1.0027 -2.80183 0.78191
-1.1695 -2.79958 0.691413
-0.690841 -2.79814 0.922562
-0.896118 -2.79673 0.811732
-1.09226 -2.79547 0.705257
-0.888591 -2.7936 0.799529
-0.988886 -2.79309 0.740007
-0.905543 -2.79141 0.773875
-1.10917 -2.79025 0.663572
-1.05209 -2.78952 0.683057
-0.756778 -2.78846 0.822098
-0.82794 -2.78792 0.777202
-1.0731 -2.78678 0.646137
-0.985115 -2.78663 0.680291
-0.916916 -2.78569 0.705636
-1.09603 -2.78562 0.606127
-0.820451 -2.78489 0.734892
-0.816414 -2.78431 0.727672
-0.860736 -2.78443 0.695308
-1.04677 -2.78404 0.592799
-1.07769 -2.78426 0.566995
-0.868521 -2.78407 0.661804
-1.0249 -2.78475 0.572631
-1.09995 -2.78441 0.525548
-0.745038 -2.78528 0.691737
-0.934555 -2.78555 0.586553
-0.939122 -2.78656 0.572794
-0.942464 -2.7872 0.560167
-1.11483 -2.78857 0.461983
-1.0594 -2.78934 0.478549
-0.93746 -2.79178 0.525953
-0.719565 -2.79283 0.62333
-0.893585 -2.79568 0.52214
-0.816658 -2.79699 0.548638
-0.69661 -2.80133 0.592292
-0.833001 -2.80529 0.508241
-0.761271 -2.81158 0.524841
-0.736147 -2.85938 1.01945
-0.877634 -2.84971 0.950597
-0.991665 -2.84306 0.891713
-0.781347 -2.83651 0.99493
-1.0154 -2.83226 0.873071
-1.18261 -2.82735 0.785506
-0.818526 -2.82331 0.9625
-1.05993 -2.81994 0.835916
-0.723564 -2.81665 0.998156
-0.924017 -2.81296 0.892505
-0.953869 -2.80986 0.871432
-0.828078 -2.80721 0.927604
-1.1286 -2.80466 0.770517
-0.857319 -2.80211 0.899347
-0.940065 -2.80007 0.850504
-0.919072 -2.79814 0.853414
-1.12236 -2.79631 0.744058
-0.940401 -2.79395 0.828044
-0.8416 -2.79228 0.869542
-0.85538 -2.79073 0.85461
-0.985544 -2.78852 0.782381
-0.684709 -2.78715 0.924542
-0.982665 -2.78577 0.767327
-1.00967 -2.78458 0.745339
-0.726978 -2.78329 0.878341
-0.932532 -2.7823 0.766841
-1.03904 -2.78069 0.705693
-1.04643 -2.77995 0.692942
-1.02257 -2.7789 0.696248
-1.09167 -2.77787 0.653033
-0.836334 -2.7774 0.771295
-0.913298 -2.77633 0.724232
-1.27683 -2.77621 0.532582
-1.09246 -2.77534 0.615913
-0.973886 -2.77533 0.665179
-0.960654 -2.77461 0.662738
-0.775162 -2.77414 0.746103
-0.715799 -2.77429 0.765531
-1.00063 -2.77397 0.613523
-0.842535 -2.77422 0.682176
-1.01672 -2.7741 0.585214
-1.1221 -2.77483 0.521442
-1.08053 -2.77497 0.531985
-1.12449 -2.77545 0.499278
-0.642788 -2.77579 0.729605
-0.844161 -2.77697 0.617186
-0.849667 -2.77755 0.603548
-1.0633 -2.77973 0.483557
-0.769182 -2.77979 0.620461
-0.762349 -2.78231 0.610186
-0.731109 -2.78341 0.614151
-1.09077 -2.78734 0.418543
-0.749475 -2.78983 0.575491
-0.823578 -2.79323 0.523385
-0.728539 -2.80058 0.550079
-0.620124 -2.8078 0.583582
-0.678976 -2.86266 1.03891
-0.874203 -2.84434 0.954124
-0.666948 -2.83475 1.05962
-0.932455 -2.82963 0.923091
-0.799928 -2.82317 0.987338
-0.977603 -2.81899 0.893597
-0.925128 -2.81477 0.915022
-0.969638 -2.81079 0.887667
-0.966005 -2.80747 0.883563
-1.15959 -2.80422 0.780782
-0.925929 -2.80135 0.891149
-0.719449 -2.7983 0.988188
-0.773831 -2.79608 0.953731
-1.06262 -2.79321 0.802936
-0.889 -2.7907 0.882899
-1.21007 -2.78872 0.714831
-0.953195 -2.78684 0.835618
-0.69483 -2.78433 0.958
-1.08902 -2.78266 0.752996
-0.931879 -2.78114 0.823484
-0.748063 -2.77964 0.907282
-1.02299 -2.77748 0.76262
-1.00517 -2.77617 0.763195
-0.915637 -2.77483 0.799679
-0.938267 -2.7737 0.779798
-1.01512 -2.77245 0.732978
-1.01512 -2.77152 0.724172
-1.09501 -2.76998 0.676242
-1.00002 -2.76931 0.714593
-1.08005 -2.76829 0.665901
-0.914897 -2.76781 0.73907
-1.19276 -2.7669 0.591338
-1.03695 -2.7659 0.660565
-1.12308 -2.76581 0.607563
-0.90084 -2.76502 0.709737
-0.940587 -2.76503 0.679792
-0.629152 -2.76435 0.826399
-0.714422 -2.76398 0.77424
-1.06786 -2.76416 0.587217
-0.984243 -2.76463 0.618324
-0.981287 -2.76419 0.610368
-0.862811 -2.76451 0.659098
-1.04552 -2.76493 0.557108
-1.00979 -2.76513 0.564634
-0.95578 -2.76564 0.580859
-0.956878 -2.76663 0.568832
-0.848397 -2.76793 0.611161
-0.995819 -2.76863 0.526384
-0.546183 -2.77016 0.738935
-0.816752 -2.77195 0.590995
-1.12999 -2.77375 0.421686
-0.866586 -2.77594 0.540132
-0.917115 -2.77906 0.50024
-0.768384 -2.78354 0.557978
-0.933092 -2.7864 0.461323
-0.963418 -2.79535 0.422912
-0.852486 -2.83816 0.967795
-0.92574 -2.82858 0.933021
-0.708255 -2.82128 1.04076
-0.486152 -2.81481 1.14981
-0.845361 -2.81125 0.964494
-0.749688 -2.80577 1.00913
-0.708672 -2.80237 1.02379
-0.660182 -2.79903 1.04214
-0.88761 -2.79526 0.923105
-1.09759 -2.79209 0.812034
-0.785693 -2.78901 0.961815
-1.00957 -2.78675 0.842652
-0.782261 -2.78385 0.949955
-0.866488 -2.78177 0.900413
-0.907458 -2.7793 0.87304
-0.925709 -2.77737 0.856319
-0.787281 -2.77555 0.917814
-0.940802 -2.7731 0.834182
-1.18052 -2.77156 0.706267
-0.659814 -2.77001 0.95857
-0.794841 -2.76855 0.882905
-1.01346 -2.76645 0.766314
-0.772992 -2.76521 0.878133
-1.0144 -2.7639 0.749103
-0.960195 -2.76284 0.767556
-0.961996 -2.76163 0.758216
-0.911109 -2.76076 0.774766
-0.913943 -2.75929 0.765277
-0.953588 -2.75897 0.735822
-0.792238 -2.7577 0.808168
-1.06751 -2.75729 0.66103
-0.944506 -2.75641 0.71368
-1.06005 -2.7562 0.646136
-0.909471 -2.75543 0.712441
-1.09058 -2.7547 0.612839
-0.677927 -2.75475 0.809047
-0.884991 -2.75422 0.696193
-0.918828 -2.75437 0.669013
-0.973981 -2.75405 0.631835
-0.888549 -2.75457 0.663754
-0.791363 -2.75417 0.70286
-0.839972 -2.75489 0.667475
-0.910757 -2.75503 0.621828
-0.617967 -2.75583 0.757019
-1.07325 -2.7564 0.518505
-0.957969 -2.75757 0.564397
-0.721763 -2.75826 0.671443
-0.805446 -2.75972 0.617421
-0.803164 -2.76059 0.60723
-0.899182 -2.76317 0.545414
-0.855794 -2.76431 0.555364
-0.675826 -2.7683 0.629436
-0.623231 -2.76973 0.643534
-0.875374 -2.77546 0.498969
-0.894701 -2.78295 0.468174
-0.897773 -2.83701 0.941545
-0.706893 -2.82166 1.04617
-0.996798 -2.81361 0.901179
-1.0477 -2.80784 0.872808
-0.815602 -2.80286 0.984975
-1.07433 -2.79797 0.851647
-0.944635 -2.79393 0.911464
-0.739613 -2.78983 1.00905
-0.802965 -2.78654 0.971435
-0.890234 -2.78357 0.921457
-0.970401 -2.78046 0.87524
-1.20854 -2.77743 0.749952
-0.936267 -2.77522 0.878811
-0.825665 -2.77237 0.927698
-0.867073 -2.77035 0.899505
-0.839469 -2.76791 0.906381
-0.918382 -2.76604 0.859264
-1.14636 -2.76355 0.738459
-0.77966 -2.7619 0.913892
-0.996151 -2.76038 0.797549
-1.10657 -2.7589 0.734219
-1.07249 -2.75748 0.743061
-0.778016 -2.75544 0.882935
-0.680913 -2.75426 0.922992
-0.998628 -2.75299 0.755761
-0.869689 -2.75199 0.811498
-1.07399 -2.75082 0.700862
-0.877955 -2.75001 0.789898
-0.989246 -2.74862 0.726088
-0.903814 -2.74833 0.759126
-1.01429 -2.74713 0.695464
-1.01883 -2.74678 0.683606
-0.993876 -2.74594 0.687175
-0.95652 -2.7458 0.695989
-0.701492 -2.74506 0.814465
-0.919762 -2.7444 0.696188
-0.871341 -2.74448 0.710227
-0.965682 -2.74402 0.653636
-0.793414 -2.7442 0.729458
-0.885764 -2.74394 0.673584
-0.957277 -2.74453 0.626936
-1.03427 -2.74454 0.578368
-0.856989 -2.74494 0.656365
-0.959871 -2.74514 0.594572
-0.708784 -2.74618 0.708568
-0.771105 -2.74663 0.666689
-0.798852 -2.74791 0.640903
-0.909348 -2.7486 0.57458
-0.728233 -2.75091 0.651713
-0.857981 -2.75188 0.575336
-0.645615 -2.7546 0.667473
-0.758542 -2.75584 0.599105
-0.478529 -2.76 0.722912
-0.790206 -2.76382 0.551357
-0.530003 -2.76866 0.664217
-0.657131 -2.7791 0.575099
-0.896975 -2.8147 0.954892
-0.799488 -2.80666 1.00358
-0.934262 -2.80013 0.934248
-0.873998 -2.79444 0.961398
-0.856297 -2.78954 0.9663
-0.788249 -2.78474 0.996274
-0.721012 -2.78079 1.02476
-0.788067 -2.77751 0.985275
-1.08833 -2.7743 0.829119
-0.799956 -2.77116 0.967202
-0.969107 -2.7681 0.876443
-0.970818 -2.76586 0.868354
-0.820757 -2.76297 0.937013
-1.15369 -2.76091 0.763109
-1.09399 -2.75894 0.785407
-0.886105 -2.75654 0.882385
-0.990678 -2.75458 0.822565
-0.886788 -2.7523 0.867429
-1.13545 -2.75142 0.734139
-1.01951 -2.74923 0.78494
-0.951735 -2.7478 0.810628
-0.88151 -2.74641 0.837501
-0.946799 -2.74445 0.797412
-0.801325 -2.74333 0.861572
-0.783845 -2.7421 0.861892
-0.834204 -2.74116 0.827896
-0.854323 -2.74003 0.809301
-0.919494 -2.73929 0.767648
-0.94346 -2.73825 0.747009
-0.884513 -2.7377 0.767156
-0.944047 -2.73657 0.728873
-0.699739 -2.73629 0.841344
-0.958649 -2.73549 0.702931
-1.05295 -2.73541 0.645823
-1.03504 -2.7347 0.645701
-1.12158 -2.73412 0.593177
-0.928386 -2.73423 0.679553
-0.856191 -2.73384 0.706133
-1.12568 -2.73404 0.561028
-0.809965 -2.73416 0.708651
-1.12497 -2.7345 0.540597
-0.713333 -2.73457 0.736246
-0.853945 -2.735 0.655247
-0.987197 -2.7358 0.577413
-1.00956 -2.73636 0.555353
-0.493681 -2.73752 0.80154
-0.889784 -2.7382 0.592424
-0.974788 -2.73971 0.537644
-0.931948 -2.74132 0.546626
-0.858601 -2.74325 0.570394
-0.799297 -2.74513 0.587197
-0.813932 -2.74918 0.563833
-0.987202 -2.75176 0.463283
-0.68751 -2.75642 0.596132
-0.951861 -2.76526 0.440754
-0.735286 -2.81493 1.03029
-0.78256 -2.79967 1.01582
-0.813438 -2.7917 1.00029
-0.902678 -2.78668 0.95182
-0.749943 -2.78174 1.02428
-0.98467 -2.77626 0.903737
-0.872345 -2.77287 0.954048
-0.828113 -2.76899 0.970981
-0.990637 -2.76575 0.883715
-0.768689 -2.76258 0.988616
-0.909251 -2.7595 0.912183
-0.768071 -2.75649 0.976536
-0.554228 -2.75395 1.07662
-0.865232 -2.75147 0.914236
-0.930725 -2.74946 0.873992
-1.04744 -2.74754 0.808023
-1.07351 -2.74519 0.787978
-0.976875 -2.74343 0.828502
-0.853146 -2.74178 0.882441
-1.09236 -2.74024 0.754772
-1.17429 -2.73809 0.706591
-0.913294 -2.73672 0.828812
-1.02128 -2.73537 0.766537
-0.634651 -2.73419 0.951349
-0.808696 -2.73242 0.85664
-1.09704 -2.73193 0.703024
-0.945928 -2.73035 0.770655
-0.961723 -2.72961 0.753686
-1.1322 -2.72857 0.659778
-1.16607 -2.72757 0.63414
-0.860979 -2.72709 0.777268
-0.91868 -2.72603 0.739807
-0.909789 -2.72581 0.734477
-1.0286 -2.72505 0.666061
-0.925273 -2.72502 0.707684
-0.863493 -2.72437 0.72942
-1.16042 -2.72444 0.570776
-0.974442 -2.72399 0.654337
-0.908647 -2.72436 0.676624
-0.88201 -2.7239 0.680525
-0.759425 -2.72411 0.731442
-0.653158 -2.72448 0.773975
-1.06668 -2.72531 0.555947
-0.662859 -2.72508 0.748113
-0.810013 -2.72665 0.662186
-0.682231 -2.72654 0.716151
-0.753842 -2.72848 0.667453
-0.859257 -2.72922 0.603574
-0.790696 -2.73077 0.625501
-0.542827 -2.73174 0.737923
-0.979784 -2.73443 0.505403
-0.786477 -2.73665 0.588679
-0.823375 -2.74087 0.553903
-0.862911 -2.74474 0.518292
-0.793064 -2.7496 0.535871
-0.870566 -2.79337 0.974692
-0.911565 -2.78539 0.954104
-0.60178 -2.77822 1.10792
-1.12949 -2.77327 0.840164
-1.04688 -2.7684 0.877499
-0.753975 -2.76364 1.01988
-1.02244 -2.75972 0.880498
-0.865505 -2.75646 0.952987
-0.871046 -2.75327 0.94417
-0.773404 -2.75016 0.986871
-1.04048 -2.74744 0.846721
-0.785878 -2.74489 0.967187
-1.31315 -2.74242 0.696636
-1.01255 -2.73998 0.840015
-0.9379 -2.73802 0.869781
-1.00225 -2.73616 0.829929
-1.03485 -2.73441 0.805824
-0.785778 -2.73214 0.923253
-0.883148 -2.73055 0.86657
-0.878331 -2.72907 0.860842
-0.915785 -2.72696 0.834852
-0.969821 -2.72566 0.799481
-0.76575 -2.72434 0.893189
-0.848762 -2.72322 0.8431
-1.31118 -2.722 0.603452
-0.879312 -2.72107 0.810565
-0.998355 -2.71955 0.743028
-1.03231 -2.71887 0.716891
-0.77049 -2.71788 0.839084
-0.945147 -2.71739 0.742336
-0.934862 -2.7165 0.738635
-0.981487 -2.71551 0.706616
-0.960894 -2.71541 0.706959
-1.25187 -2.71463 0.552493
-0.893898 -2.71463 0.72139
-0.982143 -2.71404 0.668017
-1.12376 -2.71415 0.586981
-0.884158 -2.71376 0.697253
-0.899625 -2.7142 0.678814
-1.12639 -2.71377 0.555962
-1.26564 -2.7144 0.475347
-0.77476 -2.71447 0.710607
-1.00591 -2.71536 0.583668
-0.70162 -2.71568 0.725266
-0.792102 -2.71681 0.668294
-0.957678 -2.71738 0.574595
-0.590922 -2.71875 0.745882
-0.793642 -2.71955 0.63326
-0.744769 -2.72198 0.644029
-0.749246 -2.72305 0.63011
-0.796238 -2.72588 0.592341
-0.649141 -2.7293 0.650724
-0.906355 -2.73261 0.507085
-0.807849 -2.73852 0.537423
-0.860348 -2.74884 0.485672
-0.527162 -2.78918 1.14653
-0.978583 -2.77834 0.924406
-0.724245 -2.77043 1.05145
-0.816201 -2.76477 1.00249
-0.722832 -2.75989 1.04521
-0.946266 -2.75511 0.929439
-1.0856 -2.75116 0.854661
-0.984209 -2.74789 0.899397
-0.752469 -2.74417 1.00991
-1.07422 -2.74107 0.842897
-0.810799 -2.73847 0.967816
-0.836588 -2.73581 0.948236
-0.924277 -2.73331 0.897524
-0.784988 -2.73091 0.960173
-0.801771 -2.7285 0.94482
-1.03265 -2.7266 0.821757
-0.961617 -2.72479 0.849531
-0.970333 -2.7231 0.837302
-0.918172 -2.72087 0.85623
-0.934858 -2.71934 0.839817
-1.07184 -2.71791 0.763128
-1.00043 -2.71585 0.791511
-0.980333 -2.71461 0.793126
-0.591138 -2.71333 0.979351
-1.01712 -2.71227 0.757696
-0.789528 -2.71109 0.863007
-0.988157 -2.71022 0.754785
-0.884484 -2.70877 0.798515
-1.19497 -2.70845 0.633617
-0.850492 -2.7072 0.797496
-0.982013 -2.70678 0.722226
-0.89738 -2.70592 0.755647
-0.810821 -2.705 0.790125
-0.973947 -2.70494 0.698559
-1.13002 -2.70422 0.611449
-1.20217 -2.70425 0.565234
-0.892499 -2.70373 0.710723
-0.814834 -2.70387 0.739276
-0.833919 -2.70378 0.719775
-0.747705 -2.70404 0.752415
-0.754045 -2.70398 0.739246
-0.93171 -2.70434 0.639805
-0.888732 -2.70493 0.650358
-1.03465 -2.70542 0.566603
-0.824274 -2.70637 0.660306
-1.19248 -2.70698 0.465221
-1.05423 -2.70829 0.522343
-0.733598 -2.70902 0.671479
-1.15423 -2.71137 0.447626
-0.900989 -2.71238 0.562641
-1.06267 -2.71512 0.467649
-0.750852 -2.71739 0.610064
-0.882959 -2.72166 0.527558
-0.510954 -2.72557 0.697595
-0.489285 -2.73172 0.689103
-0.934091 -2.77125 0.950496
-0.954491 -2.76334 0.940168
-0.90031 -2.75694 0.965232
-0.780022 -2.75136 1.02232
-0.956595 -2.74656 0.929997
-0.627615 -2.74319 1.08862
-0.941323 -2.73929 0.926612
-0.586521 -2.73535 1.09895
-0.918903 -2.73241 0.9264
-0.966375 -2.72936 0.896475
-0.844975 -2.72638 0.950901
-1.07945 -2.7242 0.826357
-0.911479 -2.72141 0.903875
-0.722594 -2.71941 0.9908
-0.838955 -2.71704 0.925621
-1.1554 -2.71519 0.759709
-0.925937 -2.71344 0.866632
-1.29534 -2.7118 0.673987
-0.834888 -2.70962 0.897019
-0.932758 -2.70815 0.83994
-0.887285 -2.70675 0.854434
-0.732878 -2.70476 0.924235
-0.944994 -2.70358 0.809665
-0.924221 -2.70234 0.811632
-1.00215 -2.70134 0.763922
-0.835135 -2.70019 0.838896
-0.98285 -2.69938 0.756046
-0.874586 -2.69801 0.80198
-1.00966 -2.69772 0.724745
-1.13221 -2.69653 0.655012
-0.826472 -2.69618 0.798283
-0.791771 -2.69536 0.806686
-0.945117 -2.69519 0.720143
-0.943497 -2.69447 0.711874
-0.665645 -2.69382 0.84163
-1.00123 -2.69389 0.663649
-0.847249 -2.69412 0.730214
-0.9834 -2.6936 0.652788
-1.01025 -2.6936 0.629264
-1.06985 -2.6939 0.588945
-0.926074 -2.69458 0.649752
-0.996051 -2.69429 0.60509
-0.99596 -2.69497 0.59406
-0.611313 -2.69548 0.775537
-1.02371 -2.6966 0.557607
-0.843961 -2.69716 0.636562
-0.903948 -2.69924 0.593421
-0.952864 -2.70008 0.557606
-0.717873 -2.70171 0.662579
-0.958168 -2.70368 0.529401
-0.674659 -2.70656 0.656774
-0.992824 -2.71003 0.48239
-0.872735 -2.71338 0.527309
-0.566963 -2.71933 0.661152
-0.673272 -2.76842 1.07923
-0.867561 -2.75623 0.987491
-0.854581 -2.7484 0.993806
-0.777246 -2.74348 1.02855
-0.898404 -2.73799 0.964831
-0.813444 -2.7346 1.00146
-0.92309 -2.72997 0.942442
-0.817119 -2.72672 0.989447
-1.09267 -2.72354 0.845628
-0.969886 -2.72066 0.900599
-0.816578 -2.71766 0.971012
-0.833481 -2.71474 0.956233
-0.948998 -2.71261 0.891111
-0.786426 -2.70987 0.965869
-0.96133 -2.70792 0.870839
-0.587146 -2.70559 1.05089
-1.11388 -2.7038 0.779774
-1.05905 -2.7021 0.799309
-1.02921 -2.70052 0.806215
-0.959129 -2.69838 0.834017
-0.986509 -2.69697 0.812107
-0.932768 -2.69561 0.830693
-0.929712 -2.69368 0.824736
-0.831768 -2.69256 0.865114
-0.968449 -2.69136 0.788309
-0.917993 -2.69042 0.804706
-0.952702 -2.68931 0.778772
-0.88657 -2.68857 0.802758
-0.942803 -2.68755 0.765942
-0.865933 -2.687 0.795041
-0.879861 -2.68589 0.779529
-0.890658 -2.68559 0.764439
-1.0298 -2.68481 0.68587
-0.903088 -2.68471 0.739262
-1.13785 -2.68402 0.612751
-0.867215 -2.68406 0.73792
-0.971835 -2.68354 0.676251
-1.16003 -2.68383 0.571637
-1.06898 -2.68335 0.607756
-0.866128 -2.68383 0.698381
-0.987928 -2.68377 0.627472
-0.753255 -2.68451 0.733633
-0.840936 -2.68425 0.680066
-0.85277 -2.68569 0.661949
-0.904541 -2.68556 0.626154
-0.805721 -2.68736 0.662818
-0.902753 -2.68803 0.603201
-1.02439 -2.68949 0.530117
-0.850774 -2.69121 0.604262
-0.990007 -2.69294 0.521958
-0.812128 -2.69573 0.596635
-0.921111 -2.69805 0.528539
-0.655837 -2.70236 0.6446
-0.771053 -2.70514 0.572679
-0.68817 -2.71378 0.590986
-0.770124 -2.74979 1.03916
-0.957685 -2.74124 0.946143
-0.952648 -2.73491 0.946582
-0.664056 -2.73006 1.0869
-0.878116 -2.726 0.974884
-0.928233 -2.72135 0.945659
-0.930025 -2.71808 0.938799
-1.16559 -2.71435 0.815694
-0.927671 -2.71125 0.928521
-1.06579 -2.70822 0.853254
-1.04852 -2.70597 0.854661
-0.946184 -2.7031 0.899446
-0.804262 -2.70102 0.962987
-0.919064 -2.69834 0.898996
-0.896915 -2.69645 0.90243
-0.92329 -2.69415 0.882164
-0.875854 -2.69242 0.898062
-1.1437 -2.69078 0.756189
-0.853493 -2.68926 0.893209
-1.02654 -2.68716 0.7994
-0.93606 -2.68581 0.836345
-1.02385 -2.68448 0.784121
-1.075 -2.68262 0.750979
-0.743281 -2.68208 0.90745
-0.880705 -2.68039 0.830939
-0.923725 -2.67952 0.800513
-0.942433 -2.67913 0.781574
-1.05018 -2.67777 0.719493
-0.808639 -2.67721 0.830921
-1.0346 -2.6763 0.709106
-0.840394 -2.67525 0.797567
-1.02339 -2.67512 0.696144
-1.08408 -2.67427 0.656891
-1.12091 -2.67424 0.628418
-0.881182 -2.67359 0.739099
-0.894191 -2.67365 0.722397
-0.970657 -2.6732 0.674708
-0.831159 -2.67355 0.733843
-0.756113 -2.67336 0.761539
-1.0214 -2.67365 0.618372
-0.959835 -2.67365 0.639047
-0.927703 -2.67445 0.643844
-0.735703 -2.6747 0.729368
-0.884008 -2.67574 0.643577
-0.885494 -2.67624 0.631995
-0.867503 -2.67752 0.628989
-0.848685 -2.67891 0.626219
-0.993398 -2.67975 0.542497
-0.747255 -2.68221 0.651789
-0.40315 -2.68332 0.812063
-0.776188 -2.68716 0.609685
-0.802981 -2.68961 0.582469
-0.696713 -2.69406 0.61877
-0.706015 -2.70129 0.59308
-0.741332 -2.74544 1.05378
-0.987121 -2.73477 0.934395
-0.910009 -2.7277 0.971824
-0.637562 -2.72145 1.10591
-1.12369 -2.71732 0.857946
-0.981278 -2.7127 0.924938
-0.799997 -2.70942 1.00963
-1.10639 -2.7055 0.851353
-1.08086 -2.70252 0.857809
-0.956257 -2.69947 0.913932
-1.01582 -2.69649 0.877892
-0.877534 -2.69429 0.939757
-0.921144 -2.69148 0.911509
-1.31316 -2.68945 0.708027
-0.892617 -2.68683 0.911641
-1.00264 -2.68499 0.848927
-0.884505 -2.68273 0.900874
-0.935775 -2.68105 0.867351
-0.498199 -2.67948 1.07812
-0.553515 -2.67801 1.0423
-0.872007 -2.67595 0.875726
-0.786453 -2.67466 0.910131
-0.709911 -2.67337 0.940028
-0.741752 -2.67226 0.915508
-0.960085 -2.67106 0.797859
-0.876139 -2.67013 0.830996
-1.03834 -2.66864 0.741843
-0.928866 -2.66828 0.786951
-0.956583 -2.66698 0.764791
-0.937992 -2.66649 0.764658
-1.15666 -2.66561 0.646437
-0.783506 -2.66531 0.82332
-0.987831 -2.66454 0.712142
-0.765464 -2.66376 0.814321
-0.863273 -2.66375 0.755308
-0.972092 -2.66384 0.690657
-0.948044 -2.66326 0.693398
-1.03967 -2.66307 0.637758
-0.872186 -2.66329 0.711065
-0.859424 -2.66316 0.707521
-0.983042 -2.66348 0.635138
-0.620615 -2.66395 0.805547
-0.747931 -2.66439 0.731127
-0.976378 -2.66524 0.60555
-0.397048 -2.6658 0.884267
-0.796253 -2.66702 0.672752
-0.887979 -2.66768 0.615779
-0.895712 -2.66989 0.598516
-0.802213 -2.67083 0.633728
-0.783676 -2.67344 0.628978
-0.829949 -2.6756 0.59246
-0.807935 -2.67761 0.590312
-0.741065 -2.68299 0.605502
-0.69265 -2.6858 0.615302
-0.737415 -2.69578 0.567679
-0.851078 -2.72755 1.00634
-0.836245 -2.71978 1.01355
-0.889486 -2.71488 0.983
-0.788236 -2.70938 1.03053
-0.867869 -2.70466 0.986628
-0.943298 -2.70074 0.943805
-0.829329 -2.69681 0.995724
-0.884723 -2.69363 0.961985
-0.983324 -2.69071 0.906316
-0.860512 -2.68771 0.961493
-0.550444 -2.68478 1.11022
-0.932925 -2.68194 0.912572
-0.801536 -2.67987 0.970837
-0.734356 -2.67789 0.99689
-0.97274 -2.67533 0.870978
-0.679172 -2.67354 1.00999
-1.17739 -2.67133 0.753722
-1.01588 -2.6697 0.82652
-1.12662 -2.66818 0.763061
-1.05076 -2.66678 0.792757
-0.759995 -2.66476 0.930761
-1.01994 -2.66413 0.791503
-0.939904 -2.66228 0.823937
-1.0008 -2.66122 0.784807
-1.02761 -2.66006 0.762874
-0.528058 -2.65919 1.00373
-1.02897 -2.65813 0.744631
-1.0535 -2.65744 0.723193
-0.981355 -2.65621 0.750872
-0.906544 -2.65598 0.778475
-1.02876 -2.65494 0.708713
-1.04966 -2.6547 0.688477
-0.697736 -2.65396 0.855372
-0.610807 -2.65392 0.888778
-0.897355 -2.65328 0.736304
-0.672495 -2.65343 0.838398
-0.849149 -2.65289 0.740736
-0.904611 -2.65323 0.702389
-1.1476 -2.65278 0.571425
-0.783024 -2.65363 0.742354
-0.952919 -2.65332 0.64775
-0.829628 -2.6541 0.698124
-1.00174 -2.65435 0.601582
-1.00329 -2.65538 0.589166
-0.741702 -2.65587 0.709114
-0.675731 -2.65713 0.730098
-0.526987 -2.65858 0.792183
-0.870568 -2.66013 0.607955
-0.697938 -2.66264 0.680376
-0.847528 -2.66379 0.593715
-1.10118 -2.66667 0.452405
-0.664671 -2.6691 0.656836
-0.532071 -2.67467 0.704577
-0.901627 -2.68193 0.498621
-0.693194 -2.7217 1.0874
-0.617569 -2.71253 1.12684
-0.896019 -2.70623 0.985518
-0.86967 -2.70139 0.994717
-1.03754 -2.69598 0.907605
-0.866428 -2.69196 0.988178
-0.913038 -2.68809 0.959719
-0.896032 -2.68435 0.962928
-0.895322 -2.68125 0.957156
-0.858889 -2.67822 0.969175
-0.956964 -2.67527 0.913859
-0.700455 -2.67308 1.03483
-0.921684 -2.67029 0.917751
-1.17286 -2.66827 0.784676
-0.960656 -2.66635 0.883181
-1.05448 -2.66384 0.829484
-0.976031 -2.66211 0.860871
-0.905471 -2.65994 0.888948
-0.934344 -2.65837 0.866484
-0.768168 -2.65691 0.941407
-1.08002 -2.65555 0.777189
-1.12477 -2.65426 0.746435
-1.03818 -2.65298 0.781341
-0.846839 -2.6512 0.869344
-1.0407 -2.6502 0.763652
-0.998638 -2.64908 0.776106
-0.756822 -2.64827 0.888007
-0.868079 -2.64724 0.823685
-0.943159 -2.64662 0.776886
-1.2349 -2.64546 0.62253
-0.925512 -2.64526 0.767374
-0.757032 -2.64429 0.842866
-0.887251 -2.64411 0.767878
-1.02461 -2.64341 0.69008
-0.931868 -2.6434 0.726335
-0.794182 -2.64282 0.785889
-1.10309 -2.64291 0.621181
-0.800155 -2.64271 0.762815
-0.824929 -2.64293 0.739988
-0.673516 -2.64279 0.805759
-0.866363 -2.64311 0.698754
-1.08214 -2.64357 0.580056
-1.02646 -2.64401 0.597128
-0.74007 -2.64484 0.728966
-1.1139 -2.6454 0.531096
-0.835384 -2.64724 0.657487
-0.931177 -2.64726 0.599425
-0.912334 -2.64944 0.595454
-1.04582 -2.65037 0.517165
-0.983798 -2.65295 0.534162
-0.863748 -2.65509 0.580801
-1.16719 -2.6581 0.414378
-0.712893 -2.66354 0.62314
-0.825478 -2.66758 0.550533
-0.874639 -2.67902 0.498373
-0.646551 -2.72272 1.1038
-0.443279 -2.70665 1.2161
-0.745459 -2.69894 1.06477
-0.876637 -2.69271 0.997041
-0.833511 -2.68794 1.01457
-0.816017 -2.68326 1.01921
-0.927694 -2.67936 0.958252
-0.806297 -2.67559 1.0137
-0.716136 -2.67246 1.05267
-0.804837 -2.66941 1.00215
-1.06155 -2.66643 0.867547
-0.790505 -2.66353 0.996738
-0.98717 -2.66139 0.891065
-0.904715 -2.65866 0.925773
-0.642255 -2.65669 1.04946
-1.03504 -2.65482 0.845406
-0.815907 -2.65304 0.947194
-0.802577 -2.65085 0.94667
-0.709092 -2.64923 0.985448
-0.662305 -2.64772 1.00074
-0.990864 -2.64632 0.828222
-0.995452 -2.64432 0.818524
-0.760238 -2.64309 0.927673
-0.944222 -2.64185 0.827245
-0.820652 -2.64013 0.881279
-0.937545 -2.63965 0.813351
-0.794123 -2.63811 0.877074
-0.927083 -2.63737 0.801501
-0.859707 -2.63637 0.826447
-1.01278 -2.63581 0.740562
-1.1107 -2.63538 0.682079
-0.979985 -2.63455 0.738484
-1.15359 -2.63365 0.642838
-0.893382 -2.63353 0.762973
-1.11053 -2.63286 0.645226
-1.2314 -2.63289 0.574628
-0.774912 -2.63303 0.792533
-0.762646 -2.63249 0.789315
-1.02891 -2.63239 0.646207
-1.05234 -2.63263 0.624003
-0.846019 -2.63322 0.716171
-0.898603 -2.63291 0.680207
-0.532219 -2.63411 0.851489
-0.923642 -2.63392 0.64592
-0.802795 -2.63549 0.693885
-0.735909 -2.63542 0.717289
-0.897992 -2.63734 0.62325
-0.841327 -2.63811 0.640286
-0.882942 -2.63963 0.60704
-0.920362 -2.64212 0.57444
-0.739241 -2.64418 0.651728
-0.73911 -2.64711 0.637207
-0.783489 -2.64958 0.601087
-0.652138 -2.65519 0.648066
-0.731819 -2.66376 0.584986
-0.728495 -2.70144 1.0747
-0.729672 -2.69234 1.0757
-0.582731 -2.68538 1.148
-0.760514 -2.67923 1.05691
-0.880759 -2.67453 0.992689
-0.855266 -2.67061 1.00034
-0.704251 -2.6667 1.07076
-0.771201 -2.66366 1.03107
-0.951191 -2.66059 0.934927
-0.846525 -2.65758 0.981041
-0.91148 -2.65465 0.942266
-0.992348 -2.6518 0.895447
-0.788118 -2.64971 0.990168
-1.08934 -2.64703 0.832977
-0.836538 -2.64512 0.951771
-0.793299 -2.6433 0.965668
-0.695601 -2.64158 1.00667
-1.04827 -2.63943 0.823106
-1.01362 -2.63786 0.832397
-0.800943 -2.63641 0.930563
-0.90116 -2.63506 0.872147
-0.985377 -2.63311 0.82258
-0.690741 -2.63194 0.961361
-0.941781 -2.63074 0.82736
-0.552669 -2.62974 1.01315
-0.673575 -2.62863 0.944101
-1.28722 -2.62782 0.628267
-0.883972 -2.62648 0.821647
-0.769518 -2.62618 0.869144
-0.97748 -2.62502 0.756664
-0.769587 -2.62465 0.850998
-0.817374 -2.62386 0.8181
-1.04329 -2.62302 0.696203
-0.982533 -2.62298 0.716505
-1.03891 -2.62297 0.678192
-0.856593 -2.62239 0.760052
-0.863184 -2.62259 0.746324
-0.934889 -2.62209 0.701067
-0.673724 -2.62248 0.820938
-0.705613 -2.62235 0.795048
-0.907068 -2.623 0.683235
-0.883499 -2.62311 0.684705
-0.831205 -2.624 0.699395
-0.731179 -2.62436 0.738727
-0.841995 -2.62549 0.671498
-0.889712 -2.62609 0.636601
-0.797779 -2.62744 0.670389
-0.653231 -2.62968 0.729151
-0.666698 -2.63066 0.71078
-0.872006 -2.63328 0.594
-0.871008 -2.63451 0.582465
-0.737448 -2.63852 0.632979
-0.971681 -2.64287 0.499058
-0.775686 -2.64808 0.578906
-0.690658 -2.68499 1.09922
-0.760759 -2.67735 1.0639
-0.832043 -2.67184 1.02519
-0.936362 -2.66644 0.969872
-0.955703 -2.66247 0.955166
-0.820003 -2.65792 1.01878
-1.0529 -2.65474 0.896307
-1.16006 -2.65108 0.837358
-1.18077 -2.64805 0.820813
-1.04333 -2.64509 0.883267
-0.907767 -2.64289 0.943789
-1.0271 -2.64009 0.877684
-1.15976 -2.63804 0.803902
-0.887809 -2.63542 0.933236
-0.942786 -2.63356 0.898079
-1.07813 -2.6318 0.822621
-0.812949 -2.63013 0.947298
-0.916176 -2.62802 0.888412
-0.766821 -2.62651 0.954982
-0.830852 -2.62512 0.91472
-0.571958 -2.6238 1.03582
-0.910936 -2.62192 0.858787
-0.815555 -2.62135 0.8971
-1.03268 -2.61964 0.78077
-0.92903 -2.61871 0.823745
-0.8806 -2.61763 0.839319
-0.861007 -2.61688 0.840019
-0.919018 -2.6159 0.802254
-0.904049 -2.61534 0.800387
-0.765198 -2.61425 0.861221
-0.96919 -2.61394 0.749522
-0.915635 -2.61318 0.767243
-0.932667 -2.61306 0.748754
-0.967374 -2.6124 0.722213
-0.840259 -2.61242 0.775598
-0.829319 -2.6119 0.771672
-0.799033 -2.61217 0.776289
-0.718427 -2.61191 0.806827
-1.03074 -2.61215 0.640173
-0.875475 -2.61242 0.707268
-1.0255 -2.61278 0.62157
-0.809249 -2.61342 0.718608
-0.779049 -2.6139 0.722836
-0.764163 -2.6149 0.718647
-0.767796 -2.6155 0.705775
-0.832146 -2.61679 0.661509
-0.987892 -2.61755 0.57233
-0.562402 -2.61985 0.77144
-0.736012 -2.62175 0.671596
-0.62075 -2.62356 0.7163
-0.92623 -2.62747 0.547444
-0.583184 -2.62999 0.704933
-0.763251 -2.63563 0.596069
-0.707634 -2.64551 0.598532
-0.762979 -2.67899 1.06526
-0.851631 -2.66996 1.02249
-0.830536 -2.66377 1.03088
-0.579029 -2.65834 1.15351
-0.885318 -2.65368 0.996245
-0.856418 -2.64912 1.00648
-1.05295 -2.64534 0.902981
-1.02682 -2.64223 0.909942
-0.838895 -2.63918 0.997739
-0.826271 -2.6362 0.997813
-1.02748 -2.63353 0.890572
-0.825817 -2.63113 0.984413
-1.00336 -2.6287 0.888715
-0.704747 -2.62639 1.03094
-1.02511 -2.62383 0.864054
-1.03835 -2.62202 0.849704
-0.885851 -2.62031 0.918101
-0.755287 -2.6187 0.975402
-1.08277 -2.61662 0.804343
-1.09337 -2.61518 0.790864
-0.712807 -2.61384 0.972824
-0.85216 -2.61256 0.894753
-0.839955 -2.61131 0.892431
-0.957451 -2.6102 0.825066
-0.762614 -2.60856 0.914634
-1.12326 -2.60769 0.725377
-0.825376 -2.60665 0.865628
-0.878868 -2.60596 0.829699
-0.852244 -2.60501 0.834202
-1.01735 -2.60451 0.742209
-0.796373 -2.60349 0.844013
-0.839204 -2.60335 0.812645
-0.962669 -2.60252 0.741963
-0.663841 -2.60246 0.881311
-0.79931 -2.60183 0.804337
-0.713869 -2.60188 0.836835
-0.809748 -2.60158 0.779191
-0.994524 -2.60175 0.676395
-0.861374 -2.6022 0.732164
-1.18509 -2.60183 0.560702
-0.845096 -2.60218 0.720022
-0.779299 -2.60258 0.742185
-0.779398 -2.60345 0.730679
-0.836412 -2.60381 0.691481
-0.714499 -2.60492 0.740615
-0.754041 -2.60551 0.709796
-0.966925 -2.60685 0.591174
-0.741951 -2.60906 0.690155
-0.701197 -2.61003 0.698884
-0.805138 -2.61263 0.632793
-0.906135 -2.61481 0.568789
-0.757392 -2.61887 0.626768
-0.840881 -2.62325 0.568104
-0.684533 -2.63159 0.623256
-0.730636 -2.67702 1.07824
-0.808762 -2.66255 1.04797
-0.705979 -2.65635 1.09721
-0.790915 -2.65022 1.05254
-0.804479 -2.64487 1.04257
-0.783586 -2.64093 1.04797
-0.864063 -2.63708 1.00258
-0.852542 -2.63336 1.00306
-0.867984 -2.63029 0.989188
-0.904039 -2.62729 0.964949
-1.1881 -2.62436 0.816631
-0.836769 -2.62175 0.98559
-1.17742 -2.61938 0.80824
-0.665322 -2.61702 1.05728
-0.973905 -2.61475 0.895876
-0.839739 -2.6129 0.955281
-0.882084 -2.61049 0.92722
-0.905989 -2.60884 0.907347
-0.750989 -2.60728 0.976796
-0.899608 -2.60525 0.895127
-0.850963 -2.60386 0.911195
-0.676561 -2.60255 0.99003
-0.877679 -2.60133 0.881001
-0.881373 -2.60022 0.870532
-0.796113 -2.59907 0.904617
-0.729211 -2.59749 0.930131
-0.902104 -2.59707 0.834106
-0.81477 -2.59568 0.869594
-0.975583 -2.59505 0.779917
-0.932999 -2.59455 0.791765
-0.881743 -2.5937 0.808449
-1.00519 -2.59338 0.737019
-1.16502 -2.59263 0.648034
-0.762011 -2.59187 0.840491
-0.858246 -2.59185 0.782239
-1.01709 -2.59192 0.692568
-0.682977 -2.59136 0.850286
-1.18814 -2.59115 0.587859
-0.765187 -2.59135 0.788878
-0.819623 -2.59186 0.750759
-0.716514 -2.59152 0.792657
-0.569433 -2.59221 0.855017
-0.933554 -2.59238 0.662536
-0.604331 -2.59331 0.815597
-0.855825 -2.59429 0.678215
-0.950088 -2.59489 0.620021
-0.892603 -2.59684 0.635647
-0.939587 -2.59765 0.600755
-0.719757 -2.59919 0.698148
-0.766967 -2.60107 0.6615
-0.858716 -2.6038 0.601276
-0.779931 -2.60673 0.625984
-0.925558 -2.61031 0.537473
-0.942253 -2.61599 0.510167
-0.690824 -2.62849 0.60638
-0.680176 -2.65923 1.11083
-0.732942 -2.6489 1.0878
-0.909988 -2.64276 0.99709
-0.732946 -2.63671 1.08336
-0.624465 -2.63209 1.13345
-0.789287 -2.62823 1.04591
-0.694122 -2.6244 1.08835
-1.00742 -2.62139 0.925473
-0.785554 -2.61836 1.03022
-1.00444 -2.61494 0.915156
-0.926642 -2.61252 0.947076
-0.792095 -2.60998 1.00757
-1.0342 -2.60765 0.879458
-0.820223 -2.60536 0.979357
-0.924315 -2.60313 0.920159
-0.624893 -2.60133 1.06213
-0.921644 -2.59962 0.905892
-0.980582 -2.59802 0.868434
-0.875019 -2.59597 0.913872
-0.821695 -2.59453 0.932347
-0.650198 -2.59319 1.00977
-0.757605 -2.59192 0.94765
-0.790274 -2.59012 0.923679
-0.972699 -2.58907 0.823764
-0.985821 -2.58795 0.808611
-0.775787 -2.58708 0.904688
-0.885733 -2.58605 0.841009
-1.10184 -2.58536 0.723767
-1.06774 -2.58416 0.73238
-0.925516 -2.58392 0.793659
-0.71456 -2.5829 0.890441
-0.860051 -2.58265 0.807897
-0.803826 -2.58193 0.826886
-0.814211 -2.58187 0.811625
-0.833744 -2.58125 0.792603
-0.882113 -2.58129 0.758189
-1.03396 -2.58085 0.67276
-0.952823 -2.58116 0.702709
-0.67492 -2.58096 0.831788
-0.868832 -2.58123 0.724277
-0.830542 -2.58158 0.732741
-0.945541 -2.58196 0.6645
-0.83907 -2.58267 0.706504
-0.75117 -2.58318 0.739527
-1.01601 -2.58428 0.595284
-0.872646 -2.58486 0.655907
-0.876034 -2.58688 0.640969
-0.5691 -2.58837 0.781998
-0.572728 -2.59016 0.76726
-0.954337 -2.5928 0.562224
-0.859391 -2.59406 0.597569
-0.725717 -2.59807 0.648023
-0.733172 -2.60355 0.625641
-0.64508 -2.61192 0.646514
-0.61999 -2.6598 1.13425
-0.931237 -2.64351 0.989938
-0.680087 -2.63391 1.11797
-0.909625 -2.6292 0.999138
-0.839994 -2.62455 1.02985
-0.703591 -2.61935 1.09472
-0.88598 -2.61551 0.99839
-0.686048 -2.61246 1.09217
-0.773979 -2.60877 1.04293
-0.814574 -2.60579 1.0164
-0.868122 -2.60308 0.983047
-0.727588 -2.6007 1.0463
-0.780053 -2.59822 1.01321
-0.930779 -2.59593 0.930757
-0.849687 -2.59371 0.964129
-0.893922 -2.59151 0.934821
-0.781565 -2.58977 0.983194
-0.714688 -2.58812 1.0087
-0.871785 -2.58657 0.922096
-1.03733 -2.58456 0.831937
-0.747399 -2.58317 0.968641
-1.13056 -2.58188 0.768676
-0.983686 -2.58066 0.833636
-0.760477 -2.57892 0.937522
-1.05487 -2.57841 0.780855
-0.987544 -2.57685 0.806566
-1.03427 -2.57604 0.774177
-0.810207 -2.57504 0.877455
-0.948069 -2.57442 0.799249
-0.88243 -2.57351 0.823193
-0.711692 -2.57307 0.899029
-1.02252 -2.57212 0.734823
-0.842005 -2.57201 0.815074
-0.896345 -2.57125 0.778848
-0.848036 -2.57123 0.79286
-0.844171 -2.57066 0.785466
-1.02705 -2.57073 0.683748
-0.759515 -2.57052 0.807663
-0.506913 -2.57072 0.9235
-0.908379 -2.57121 0.711865
-0.934289 -2.57088 0.689238
-0.974981 -2.57156 0.657709
-0.849404 -2.57173 0.710068
-0.685536 -2.57264 0.78045
-1.0245 -2.57361 0.599329
-0.679396 -2.5742 0.760812
-0.806418 -2.57613 0.68419
-1.00608 -2.57693 0.572947
-0.815208 -2.57926 0.654638
-0.718278 -2.58032 0.691281
-0.766752 -2.58302 0.652698
-0.867636 -2.58693 0.586021
-0.765859 -2.58946 0.622767
-0.707742 -2.59627 0.631059
-0.863306 -2.63735 1.0262
-0.907053 -2.62848 1.0058
-0.823388 -2.62032 1.0482
-0.545473 -2.61567 1.18306
-0.682363 -2.61109 1.11044
-0.779274 -2.60725 1.05684
-0.597842 -2.60346 1.14238
-0.586756 -2.59982 1.14257
-0.886175 -2.59682 0.986655
-0.769125 -2.59389 1.0389
-0.917066 -2.59124 0.958287
-0.755023 -2.58889 1.03226
-0.828124 -2.58648 0.988782
-0.954644 -2.58422 0.918391
-0.932102 -2.58234 0.922026
-1.05679 -2.57991 0.852829
-0.947478 -2.57822 0.899613
-1.03023 -2.57663 0.850239
-1.23233 -2.57514 0.741061
-0.711922 -2.57316 0.993833
-0.797736 -2.57183 0.94259
-0.969196 -2.57058 0.848432
-0.731003 -2.56942 0.958974
-0.937195 -2.56825 0.847345
-1.01641 -2.56726 0.798955
-0.997276 -2.56576 0.800482
-1.04861 -2.56537 0.765184
-0.986915 -2.56405 0.787749
-0.885797 -2.56349 0.828946
-0.794819 -2.56262 0.86551
-0.902224 -2.56224 0.802184
-0.89994 -2.56198 0.793525
-0.917768 -2.56127 0.775472
-0.708226 -2.56058 0.871091
-0.787038 -2.56059 0.821494
-0.967583 -2.5607 0.720875
-0.61596 -2.56018 0.887281
-0.75333 -2.56049 0.807973
-0.929779 -2.56029 0.709865
-0.970379 -2.56084 0.678569
-0.744303 -2.56089 0.781356
-0.767238 -2.56127 0.75914
-0.935763 -2.56197 0.663643
-0.797767 -2.56247 0.721706
-0.727557 -2.56413 0.744108
-0.676516 -2.56477 0.758467
-0.648284 -2.56613 0.760316
-0.711222 -2.56775 0.716168
-0.639582 -2.56937 0.7393
-0.844901 -2.57198 0.622414
-0.905413 -2.57419 0.578536
-0.831019 -2.57825 0.599226
-0.709166 -2.58377 0.641365
-0.635518 -2.59342 0.652921
-0.849384 -2.62093 1.03877
-0.571068 -2.61347 1.17755
-0.707639 -2.60745 1.10701
-0.534873 -2.60218 1.19016
-1.07638 -2.59831 0.914304
-0.874887 -2.59452 1.00986
-0.678918 -2.59085 1.10254
-0.918887 -2.58783 0.976364
-0.906668 -2.58488 0.976221
-0.812457 -2.58218 1.01675
-0.732374 -2.57941 1.05033
-0.621357 -2.57735 1.0984
-0.488514 -2.57475 1.15817
-0.770455 -2.57253 1.01003
-0.997926 -2.5707 0.888598
-0.955646 -2.56833 0.902816
-0.996771 -2.56669 0.874316
-0.647217 -2.56528 1.04085
-0.970652 -2.56379 0.871002
-0.835293 -2.56241 0.930413
-0.853074 -2.56113 0.91312
-0.630326 -2.55929 1.01691
-0.641638 -2.55819 1.00262
-0.982287 -2.5572 0.823505
-0.855833 -2.55613 0.878077
-0.857534 -2.55532 0.868196
-0.80942 -2.55433 0.883482
-0.886045 -2.55308 0.836798
-0.873743 -2.55257 0.833498
-1.0654 -2.55236 0.727784
-0.726616 -2.55142 0.888373
-0.775031 -2.55122 0.854274
-0.865626 -2.55055 0.799785
-0.826716 -2.55053 0.809089
-0.867505 -2.54996 0.779358
-1.06352 -2.55013 0.67091
-0.660625 -2.54981 0.862654
-0.903556 -2.55001 0.730717
-0.737294 -2.55016 0.803438
-1.04842 -2.55048 0.637214
-0.829483 -2.5512 0.73541
-0.736366 -2.551 0.772098
-0.711721 -2.55239 0.772118
-0.853211 -2.55286 0.69048
-0.896173 -2.55404 0.656996
-0.707139 -2.55534 0.739333
-0.655178 -2.55613 0.753895
-0.696906 -2.55844 0.719288
-0.909208 -2.55949 0.601305
-0.69196 -2.56309 0.694143
-0.870083 -2.56603 0.5903
-0.688213 -2.56962 0.665411
-0.653953 -2.57528 0.663469
-0.874777 -2.61469 1.02841
-0.917441 -2.60589 1.00852
-0.800115 -2.59986 1.06494
-0.538186 -2.59455 1.19272
-0.531251 -2.59001 1.19199
-0.846828 -2.58556 1.02991
-0.767222 -2.58186 1.06444
-0.731565 -2.57882 1.0761
-0.825923 -2.57585 1.02269
-0.602473 -2.57294 1.12811
-0.795196 -2.5703 1.02511
-0.962016 -2.56759 0.935181
-0.79121 -2.56558 1.01309
-0.908141 -2.56303 0.947913
-0.973571 -2.5612 0.907492
-0.867113 -2.55907 0.953463
-0.978543 -2.55738 0.889869
-0.688491 -2.5558 1.02689
-0.998885 -2.55432 0.863554
-0.869034 -2.55236 0.921022
-0.829444 -2.55104 0.932473
-0.891265 -2.5498 0.893117
-0.993475 -2.54864 0.833451
-0.681726 -2.54697 0.981508
-0.997835 -2.5465 0.81393
-0.785994 -2.54501 0.911799
-0.839672 -2.54426 0.875844
-0.608506 -2.54331 0.982608
-0.792897 -2.54274 0.881046
-0.944018 -2.54188 0.796544
-0.88294 -2.5415 0.817456
-0.967119 -2.54062 0.76647
-0.717398 -2.54053 0.881267
-0.969471 -2.53984 0.746067
-0.921355 -2.53985 0.759926
-0.719554 -2.53996 0.850479
-0.772125 -2.53944 0.814772
-1.17725 -2.53974 0.601586
-0.862008 -2.53954 0.749312
-0.879001 -2.54008 0.729818
-0.848662 -2.54013 0.734726
-0.907697 -2.54091 0.693841
-0.655035 -2.54119 0.809545
-0.840935 -2.5422 0.704862
-0.917685 -2.54332 0.654578
-0.634414 -2.54396 0.785045
-0.557484 -2.5453 0.811242
-0.678972 -2.54691 0.737815
-0.707436 -2.54851 0.710895
-0.801235 -2.55109 0.649773
-0.657692 -2.55328 0.707918
-0.68594 -2.5573 0.677296
-0.765829 -2.56276 0.618576
-0.61818 -2.57358 0.665193
-0.875765 -2.59963 1.03169
-0.671758 -2.59224 1.13329
-0.951148 -2.58627 0.991309
-0.73215 -2.58104 1.09755
-0.858956 -2.57721 1.02901
-0.801938 -2.57345 1.05232
-0.760926 -2.5698 1.0675
-0.833221 -2.56681 1.02514
-0.862867 -2.56338 1.00473
-1.05069 -2.56102 0.903788
-0.773509 -2.55844 1.03566
-0.772747 -2.55578 1.02947
-1.06699 -2.55382 0.8748
-0.704531 -2.55163 1.04883
-1.03388 -2.54981 0.876455
-0.680942 -2.54745 1.04598
-0.769169 -2.54582 0.993924
-0.848786 -2.54429 0.94604
-1.0471 -2.54286 0.838671
-0.907062 -2.54095 0.90119
-0.878792 -2.53969 0.906905
-0.764895 -2.53848 0.955365
-0.872484 -2.53738 0.89293
-0.740132 -2.53625 0.950511
-0.796258 -2.53533 0.913574
-1.21775 -2.5339 0.694691
-0.785591 -2.53354 0.901084
-0.94316 -2.5323 0.813916
-1.05293 -2.53179 0.749575
-0.849839 -2.53097 0.84213
-1.06384 -2.53064 0.725412
-0.877078 -2.53044 0.808897
-0.877133 -2.52977 0.799663
-0.972446 -2.52975 0.741849
-0.952431 -2.52918 0.742508
-0.794496 -2.52935 0.811034
-0.798661 -2.52887 0.799477
-0.922032 -2.52922 0.727072
-0.837615 -2.52909 0.759291
-0.863674 -2.52968 0.735171
-1.03634 -2.53019 0.637869
-0.925572 -2.53062 0.682404
-0.829744 -2.53156 0.718675
-0.870157 -2.53202 0.687566
-0.956298 -2.53319 0.632492
-0.996022 -2.53448 0.600449
-0.647441 -2.53526 0.763312
-0.954344 -2.53754 0.596122
-0.727292 -2.53944 0.696478
-0.818741 -2.54215 0.636305
-0.951999 -2.54606 0.553323
-0.745677 -2.5497 0.640536
-0.770473 -2.55539 0.608944
-0.787904 -2.59466 1.07618
-0.820659 -2.5846 1.06303
-0.983339 -2.57861 0.979417
-0.874989 -2.57271 1.03125
-0.953561 -2.56884 0.986879
-1.05101 -2.56443 0.933842
-0.707954 -2.56071 1.10014
-0.693984 -2.55775 1.10087
