ply
format ascii 1.0
comment Created by Open3D
element vertex 1929
property double x
property double y
property double z
end_header
-2.63332 3.47665 2.29305
-2.65654 3.48088 2.27071
-2.65957 3.48285 2.25935
-2.63224 3.48718 2.26221
-2.63069 3.49154 2.25214
-2.61612 3.49593 2.24855
-2.65194 3.50034 2.21973
-2.56818 3.50701 2.24973
-0.882116 4.11949 1.83117
-0.785555 4.0991 1.88231
-1.00557 4.08738 1.76948
-0.963481 4.07857 1.78581
-1.03221 4.07273 1.74478
-1.01829 4.06532 1.74617
-1.00558 4.06244 1.74392
-1.06736 4.05804 1.70547
-1.05377 4.05372 1.70468
-0.93873 4.05085 1.75364
-0.998179 4.04799 1.71537
-0.957921 4.04515 1.72695
-1.04231 4.04521 1.67421
-1.01158 4.04239 1.68103
-1.02235 4.04099 1.66613
-1.01309 4.03968 1.66118
-1.03755 4.03838 1.63937
-0.995333 4.03712 1.65089
-1.00752 4.0359 1.63518
-1.00096 4.03601 1.6279
-0.906468 4.03485 1.66549
-0.964657 4.035 1.62581
-0.933871 4.03532 1.6305
-0.938224 4.03432 1.61856
-1.01645 4.03454 1.56882
-0.983719 4.03477 1.57454
-0.951261 4.0353 1.57991
-0.972084 4.03559 1.5588
-1.03879 4.03624 1.51449
-1.00416 4.0366 1.52106
-0.987981 4.03739 1.51808
-1.07135 4.03916 1.4646
-0.966357 4.04011 1.5059
-0.908069 4.04063 1.52417
-0.990464 4.04176 1.47163
-0.858678 4.04368 1.52557
-0.947557 4.045 1.46964
-0.819864 4.04646 1.52187
-0.894769 4.04725 1.47331
-0.855729 4.05023 1.48005
-0.881586 4.05206 1.45521
-0.906773 4.05303 1.43134
-0.77996 4.05638 1.48164
-0.932461 4.05861 1.39313
-0.842793 4.06107 1.42552
-0.871917 4.06355 1.39847
-0.765312 4.06621 1.43915
-0.759628 4.0703 1.42822
-0.734983 4.07331 1.42761
-0.70641 4.07775 1.42781
-0.828821 4.0816 1.35297
-0.742189 4.08523 1.3828
-0.817463 4.091 1.32996
-0.689155 4.0959 1.37957
-0.780575 4.10273 1.31774
-0.674749 4.11062 1.35365
-0.631226 4.123 1.35474
-3.05693 3.4731 2.79718
-3.01042 3.47203 2.81166
-3.02129 3.47079 2.79748
-2.97988 3.46884 2.8096
-2.98427 3.46763 2.79867
-3.04287 3.46675 2.76057
-2.92734 3.46556 2.80961
-3.01137 3.46357 2.75905
-3.02834 3.46281 2.74176
-3.00791 3.46166 2.74326
-3.0035 3.46097 2.73666
-3.0301 3.45922 2.71478
-2.98883 3.45866 2.72659
-3.03832 3.45755 2.69315
-3.03599 3.45597 2.68572
-2.95274 3.45554 2.7185
-3.04914 3.45448 2.66161
-2.96931 3.45411 2.69266
-2.98017 3.45277 2.67861
-2.88889 3.45253 2.71538
-2.97341 3.45152 2.66442
-2.96372 3.45134 2.66038
-2.90411 3.45024 2.68153
-2.94504 3.44927 2.65238
-3.0247 3.44923 2.60363
-2.92112 3.44828 2.64673
-2.99129 3.44737 2.60296
-2.91516 3.44746 2.63207
-2.873 3.44761 2.64419
-2.92825 3.44671 2.60788
-3.02676 3.44604 2.54989
-2.98236 3.44632 2.56308
-2.9592 3.44547 2.56598
-2.90102 3.44581 2.58606
-2.98926 3.44497 2.53325
-2.93858 3.44457 2.54979
-2.98521 3.44504 2.51742
-2.95343 3.44424 2.52463
-2.94401 3.44478 2.52026
-2.92708 3.44461 2.51986
-2.92504 3.44526 2.51176
-2.83175 3.44452 2.54971
-2.82516 3.44524 2.54387
-2.92649 3.44451 2.48451
-2.96447 3.44459 2.45658
-2.88958 3.44543 2.48484
-2.84283 3.44475 2.49951
-2.90457 3.44499 2.45965
-2.86533 3.44595 2.47004
-2.851 3.44696 2.46796
-2.85853 3.44634 2.45548
-2.92245 3.4468 2.41445
-2.8625 3.44792 2.43513
-2.83236 3.44734 2.44147
-2.88889 3.44796 2.40407
-2.84339 3.44919 2.41748
-2.89739 3.44865 2.38173
-2.8905 3.44994 2.37581
-2.79936 3.45077 2.41216
-2.77139 3.45167 2.4169
-2.78585 3.4531 2.40023
-2.85559 3.45264 2.35659
-2.83887 3.45413 2.35548
-2.82972 3.45522 2.35072
-2.88096 3.4568 2.31559
-2.7808 3.45638 2.35687
-2.77138 3.45762 2.35219
-2.78061 3.45929 2.33801
-2.75478 3.46063 2.34147
-2.78098 3.46204 2.31888
-2.83884 3.46383 2.28031
-2.72602 3.46565 2.32707
-2.74652 3.46535 2.30796
-2.78622 3.46692 2.27854
-2.6648 3.46882 2.32954
-2.69342 3.4705 2.3056
-2.74274 3.47246 2.27119
-2.71568 3.47423 2.27503
-2.71189 3.4783 2.26632
-2.70043 3.4781 2.26312
-2.67103 3.48228 2.26714
-2.81062 3.48424 2.18754
-2.718 3.48639 2.22396
-2.68134 3.49061 2.23154
-2.6224 3.49281 2.25107
-2.65864 3.49724 2.22207
-2.64294 3.50171 2.219
-2.60293 3.50621 2.22806
-2.67029 3.51072 2.18339
-2.63976 3.51525 2.18765
-2.62143 3.53086 2.18104
-1.02391 4.10799 1.77613
-0.934906 4.09473 1.81878
-1.04428 4.08601 1.7593
-1.02817 4.08023 1.76064
-0.959144 4.07285 1.78953
-1.03865 4.07003 1.74114
-1.04389 4.06422 1.7319
-1.00029 4.06138 1.74511
-1.04204 4.05702 1.71669
-1.03771 4.0542 1.71028
-1.04918 4.05279 1.69501
-1.08736 4.05008 1.6673
-1.0277 4.0473 1.68856
-1.06764 4.04602 1.659
-1.05505 4.04466 1.65578
-1.05204 4.04341 1.64768
-0.992613 4.04219 1.66778
-1.05057 4.04232 1.62825
-1.00432 4.04115 1.64173
-1.05729 4.0413 1.60468
-1.00032 4.04021 1.62349
-1.03779 4.04039 1.59416
-0.985614 4.04079 1.6095
-1.05687 4.04101 1.56325
-1.02216 4.0415 1.56979
-0.963182 4.04177 1.58862
-0.982869 4.04237 1.56788
-1.05218 4.0427 1.52252
-0.975459 4.04342 1.54988
-0.937016 4.04382 1.55834
-0.969291 4.0447 1.53109
-0.971851 4.04517 1.51899
-0.872717 4.04756 1.55631
-0.936908 4.04812 1.51332
-1.02921 4.04934 1.45578
-1.01594 4.05133 1.45043
-0.919764 4.05274 1.48697
-0.95302 4.05429 1.45868
-0.910589 4.05644 1.46776
-0.938587 4.05821 1.44192
-0.908567 4.06046 1.4447
-0.866207 4.06247 1.45383
-0.815782 4.06463 1.46686
-0.854445 4.06826 1.43421
-0.892216 4.07076 1.40286
-0.864422 4.07337 1.40419
-0.845268 4.07612 1.40108
-0.824425 4.08034 1.39765
-0.817045 4.08344 1.38834
-0.762866 4.08715 1.40194
-0.759451 4.09199 1.38925
-0.79641 4.09637 1.3567
-0.795299 4.10242 1.34184
-0.765591 4.10796 1.34166
-0.717212 4.11569 1.34904
-0.734355 4.12534 1.32206
-0.626946 4.1426 1.35119
-2.96948 3.48341 2.84095
-2.95801 3.481 2.83817
-3.01826 3.4799 2.79928
-3.03488 3.47868 2.78223
-3.036 3.47765 2.7729
-2.96078 3.47547 2.80199
-2.96931 3.47456 2.78894
-3.01855 3.47338 2.7556
-2.99922 3.47138 2.75673
-2.95879 3.47059 2.76816
-3.04961 3.46946 2.71404
-2.95497 3.46874 2.75256
-3.00403 3.46697 2.71948
-2.98327 3.46638 2.72104
-3.02293 3.46529 2.69252
-3.0775 3.4637 2.65666
-3.00751 3.46324 2.68282
-2.9953 3.46219 2.68024
-2.99006 3.4618 2.67401
-3.02191 3.46045 2.64948
-2.97251 3.46018 2.66532
-2.95859 3.45918 2.66359
-2.89693 3.45898 2.68555
-2.98127 3.45801 2.63469
-2.93146 3.45692 2.65095
-3.05224 3.45685 2.58166
-3.02143 3.45592 2.58838
-3.00845 3.455 2.5862
-3.00026 3.45507 2.58136
-2.97008 3.4552 2.58749
-2.89204 3.45431 2.61783
-2.92434 3.45451 2.59272
-2.91403 3.45364 2.58919
-2.90532 3.45306 2.5848
-2.92227 3.45338 2.56732
-2.93404 3.45256 2.55275
-2.90512 3.45215 2.55842
-2.98633 3.4526 2.50877
-2.93025 3.45183 2.52813
-2.94017 3.45235 2.51411
-2.93863 3.45159 2.50619
-2.94186 3.45143 2.49571
-2.91696 3.45208 2.49906
-2.89249 3.45278 2.50217
-2.85166 3.45208 2.51389
-2.88278 3.45216 2.4894
-2.92888 3.45298 2.45718
-2.90474 3.45232 2.46055
-2.8685 3.45257 2.46968
-2.88479 3.45352 2.45232
-2.83997 3.4529 2.46601
-2.84495 3.4533 2.45448
-2.89582 3.45437 2.41978
-2.74292 3.45379 2.48751
-2.92544 3.45492 2.38696
-2.92586 3.45555 2.37762
-2.83953 3.45678 2.41145
-2.85341 3.45625 2.39577
-2.8668 3.45703 2.37988
-2.806 3.45837 2.4009
-2.83702 3.45789 2.37663
-2.87249 3.45883 2.34964
-2.8828 3.46027 2.33504
-2.86908 3.46176 2.33245
-2.86778 3.46133 2.32431
-2.82904 3.46246 2.33434
-2.75016 3.46366 2.36441
-2.83204 3.4653 2.31393
-2.85559 3.46697 2.29259
-2.83384 3.46662 2.29465
-2.79751 3.468 2.30335
-2.86479 3.46946 2.26021
-2.77866 3.47126 2.29364
-2.74615 3.47282 2.30034
-2.79785 3.47471 2.2648
-2.68294 3.47444 2.31338
-2.69285 3.47832 2.29795
-2.6751 3.47809 2.29794
-2.86612 3.48209 2.19187
-2.76265 3.48189 2.2347
-2.69896 3.48376 2.25681
-2.64073 3.48584 2.2761
-2.6892 3.4878 2.24207
-2.80917 3.49209 2.17133
-2.73998 3.49197 2.19696
-2.62397 3.49636 2.24414
-2.69166 3.49849 2.20039
-2.71004 3.50299 2.18029
-2.66594 3.5075 2.1914
-2.57409 3.50979 2.2273
-2.62719 3.5144 2.18973
-2.49674 3.51904 2.2439
-2.59969 3.52368 2.18134
-2.51581 3.53289 2.21019
-1.01507 4.11804 1.79276
-1.00907 4.10654 1.7927
-1.08584 4.09328 1.75248
-1.02954 4.08757 1.77385
-1.03434 4.08023 1.76578
-0.960003 4.07449 1.79626
-0.970849 4.07013 1.78325
-1.12907 4.06735 1.69551
-0.966858 4.06456 1.768
-1.10773 4.06177 1.68897
-1.08787 4.05898 1.69031
-1.05217 4.05621 1.69958
-1.0996 4.05345 1.66729
-1.1201 4.05221 1.64743
-1.08487 4.05085 1.65553
-1.09254 4.0483 1.64301
-0.947192 4.04845 1.70513
-1.12666 4.04729 1.60576
-1.0193 4.04745 1.64889
-0.983365 4.04616 1.65731
-1.08678 4.04652 1.5949
-1.01303 4.04549 1.62207
-1.00559 4.04571 1.61519
-1.08574 4.04618 1.56433
-1.07305 4.04644 1.56005
-0.902321 4.04701 1.63456
-1.01463 4.04732 1.56774
-1.01853 4.048 1.55485
-1.12975 4.04837 1.48852
-1.04202 4.04918 1.52135
-0.950203 4.051 1.55547
-0.915227 4.05196 1.5618
-0.949427 4.05247 1.53386
-1.00496 4.05496 1.49379
-0.908348 4.05556 1.53118
-1.00706 4.05686 1.47039
-0.948109 4.05892 1.48785
-0.913253 4.06042 1.49368
-0.918804 4.06257 1.47881
-0.94204 4.06428 1.45541
-0.934978 4.06614 1.44704
-0.872922 4.06949 1.46502
-0.901346 4.07056 1.43948
-0.849147 4.07415 1.45233
-0.872266 4.07657 1.42839
-0.859204 4.07917 1.42239
-0.842028 4.08316 1.41736
-0.904361 4.08602 1.37344
-0.834928 4.08932 1.39504
-0.814877 4.09393 1.3909
-0.801942 4.0974 1.38408
-0.832579 4.10236 1.35428
-0.789882 4.10817 1.36045
-0.76516 4.11392 1.35765
-0.70145 4.12064 1.37355
-0.710288 4.12904 1.3518
-0.723718 4.14033 1.32539
-3.03528 3.4939 2.81705
-2.96524 3.49264 2.84332
-2.98525 3.4914 2.82457
-3.00893 3.48898 2.80423
-3.0264 3.48785 2.78674
-3.02776 3.48664 2.77733
-3.03104 3.48557 2.76694
-3.00698 3.48338 2.77046
-3.0694 3.48244 2.73048
-3.04564 3.48128 2.73365
-2.95907 3.47926 2.76841
-2.99385 3.47845 2.74224
-2.91276 3.47732 2.77409
-3.01774 3.47658 2.71282
-2.94287 3.4748 2.74171
-2.9797 3.47417 2.7145
-3.0317 3.4731 2.6798
-2.98083 3.47255 2.69643
-2.95724 3.47101 2.69965
-3.03199 3.46998 2.65359
-2.91684 3.46956 2.70234
-2.96873 3.46919 2.66756
-3.03518 3.46819 2.62565
-3.01627 3.46692 2.6265
-2.93161 3.46669 2.65997
-3.01638 3.46573 2.60891
-2.99444 3.46463 2.61124
-2.98081 3.46454 2.60916
-3.01503 3.46362 2.58338
-2.99462 3.4636 2.58468
-2.93181 3.4627 2.60741
-3.03517 3.46187 2.54705
-2.83661 3.46198 2.63739
-2.88237 3.46215 2.60555
-3.04867 3.4613 2.51373
-3.04257 3.46071 2.50804
-2.96608 3.46101 2.53729
-3.01274 3.46021 2.50529
-2.91923 3.46058 2.54303
-2.83356 3.45979 2.57719
-2.94352 3.45947 2.5134
-2.97733 3.45997 2.48745
-2.97946 3.45923 2.4777
-2.95246 3.45907 2.48235
-2.93344 3.4597 2.48276
-2.93477 3.45901 2.47341
-2.88549 3.4597 2.48894
-2.86781 3.45978 2.48884
-2.86841 3.46059 2.47939
-2.86193 3.45995 2.47393
-2.87715 3.46082 2.45713
-2.81111 3.4602 2.48145
-2.79912 3.46053 2.47843
-2.87395 3.46152 2.43179
-2.95585 3.46094 2.38212
-2.83886 3.46144 2.43155
-2.92766 3.46255 2.37787
-2.82232 3.46201 2.42181
-2.89174 3.46267 2.37796
-2.83315 3.4639 2.39793
-2.74128 3.46341 2.43512
-2.84674 3.46469 2.37303
-2.88156 3.46556 2.3464
-2.78805 3.46695 2.38375
-2.82207 3.46651 2.35798
-2.78129 3.46753 2.36908
-2.80001 3.46863 2.3504
-2.81683 3.47017 2.33251
-2.75584 3.46979 2.35421
-2.80513 3.47139 2.32005
-2.76654 3.47268 2.32993
-2.81169 3.47404 2.29791
-2.76265 3.47577 2.31284
-2.71518 3.47547 2.32775
-2.71698 3.47696 2.31734
-2.80961 3.47878 2.26138
-2.714 3.48039 2.29961
-2.61754 3.48229 2.33815
-2.76391 3.48205 2.25609
-2.72666 3.48596 2.26422
-2.72343 3.48576 2.25694
-2.73326 3.48759 2.24233
-2.68199 3.48963 2.25817
-2.70712 3.49155 2.23585
-2.72037 3.49353 2.21944
-2.67028 3.49567 2.23462
-2.70415 3.49773 2.20784
-2.68034 3.50214 2.20892
-2.68335 3.50206 2.19843
-2.61545 3.50652 2.2215
-2.67233 3.5088 2.18308
-2.72963 3.5134 2.14344
-2.62481 3.51573 2.18582
-2.67336 3.52042 2.15048
-2.64874 3.52513 2.15169
-2.58036 3.52756 2.17576
-2.56595 3.53232 2.1718
-2.47866 3.54173 2.20222
-0.885574 4.13252 1.86681
-0.982267 4.11356 1.82022
-0.975807 4.10038 1.82151
-1.07933 4.09476 1.76291
-1.01132 4.08746 1.7912
-1.02872 4.08178 1.77575
-1.03093 4.07745 1.76703
-1.13845 4.07176 1.70658
-0.975559 4.06902 1.77939
-1.02913 4.06627 1.74399
-1.05458 4.06353 1.72265
-1.00621 4.0608 1.73824
-0.998889 4.05808 1.7333
-1.129 4.05825 1.65769
-1.14356 4.05555 1.64182
-1.10646 4.05439 1.65073
-0.941839 4.05324 1.72341
-1.05515 4.05342 1.65619
-1.0097 4.05212 1.6694
-1.05918 4.05251 1.63396
-1.03815 4.05124 1.63493
-1.02001 4.05168 1.63327
-1.07239 4.05069 1.59736
-1.02329 4.05095 1.6113
-1.01924 4.0515 1.60251
-1.08738 4.0518 1.5578
-1.06106 4.05244 1.56007
-0.943257 4.05279 1.60829
-1.10353 4.05497 1.51615
-1.02428 4.05537 1.54505
-0.982597 4.05626 1.55481
-0.979589 4.05674 1.54553
-1.04035 4.05917 1.50293
-0.975071 4.05972 1.52471
-0.909493 4.06093 1.54616
-0.876442 4.06296 1.55074
-0.971215 4.06434 1.49186
-0.861971 4.06646 1.53445
-0.994558 4.06804 1.4565
-1.00109 4.07114 1.44045
-0.894028 4.07206 1.4828
-0.865663 4.07537 1.484
-0.820876 4.07748 1.49431
-0.904456 4.07995 1.44015
-0.842745 4.0823 1.45871
-0.995161 4.08482 1.37006
-0.851298 4.08886 1.42837
-0.797894 4.09172 1.44234
-0.758308 4.0961 1.44821
-0.840777 4.09932 1.39394
-0.855842 4.10405 1.37217
-0.842019 4.10815 1.36532
-0.72618 4.11332 1.4086
-0.763215 4.11942 1.3747
-0.789405 4.1259 1.34588
-0.73909 4.13381 1.35416
-0.673011 4.14369 1.3687
-0.609931 4.16257 1.37451
-2.99387 3.50448 2.83774
-2.91904 3.50317 2.86642
-2.9782 3.50069 2.82833
-3.13032 3.49945 2.74354
-2.99365 3.49824 2.80314
-2.97867 3.49586 2.80214
-2.98006 3.49467 2.79271
-3.05853 3.49357 2.74474
-2.94546 3.49137 2.79278
-3.00773 3.49039 2.7529
-3.04036 3.48925 2.72787
-3.02869 3.48834 2.72496
-3.06297 3.48637 2.6993
-3.03735 3.48526 2.70341
-2.96022 3.48448 2.73321
-3.00291 3.48376 2.70309
-2.92084 3.48204 2.73559
-3.00119 3.48098 2.68673
-2.91833 3.4804 2.71936
-2.93115 3.47936 2.70427
-2.95186 3.47783 2.68536
-2.95476 3.47738 2.67509
-3.01473 3.47699 2.63629
-2.97066 3.476 2.64965
-2.89519 3.47472 2.67879
-2.97243 3.47446 2.63132
-2.97538 3.47352 2.62117
-2.88967 3.47334 2.65516
-2.96413 3.4723 2.60929
-2.99278 3.47139 2.5863
-2.92959 3.47134 2.609
-2.96549 3.47046 2.58238
-3.04752 3.46962 2.53269
-2.98252 3.46971 2.55627
-2.93256 3.46985 2.57231
-2.95525 3.46902 2.55229
-2.90554 3.46843 2.56841
-2.89523 3.46871 2.56459
-2.93536 3.46792 2.53585
-2.87413 3.46827 2.55747
-2.97313 3.4675 2.49929
-2.89876 3.46717 2.52768
-3.00251 3.46765 2.46677
-2.91698 3.46693 2.50085
-2.88607 3.46677 2.50746
-2.91524 3.46739 2.4838
-2.97128 3.4667 2.44709
-2.89769 3.46738 2.47478
-2.94776 3.46672 2.44106
-2.88855 3.46682 2.46174
-2.90404 3.46763 2.44484
-2.90317 3.46701 2.43658
-2.97558 3.46788 2.39119
-2.89991 3.46822 2.42002
-2.85419 3.4692 2.43366
-2.91046 3.46864 2.39681
-2.85014 3.46914 2.41791
-2.80445 3.47024 2.43149
-2.89054 3.46972 2.37971
-2.79901 3.47038 2.41635
-2.83651 3.47161 2.38827
-2.88021 3.47113 2.35769
-2.78416 3.47195 2.39652
-2.90133 3.47329 2.32855
-2.95331 3.47285 2.29381
-2.82258 3.47383 2.34991
-2.7899 3.47528 2.35682
-2.82991 3.47488 2.32804
-2.79676 3.47639 2.33516
-2.76301 3.47757 2.34268
-2.85448 3.47916 2.28743
-2.78551 3.47882 2.31312
-2.84136 3.48015 2.27577
-2.72741 3.48155 2.32329
-2.7135 3.48329 2.32065
-2.75969 3.48302 2.28873
-2.75498 3.48664 2.28075
-2.76545 3.48639 2.26667
-2.79977 3.48804 2.23992
-2.76508 3.48995 2.24756
-2.67649 3.48975 2.28299
-2.79726 3.49152 2.21295
-2.76974 3.49352 2.21695
-2.67739 3.49539 2.25341
-2.73898 3.49733 2.21286
-2.71659 3.49943 2.21422
-2.73674 3.50146 2.19434
-2.66917 3.50354 2.21828
-2.69339 3.50573 2.19627
-2.70705 3.5079 2.17954
-2.70843 3.51242 2.16795
-2.68624 3.51239 2.17004
-2.70013 3.517 2.15212
-2.59708 3.51934 2.19363
-2.64201 3.52172 2.1611
-2.63377 3.52648 2.15413
-2.61273 3.52894 2.15453
-2.58926 3.53377 2.15509
-2.53091 3.53862 2.17306
-2.53907 3.54591 2.15666
-2.52093 3.55077 2.15446
-2.49321 3.56937 2.15087
-1.0365 4.12335 1.80537
-0.965347 4.11028 1.83889
-1.03837 4.10178 1.79739
-1.10597 4.09453 1.75783
-1.11941 4.08728 1.74539
-1.0254 4.08166 1.78563
-1.09601 4.07898 1.74163
-1.20423 4.07469 1.67992
-1.08984 4.072 1.72846
-1.14065 4.0693 1.69442
-1.09281 4.06661 1.70972
-1.07833 4.06392 1.70835
-1.07547 4.06258 1.70026
-1.16733 4.06012 1.64559
-1.12402 4.06033 1.65668
-1.00627 4.0577 1.70695
-1.02935 4.05791 1.68486
-1.16052 4.05683 1.60961
-1.07597 4.05578 1.64221
-1.18372 4.05601 1.57776
-1.13868 4.05626 1.58971
-1.14807 4.05555 1.5751
-1.03899 4.05583 1.61904
-1.13844 4.05612 1.5587
-1.12613 4.05675 1.55401
-1.01968 4.05708 1.59659
-1.09527 4.05925 1.54683
-1.07024 4.05963 1.54866
-1.02152 4.06046 1.562
-1.11638 4.0609 1.50383
-1.05376 4.06329 1.52299
-0.973952 4.0638 1.5521
-1.02055 4.06492 1.51756
-1.01679 4.06693 1.50754
-0.926775 4.06821 1.54117
-0.951242 4.0703 1.51695
-0.933459 4.07177 1.51431
-1.00379 4.07395 1.46708
-0.99495 4.07562 1.4598
-0.974368 4.07882 1.45724
-0.940526 4.07978 1.46297
-0.962585 4.08321 1.43889
-0.899441 4.08541 1.45832
-0.942195 4.08795 1.42454
-0.895626 4.09039 1.43547
-0.851573 4.09438 1.44395
-0.888582 4.09716 1.41281
-0.871365 4.10149 1.40757
-0.890372 4.10463 1.38512
-0.772809 4.10931 1.42975
-0.814869 4.11415 1.39441
-0.834851 4.11838 1.37057
-0.748092 4.12436 1.39871
-0.77904 4.13073 1.36765
-0.731822 4.1379 1.37501
-0.832968 4.14708 1.30657
-0.651622 4.15997 1.37639
-3.06494 3.51421 2.80236
-3.01059 3.51261 2.82085
-2.95686 3.51137 2.83897
-3.02153 3.50893 2.79814
-2.98435 3.50755 2.80803
-2.95048 3.50633 2.81623
-3.01409 3.50514 2.77571
-3.03109 3.50278 2.75873
-2.94134 3.50165 2.79488
-3.08845 3.50057 2.7126
-3.04175 3.49842 2.72746
-2.89878 3.49729 2.79024
-3.01049 3.49635 2.72565
-3.02082 3.49524 2.71178
-2.98981 3.49327 2.71879
-2.96157 3.49246 2.72416
-3.03921 3.49171 2.67658
-2.95092 3.49065 2.71204
-3.00266 3.48893 2.67765
-2.96097 3.48832 2.68972
-3.05936 3.4873 2.63184
-3.02994 3.48575 2.63801
-2.97109 3.48528 2.65864
-3.03688 3.48486 2.61693
-3.04624 3.48389 2.60358
-2.91537 3.48259 2.66043
-2.96813 3.48231 2.62522
-3.02448 3.48138 2.58837
-2.89687 3.48117 2.64333
-2.96269 3.48026 2.60175
-3.03302 3.47923 2.55796
-3.0396 3.47916 2.54579
-2.97311 3.47829 2.57037
-2.91999 3.47744 2.58827
-2.93951 3.47751 2.5696
-2.89237 3.47763 2.58424
-2.9622 3.47681 2.54065
-2.95466 3.477 2.53548
-2.89084 3.47621 2.55872
-2.92483 3.4757 2.53298
-2.91457 3.47602 2.52913
-2.88948 3.47527 2.533
-2.80638 3.47494 2.56576
-2.92247 3.4754 2.49869
-3.00341 3.47469 2.44954
-2.90213 3.47522 2.49114
-2.93963 3.47453 2.46371
-2.92276 3.47446 2.46328
-3.01894 3.47512 2.40609
-2.89704 3.47448 2.45836
-2.90904 3.47458 2.44344
-2.91286 3.47537 2.43239
-2.87946 3.47477 2.44039
-2.82396 3.47563 2.45898
-2.95549 3.47505 2.38451
-2.86293 3.47541 2.42179
-2.86315 3.47639 2.41246
-2.8332 3.47585 2.41872
-2.87206 3.47638 2.39022
-2.89959 3.47748 2.36719
-2.904 3.47863 2.35569
-2.96648 3.47815 2.31572
-2.90563 3.4789 2.33699
-2.85437 3.48017 2.35328
-2.83142 3.47973 2.356
-2.83162 3.48065 2.34668
-2.83965 3.48203 2.33327
-2.87514 3.48164 2.30676
-2.88833 3.4827 2.29087
-2.90419 3.4842 2.27348
-2.86049 3.48384 2.28655
-2.91014 3.48506 2.25236
-2.82656 3.48635 2.28476
-2.80806 3.48801 2.28447
-2.77912 3.48772 2.29013
-2.7916 3.48915 2.27442
-2.84369 3.49091 2.23877
-2.70916 3.49246 2.29651
-2.79173 3.4943 2.24558
-2.71959 3.49409 2.27279
-2.72743 3.49578 2.25927
-2.67434 3.49753 2.27618
-2.68348 3.49951 2.26187
-2.75004 3.49935 2.21971
-2.75385 3.50341 2.20721
-2.7431 3.50329 2.20367
-2.71002 3.50527 2.21044
-2.63749 3.50731 2.2369
-2.67879 3.50947 2.20639
-2.693 3.5116 2.18941
-2.70517 3.51379 2.17343
-2.69669 3.51604 2.16773
-2.60706 3.51831 2.20259
-2.70241 3.52061 2.14493
-2.6761 3.52296 2.14807
-2.63175 3.52535 2.1602
-2.64772 3.53012 2.14112
-2.5853 3.5326 2.16222
-2.55698 3.53512 2.16623
-2.57177 3.54002 2.14763
-2.61761 3.54262 2.1145
-2.55555 3.54758 2.13425
-2.51981 3.55505 2.13968
-2.49652 3.56003 2.13998
-2.50118 3.56748 2.12515
-1.05575 4.13175 1.8089
-1.08004 4.11876 1.79459
-1.14072 4.10864 1.76029
-1.00856 4.10145 1.82055
-1.06784 4.09425 1.78513
-1.10526 4.0887 1.7596
-1.05765 4.08444 1.77576
-1.16136 4.07886 1.71715
-1.15439 4.07622 1.71196
-1.0874 4.07357 1.73679
-1.14057 4.07092 1.70156
-1.15096 4.0696 1.68685
-1.13849 4.06695 1.68446
-1.08467 4.06563 1.70186
-1.11415 4.06326 1.67834
-1.11208 4.0622 1.6697
-1.09749 4.06245 1.66644
-1.14747 4.06116 1.63194
-1.01899 4.06166 1.68545
-1.09376 4.0604 1.63855
-1.12718 4.06093 1.61108
-1.14981 4.0612 1.58919
-1.17268 4.06028 1.56802
-1.09393 4.0609 1.59657
-1.13008 4.06122 1.56788
-1.17435 4.06192 1.53486
-1.02122 4.06376 1.59973
-1.01554 4.06454 1.59162
-1.03046 4.06496 1.57346
-1.00342 4.06586 1.57594
-1.05753 4.0678 1.53708
-1.00786 4.06883 1.55077
-1.06612 4.06939 1.51083
-1.04897 4.07201 1.50707
-0.98923 4.07265 1.52607
-1.00907 4.07544 1.50368
-0.991994 4.07617 1.50126
-1.03504 4.07914 1.46711
-0.953236 4.08138 1.49592
-0.931253 4.08314 1.49516
-0.987687 4.08645 1.45403
-0.999379 4.08745 1.43698
-0.92339 4.09099 1.46186
-0.928479 4.09468 1.44606
-0.857471 4.09713 1.46924
-0.918145 4.09982 1.42638
-0.890115 4.10252 1.42784
-0.895258 4.1068 1.41151
-0.830996 4.10985 1.43079
-0.825116 4.11447 1.41966
-0.7803 4.11927 1.42784
-0.792154 4.12334 1.40822
-0.840157 4.1292 1.36912
-0.746622 4.13546 1.40045
-0.706771 4.14261 1.40419
-0.724471 4.15156 1.37772
-0.80785 4.16305 1.31636
-0.650349 4.17939 1.37154
-3.05651 3.52687 2.81517
-2.933 3.52498 2.86828
-3.02447 3.52348 2.81385
-3.02014 3.52101 2.8075
-2.97573 3.51959 2.82101
-2.98439 3.51822 2.80797
-3.02886 3.51582 2.77725
-3.03077 3.51446 2.7676
-2.94987 3.51329 2.79934
-3.00552 3.51096 2.76304
-3.04316 3.5098 2.73551
-2.97644 3.50866 2.76017
-2.992 3.50756 2.74367
-3.08481 3.50541 2.6888
-2.96643 3.50443 2.73927
-2.98103 3.50334 2.72327
-3.01759 3.50136 2.69651
-2.95254 3.50052 2.72029
-2.91099 3.49974 2.73232
-2.99474 3.49869 2.68177
-2.99552 3.49696 2.67287
-2.97316 3.49631 2.67529
-3.02008 3.49531 2.64315
-2.93966 3.49473 2.67459
-2.9389 3.49324 2.66643
-3.01221 3.49279 2.62098
-3.03206 3.49184 2.60238
-2.95128 3.49146 2.63396
-3.02756 3.49053 2.58716
-2.92301 3.48931 2.63085
-2.98627 3.48907 2.59039
-3.00529 3.48818 2.57222
-2.96482 3.48714 2.58383
-2.96751 3.48704 2.57362
-3.06581 3.48619 2.51581
-2.98045 3.48616 2.54961
-2.92263 3.48533 2.56986
-2.98423 3.48456 2.53038
-2.99552 3.48467 2.51582
-3.05306 3.48484 2.47812
-2.96029 3.48406 2.51584
-2.96274 3.48354 2.50588
-2.92503 3.48385 2.51576
-2.93774 3.48311 2.50074
-2.94613 3.48348 2.48755
-2.93758 3.48277 2.48316
-2.92052 3.48252 2.48288
-2.93221 3.48303 2.468
-2.92999 3.48236 2.46044
-3.01391 3.48229 2.40962
-2.90749 3.48293 2.45375
-2.9125 3.4823 2.44255
-2.91174 3.48301 2.43383
-2.97419 3.4824 2.39392
-2.92732 3.48259 2.40841
-3.02252 3.48343 2.35166
-2.79945 3.48287 2.45449
-2.87752 3.48323 2.40646
-2.80881 3.4842 2.4316
-2.92621 3.48368 2.3642
-2.99468 3.48421 2.32089
-2.89004 3.4853 2.36396
-2.87495 3.48483 2.36278
-2.91133 3.48552 2.33546
-2.79834 3.48674 2.38264
-2.83065 3.4863 2.35775
-2.90092 3.48757 2.31327
-2.83264 3.48716 2.33866
-2.8769 3.48811 2.3073
-2.87684 3.48949 2.29793
-2.83577 3.48913 2.3097
-2.78669 3.49023 2.32494
-2.85381 3.4914 2.28204
-2.81025 3.49296 2.29434
-2.82343 3.49265 2.27896
-2.80856 3.49426 2.27688
-2.82246 3.49564 2.26049
-2.79331 3.49735 2.2655
-2.84057 3.4971 2.23305
-2.71767 3.49862 2.28499
-2.74666 3.50022 2.26095
-2.7699 3.50207 2.23968
-2.82691 3.50188 2.20231
-2.71814 3.50361 2.24708
-2.77854 3.50541 2.20722
-2.70563 3.5074 2.23394
-2.75989 3.50727 2.19791
-2.76509 3.5092 2.18558
-2.71842 3.51127 2.19912
-2.67689 3.5133 2.21009
-2.74588 3.51539 2.16577
-2.76235 3.51753 2.14767
-2.5839 3.51975 2.227
-2.68159 3.51973 2.16918
-2.67222 3.52426 2.16296
-2.63759 3.52659 2.17029
-2.62217 3.52662 2.16899
-2.6015 3.53132 2.1683
-2.58339 3.53377 2.16728
-2.58838 3.53626 2.15468
-2.54663 3.5388 2.16542
-2.58734 3.54372 2.13386
-2.6104 3.54634 2.11211
-2.59517 3.549 2.10949
-2.60954 3.55404 2.09098
-2.66686 3.55677 2.05202
-2.52033 3.5644 2.11273
-2.56981 3.5672 2.07762
-2.52908 3.57486 2.08535
-1.02449 4.14584 1.83399
-1.08052 4.12536 1.80856
-1.09852 4.11534 1.79552
-1.13262 4.1065 1.77369
-1.09242 4.09938 1.78795
-1.12493 4.09391 1.76481
-1.13143 4.0897 1.75388
-1.14907 4.0842 1.73825
-1.16168 4.08162 1.72323
-1.12296 4.0774 1.73498
-1.20144 4.07481 1.68707
-1.15799 4.07221 1.70014
-1.0693 4.07091 1.73497
-1.12088 4.06861 1.70035
-1.18551 4.06732 1.65853
-1.13472 4.06631 1.67423
-1.17462 4.06531 1.6446
-1.06099 4.06559 1.69085
-1.14739 4.06461 1.63796
-1.06495 4.0649 1.66861
-1.0954 4.06519 1.64282
-1.10938 4.06425 1.62611
-1.09234 4.06488 1.62383
-1.11132 4.06521 1.60375
-1.13835 4.06589 1.57939
-1.05014 4.06625 1.61287
-1.11252 4.06701 1.57077
-1.07605 4.06891 1.57729
-1.10048 4.06976 1.55409
-1.14548 4.07021 1.52089
-1.0124 4.07217 1.57565
-1.03818 4.07318 1.55165
-1.06524 4.07519 1.52628
-1.06422 4.07634 1.51556
-0.967212 4.07842 1.55216
-0.956357 4.07973 1.54623
-1.03969 4.08262 1.49205
-1.01655 4.08338 1.49264
-1.01917 4.08646 1.47866
-1.02203 4.08876 1.4651
-0.998773 4.0906 1.46494
-1.00098 4.09401 1.45086
-0.964386 4.09649 1.45686
-1.0713 4.09871 1.3913
-0.918732 4.10251 1.45427
-0.938251 4.10647 1.43106
-0.911329 4.10919 1.43199
-0.890502 4.11202 1.42977
-0.92861 4.11641 1.39688
-0.893888 4.12096 1.40026
-0.89541 4.12462 1.38618
-0.793603 4.12963 1.42271
-0.803454 4.13481 1.40325
-0.873741 4.14082 1.35291
-0.698486 4.14722 1.425
-0.796762 4.15495 1.35925
-0.690824 4.16506 1.3937
-0.722636 4.18065 1.35493
-3.00046 3.53778 2.84312
-2.97845 3.53614 2.84544
-2.9391 3.53331 2.85666
-2.96062 3.53178 2.83721
-3.02206 3.52964 2.79793
-2.99627 3.52788 2.8022
-2.97693 3.52648 2.80318
-2.90007 3.52412 2.83312
-3.06275 3.52267 2.74312
-2.95062 3.52151 2.79048
-3.00843 3.51922 2.7531
-3.0541 3.51802 2.72157
-3.00281 3.51688 2.73852
-2.98783 3.51577 2.73731
-2.91835 3.5136 2.76359
-3.01954 3.51259 2.70429
-3.01507 3.51152 2.69784
-2.99763 3.50952 2.69808
-3.00752 3.50865 2.68441
-3.01779 3.50783 2.67055
-2.97816 3.50681 2.68169
-2.99515 3.50506 2.66469
-3.10137 3.50438 2.60283
-2.98396 3.50339 2.65287
-3.03913 3.50279 2.61653
-2.91497 3.50182 2.66994
-2.9799 3.5008 2.62883
-2.99569 3.49987 2.61227
-2.99873 3.49946 2.60196
-3.00492 3.49855 2.5902
-3.04435 3.49731 2.56191
-2.91571 3.49705 2.61741
-2.99584 3.49617 2.56869
-2.96037 3.49598 2.57759
-2.93771 3.49499 2.5803
-3.03047 3.49416 2.52526
-2.96896 3.4941 2.54714
-2.93957 3.49329 2.55318
-2.9353 3.49252 2.54665
-2.8797 3.4926 2.56555
-2.91336 3.49274 2.5398
-3.02541 3.49198 2.47512
-2.89352 3.49219 2.53212
-2.94686 3.49146 2.49679
-2.97417 3.49102 2.47439
-2.93755 3.49137 2.48371
-2.95812 3.49067 2.46476
-2.89411 3.49042 2.48797
-2.94768 3.4909 2.45216
-2.92078 3.49025 2.45694
-2.93827 3.49081 2.43914
-2.8988 3.49018 2.4502
-2.92699 3.49019 2.42723
-2.8961 3.49088 2.43358
-2.96596 3.49029 2.38996
-2.93049 3.49048 2.39876
-2.94816 3.4913 2.38078
-2.90049 3.49076 2.39592
-2.92711 3.49164 2.37344
-2.85207 3.49112 2.40225
-2.79184 3.49157 2.42334
-2.9237 3.49258 2.34819
-2.83256 3.4921 2.38504
-2.95305 3.49272 2.31571
-2.80946 3.49386 2.37822
-2.81592 3.49343 2.36626
-2.83958 3.49421 2.34527
-2.8986 3.49547 2.30643
-2.89296 3.49508 2.3005
-2.88667 3.49603 2.29442
-2.8387 3.49741 2.30901
-2.79109 3.49706 2.32405
-2.7662 3.49817 2.3272
-2.84795 3.49966 2.27687
-2.82598 3.49936 2.27907
-2.7738 3.50062 2.29579
-2.84177 3.50223 2.25229
-2.83553 3.50196 2.24661
-2.75904 3.50338 2.27541
-2.75951 3.50487 2.26569
-2.79585 3.50663 2.23792
-2.77553 3.50643 2.23925
-2.79689 3.50807 2.21901
-2.76784 3.50993 2.22387
-2.78171 3.50977 2.20808
-2.6785 3.51154 2.25005
-2.75038 3.51338 2.20443
-2.7105 3.51538 2.21463
-2.73683 3.51529 2.19256
-2.73273 3.51726 2.18486
-2.63268 3.51929 2.2251
-2.73324 3.52142 2.16498
-2.74485 3.52356 2.14933
-2.69305 3.52575 2.16534
-2.67725 3.52799 2.16333
-2.71179 3.528 2.13708
-2.62025 3.53031 2.17289
-2.77387 3.53267 2.08608
-2.64681 3.53738 2.13859
-2.65601 3.53746 2.12496
-2.66761 3.53996 2.10906
-2.59418 3.5425 2.13565
-2.62313 3.54742 2.10999
-2.57572 3.55006 2.12349
-2.58163 3.55274 2.1103
-2.57715 3.55546 2.10227
-2.65499 3.56056 2.05199
-2.6164 3.56336 2.06095
-2.44964 3.56619 2.13397
-2.52185 3.57399 2.08519
-2.57352 3.57688 2.04892
-2.45608 3.58472 2.09488
-2.54962 3.59511 2.03411
-1.03954 4.15503 1.83907
-1.02423 4.1318 1.85098
-1.13726 4.12187 1.79032
-1.04875 4.11015 1.83163
-1.16302 4.10309 1.76861
-1.11752 4.09894 1.78362
-1.15049 4.09353 1.76023
-1.1461 4.08936 1.75475
-1.10399 4.08392 1.76897
-1.15069 4.08139 1.73691
-1.15478 4.08011 1.72532
-1.19205 4.07756 1.69801
-1.1569 4.07501 1.70692
-1.21398 4.07246 1.66973
-1.18853 4.07151 1.67273
-1.11939 4.07023 1.69781
-1.14919 4.06928 1.6732
-1.07949 4.06833 1.69835
-1.17644 4.06865 1.63932
-1.13876 4.06772 1.64845
-1.13448 4.06804 1.64002
-1.16432 4.06869 1.61431
-1.14766 4.06902 1.61207
-1.16741 4.06971 1.59137
-1.09788 4.07007 1.61554
-1.10364 4.07082 1.60178
-1.1248 4.07121 1.58058
-1.1645 4.07203 1.5498
-1.08034 4.07398 1.58015
-1.12543 4.0749 1.54659
-1.06696 4.07688 1.56405
-1.00454 4.07792 1.58415
-1.0502 4.07996 1.54949
-0.990363 4.08114 1.56819
-1.11759 4.08325 1.49268
-1.02922 4.08458 1.52551
-1.12023 4.08677 1.46803
-0.998963 4.08975 1.5161
-1.02543 4.09055 1.49188
-1.0694 4.09372 1.45717
-0.97719 4.09608 1.49112
-0.945294 4.098 1.49523
-0.955091 4.10152 1.4773
-1.03365 4.10406 1.4257
-0.90326 4.10637 1.47874
-0.999733 4.11028 1.41713
-0.917827 4.11435 1.44456
-0.933838 4.1186 1.42289
-0.963322 4.1215 1.39548
-0.970533 4.126 1.37797
-0.845364 4.1295 1.42739
-1.02243 4.13445 1.32458
-0.850045 4.13957 1.39632
-0.868304 4.14545 1.37214
-0.83081 4.15173 1.37549
-0.757558 4.15899 1.39593
-0.719611 4.16833 1.39706
-0.816522 4.17949 1.32929
-3.05377 3.54923 2.81629
-3.076 3.54624 2.79674
-3.01771 3.54456 2.81722
-2.99952 3.54211 2.8178
-2.97178 3.5405 2.823
-2.9875 3.53894 2.80648
-3.08778 3.53625 2.7479
-3.00606 3.53482 2.78009
-2.98494 3.53365 2.78193
-3.01501 3.53112 2.75846
-3.00203 3.52981 2.75627
-3.00379 3.52856 2.74671
-2.97177 3.52633 2.75426
-3.01408 3.52515 2.72442
-3.0262 3.52403 2.70967
-3.00967 3.52295 2.70924
-2.93209 3.52083 2.73958
-3.02101 3.51977 2.68644
-2.97701 3.5188 2.69974
-3.02685 3.51685 2.66635
-2.9378 3.51601 2.70216
-2.97642 3.515 2.67418
-2.99199 3.51422 2.65767
-2.97337 3.51323 2.65831
-3.04112 3.51156 2.61594
-3.03266 3.51092 2.61143
-2.96753 3.50997 2.63533
-3.01358 3.5094 2.60355
-3.01426 3.50797 2.59468
-2.95115 3.50753 2.61746
-2.97228 3.50664 2.59823
-2.97392 3.50627 2.58862
-2.92138 3.5051 2.60631
-2.97219 3.50424 2.57225
-2.94491 3.50401 2.57707
-2.85457 3.50318 2.61358
-2.90541 3.50221 2.57955
-2.90395 3.50212 2.57143
-2.94393 3.50133 2.54278
-2.97011 3.50131 2.52082
-2.91508 3.50054 2.53968
-2.90825 3.49985 2.53442
-3.03495 3.49997 2.46217
-3.02621 3.50016 2.45761
-2.96855 3.49944 2.47778
-2.92552 3.499 2.49055
-2.89724 3.49932 2.49572
-2.80009 3.49865 2.53564
-2.89038 3.49904 2.4815
-2.85631 3.49839 2.48987
-2.8959 3.49822 2.46126
-2.86692 3.49875 2.46671
-2.99059 3.49814 2.3962
-2.90942 3.49815 2.42792
-2.96322 3.49881 2.39193
-2.94279 3.49824 2.39346
-2.9076 3.49898 2.40195
-2.9946 3.49843 2.34976
-2.76813 3.49871 2.45403
-2.90084 3.49958 2.37852
-2.77906 3.49907 2.43071
-2.848 3.49952 2.38721
-2.81431 3.50052 2.39484
-2.88525 3.50006 2.35066
-2.85411 3.50068 2.35714
-2.91828 3.50181 2.31579
-2.85765 3.50139 2.33737
-2.89419 3.50218 2.30995
-2.82975 3.50343 2.33284
-2.81337 3.50306 2.33228
-2.85103 3.50402 2.30423
-2.86689 3.50538 2.28691
-2.82009 3.50505 2.30155
-2.82131 3.50473 2.29217
-2.85968 3.50588 2.26367
-2.87544 3.50737 2.24635
-2.82286 3.5071 2.26385
-2.82424 3.50839 2.25378
-2.84155 3.50977 2.2357
-2.78278 3.51143 2.25554
-2.78798 3.51122 2.24412
-2.79366 3.51275 2.23179
-2.82486 3.51452 2.20659
-2.84194 3.51434 2.1892
-2.81751 3.51602 2.19185
-2.72331 3.51776 2.22934
-2.65406 3.51968 2.25427
-2.71964 3.51957 2.2126
-2.72967 3.52145 2.1979
-2.72426 3.5234 2.19087
-2.72812 3.52546 2.17916
-2.70584 3.52542 2.18138
-2.65421 3.52749 2.19739
-2.77315 3.52963 2.12807
-2.72276 3.53182 2.1434
-2.66718 3.53184 2.16223
-2.70712 3.53632 2.13138
-2.70454 3.53866 2.1227
-2.64182 3.53872 2.14506
-2.6588 3.54114 2.12655
-2.59233 3.5436 2.14972
-2.68094 3.54612 2.09533
-2.71138 3.54855 2.07004
-2.59412 3.55115 2.11851
-2.68274 3.55379 2.06402
-2.68475 3.55648 2.05279
-2.59013 3.55922 2.08984
-2.60195 3.56434 2.07257
-2.55879 3.56716 2.08382
-2.63362 3.57002 2.03604
-2.55374 3.57291 2.06559
-2.5383 3.57818 2.06179
-2.53989 3.5838 2.04929
-2.536 3.5868 2.04074
-2.43254 3.5948 2.07959
-2.52719 3.60051 2.02043
-2.51011 3.61592 2.01245
-1.01713 4.14566 1.86405
-1.22052 4.12823 1.76293
-1.2086 4.11659 1.76587
-1.12791 4.10959 1.80026
-1.15832 4.10257 1.77916
-1.22799 4.09846 1.73658
-1.23508 4.09142 1.72722
-1.25267 4.08897 1.70964
-1.07041 4.08483 1.79312
-1.21695 4.08235 1.71111
-1.20865 4.07986 1.70656
-1.18649 4.07736 1.70895
-1.23984 4.07485 1.67361
-1.1979 4.07522 1.684
-1.21027 4.07271 1.66916
-1.11732 4.07182 1.70592
-1.1137 4.07217 1.69717
-1.17003 4.07127 1.65929
-1.19398 4.07162 1.63676
-1.13304 4.07196 1.65667
-1.12982 4.07109 1.64855
-1.07839 4.07181 1.66345
-1.16811 4.07217 1.60802
-1.07346 4.07293 1.6445
-1.17388 4.07332 1.58369
-1.10875 4.07567 1.60429
-1.11239 4.07609 1.59184
-1.08575 4.07698 1.59421
-1.02082 4.07897 1.61493
-1.18218 4.07996 1.52322
-1.13024 4.082 1.53739
-1.03136 4.08405 1.57502
-1.04196 4.0852 1.55855
-1.05616 4.08731 1.53958
-1.03596 4.08861 1.53839
-1.10892 4.09151 1.48944
-1.06899 4.09375 1.49741
-0.988613 4.09601 1.52557
-1.07772 4.09766 1.46943
-1.05087 4.10093 1.47007
-0.951126 4.10335 1.50777
-0.945667 4.10535 1.49862
-1.08948 4.10897 1.41363
-0.9721 4.11158 1.45997
-0.973471 4.11543 1.44598
-0.994405 4.11945 1.42208
-0.826632 4.12217 1.49348
-0.885076 4.12653 1.45053
-0.999891 4.13095 1.37932
-0.927507 4.1343 1.4025
-0.909562 4.13919 1.39728
-0.8948 4.14425 1.3903
-0.883605 4.15 1.38099
-0.8323 4.15615 1.3914
-0.761363 4.16339 1.41075
-0.818882 4.17165 1.36505
-0.786832 4.18242 1.36215
-0.716193 4.19693 1.37557
-2.99267 3.55961 2.84687
-2.89334 3.55779 2.88788
-2.98044 3.55532 2.83581
-2.93979 3.55356 2.84748
-2.99681 3.55114 2.81046
-3.07819 3.549 2.76122
-3.0575 3.54741 2.76291
-3.00517 3.54506 2.78058
-2.99075 3.54323 2.77921
-3.02917 3.54208 2.75128
-2.96803 3.53981 2.77337
-3.02632 3.5382 2.73562
-2.94832 3.53691 2.76595
-2.99938 3.53581 2.73173
-3.14347 3.5335 2.65125
-2.9845 3.53235 2.72206
-2.96391 3.53125 2.72368
-3.0652 3.53019 2.66435
-3.02386 3.5281 2.67657
-2.99124 3.5271 2.6842
-2.96185 3.52608 2.69022
-2.97667 3.52514 2.67412
-3.05453 3.52327 2.62673
-2.9627 3.52246 2.66394
-3.04908 3.52149 2.61208
-3.01993 3.51979 2.61818
-2.94546 3.51912 2.64668
-3.0071 3.51819 2.6072
-2.93112 3.51759 2.63645
-2.98378 3.51615 2.6016
-3.0121 3.51568 2.57868
-3.02516 3.5148 2.56349
-3.00124 3.51441 2.56667
-2.98329 3.51355 2.56699
-2.94916 3.51238 2.5755
-3.0268 3.51213 2.52787
-3.02463 3.51131 2.5203
-2.98319 3.51112 2.5322
-2.90316 3.51021 2.56359
-2.94066 3.50944 2.53619
-2.89502 3.5094 2.55015
-2.99295 3.50864 2.49253
-2.93486 3.50794 2.51291
-2.99397 3.50804 2.47446
-2.91759 3.50733 2.504
-2.93258 3.5075 2.48759
-3.0068 3.50772 2.44154
-2.93917 3.50705 2.4667
-2.97413 3.50669 2.44046
-2.99175 3.50706 2.42267
-2.97389 3.50642 2.42294
-2.93987 3.50625 2.43114
-2.88782 3.50676 2.44814
-2.89146 3.50616 2.43765
-2.87476 3.50674 2.43695
-2.94846 3.50617 2.39142
-2.97741 3.50627 2.36805
-2.89204 3.50698 2.40164
-3.00326 3.50645 2.33734
-2.90384 3.50673 2.37809
-2.95583 3.50758 2.34295
-2.90281 3.50709 2.36076
-2.91252 3.50662 2.3472
-2.84521 3.50709 2.37183
-2.919 3.50808 2.32573
-2.89988 3.50765 2.32657
-2.81322 3.5083 2.36081
-2.87578 3.50942 2.32027
-2.83786 3.50903 2.33049
-2.93578 3.50985 2.27237
-2.81146 3.5111 2.32521
-2.9089 3.51075 2.26774
-2.88692 3.51174 2.26949
-2.74859 3.51311 2.32928
-2.83558 3.51281 2.27702
-2.82403 3.51396 2.27348
-2.82751 3.51544 2.2623
-2.82608 3.51519 2.25423
-2.73686 3.5165 2.28945
-2.81294 3.5181 2.24191
-2.86852 3.51788 2.20531
-2.82698 3.51935 2.21662
-2.79957 3.52106 2.22076
-2.84053 3.52089 2.19144
-2.81399 3.5225 2.19517
-2.75077 3.52419 2.21721
-2.84544 3.52606 2.16021
-2.78219 3.52585 2.18301
-2.80348 3.52778 2.16267
-2.69824 3.52771 2.2064
-2.77747 3.52963 2.15708
-2.75881 3.53162 2.15666
-2.69331 3.53369 2.17962
-2.68414 3.53367 2.17528
-2.70044 3.5358 2.1573
-2.75647 3.53796 2.11944
-2.71288 3.54019 2.13133
-2.78302 3.54023 2.0873
-2.71968 3.54254 2.10902
-2.65271 3.54491 2.13252
-2.70404 3.54723 2.09688
-2.72711 3.54969 2.0753
-2.56123 3.55221 2.14815
-2.72708 3.55478 2.0551
-2.61417 3.55723 2.10148
-2.68241 3.55988 2.05718
-2.65706 3.56259 2.05963
-2.5893 3.56533 2.08325
-2.60129 3.56813 2.06697
-2.62981 3.57096 2.04239
-2.59519 3.57384 2.04934
-2.62005 3.57676 2.02652
-2.5656 3.57971 2.04332
-2.52323 3.58505 2.05295
-2.57722 3.58808 2.01546
-2.53985 3.59385 2.02234
-2.47069 3.59694 2.04635
-2.42985 3.6028 2.05487
-2.47006 3.61098 2.02171
-2.45796 3.61687 2.01578
-1.13394 4.15173 1.82008
-1.06053 4.13732 1.85539
-1.19034 4.12286 1.7892
-1.14611 4.11418 1.80642
-1.20255 4.10725 1.77224
-1.17186 4.1003 1.78166
-1.20349 4.09623 1.75811
-1.20715 4.09215 1.74856
-1.21913 4.08687 1.73566
-1.18063 4.08445 1.74616
-1.19457 4.08202 1.73046
-1.13592 4.08079 1.75027
-1.15123 4.07834 1.73392
-1.17824 4.07711 1.71092
-1.19879 4.07505 1.6917
-1.24244 4.07545 1.65932
-1.29068 4.07421 1.62572
-1.21013 4.07375 1.65601
-1.19495 4.07413 1.65305
-1.09816 4.07451 1.69089
-1.18278 4.07526 1.63777
-1.16043 4.07405 1.63947
-1.11577 4.07483 1.65097
-1.1543 4.0768 1.62005
-1.19553 4.07761 1.58857
-1.14331 4.07803 1.60408
-1.10957 4.0789 1.61004
-1.13836 4.0809 1.58394
-1.0748 4.08185 1.60474
-1.19923 4.08389 1.53077
-1.11676 4.08594 1.56024
-1.09928 4.08703 1.55789
-1.10821 4.08913 1.5416
-1.08809 4.09034 1.54046
-1.05692 4.09251 1.54415
-1.05731 4.09539 1.53154
-1.05053 4.09763 1.52297
-1.07782 4.09917 1.49786
-1.11458 4.10233 1.46682
-1.04478 4.10472 1.48962
-0.943167 4.10808 1.52759
-1.03588 4.11056 1.46904
-0.926941 4.11413 1.51049
-1.02352 4.11786 1.44905
-0.965223 4.12025 1.46602
-1.02651 4.12299 1.42292
-0.942624 4.12712 1.45137
-1.03717 4.13141 1.39045
-0.898977 4.13439 1.44687
-0.90865 4.13903 1.42809
-1.04934 4.14385 1.34364
-0.903613 4.15032 1.40112
-0.925396 4.15447 1.37659
-0.870627 4.16049 1.38887
-0.877404 4.16769 1.36945
-0.800895 4.17522 1.39139
-0.845344 4.1854 1.35077
-0.731266 4.19945 1.38636
-3.05665 3.57341 2.82328
-3.00111 3.57216 2.84228
-3.03947 3.56896 2.8147
-2.985 3.56705 2.8333
-3.01032 3.56462 2.81211
-3.00338 3.56219 2.80707
-3.034 3.56045 2.78312
-3.04149 3.55809 2.77088
-2.8639 3.55596 2.85114
-3.07621 3.5548 2.73626
-2.91743 3.55209 2.80725
-3.01041 3.5506 2.75212
-2.93444 3.54915 2.78146
-2.99995 3.54693 2.74024
-2.986 3.54534 2.73862
-3.05984 3.54425 2.693
-2.99189 3.5421 2.71852
-2.96251 3.54074 2.72459
-3.04642 3.53961 2.67397
-2.99288 3.53857 2.69206
-2.97898 3.53652 2.69056
-3.05313 3.53548 2.64482
-3.04537 3.53447 2.64003
-2.99397 3.53252 2.65729
-2.92431 3.53162 2.68344
-2.96143 3.53077 2.65618
-3.07721 3.52982 2.58963
-2.9758 3.52905 2.63163
-3.03583 3.52741 2.59314
-3.01756 3.5265 2.59361
-2.92085 3.52587 2.63325
-2.9509 3.52497 2.60957
-2.97962 3.52441 2.58647
-3.00438 3.52305 2.56557
-3.03765 3.52262 2.54017
-3.00018 3.52178 2.55025
-3.0052 3.5206 2.53919
-3.02008 3.52032 2.52296
-3.0069 3.51952 2.52089
-2.97498 3.5193 2.52804
-2.96517 3.51852 2.5243
-2.94654 3.51762 2.52501
-2.97818 3.51755 2.50034
-2.99503 3.51682 2.48326
-2.9648 3.51682 2.48952
-2.98008 3.5161 2.47322
-2.96083 3.51548 2.47417
-3.01812 3.51563 2.43663
-2.9528 3.51495 2.46063
-2.97119 3.51517 2.44251
-2.89766 3.5148 2.47053
-2.9433 3.51515 2.43874
-2.93096 3.51453 2.43625
-2.87352 3.51495 2.45598
-2.93195 3.51435 2.41809
-2.87504 3.51426 2.43772
-2.84589 3.51482 2.44326
-2.92436 3.51372 2.39552
-2.94569 3.51436 2.3758
-2.84958 3.51384 2.41517
-2.88911 3.51454 2.38631
-2.88815 3.51404 2.3781
-2.88409 3.51434 2.37118
-2.8631 3.51518 2.37253
-2.73963 3.51473 2.42556
-2.8492 3.5152 2.36176
-2.92304 3.51617 2.31564
-2.79061 3.51576 2.37314
-2.90529 3.51641 2.30671
-2.83679 3.51751 2.3317
-2.84895 3.51715 2.31689
-2.93029 3.51832 2.26694
-2.84762 3.51797 2.29953
-2.85792 3.51888 2.28518
-2.79448 3.52017 2.30756
-2.79739 3.51987 2.29734
-2.82983 3.52094 2.27185
-2.86324 3.52236 2.24574
-2.8005 3.5221 2.26834
-2.80259 3.52334 2.25794
-2.85525 3.52311 2.22282
-2.85313 3.52445 2.21448
-2.73536 3.52606 2.26386
-2.77124 3.52587 2.23711
-2.84329 3.52737 2.19161
-2.80459 3.52895 2.20145
-2.77463 3.53072 2.20683
-2.76691 3.5306 2.20184
-2.8203 3.53232 2.16555
-2.80693 3.5342 2.16257
-2.83705 3.53412 2.13864
-2.7956 3.53599 2.14969
-2.73183 3.53793 2.17186
-2.80844 3.53996 2.12379
-2.76801 3.53994 2.1351
-2.8255 3.54202 2.09656
-2.62763 3.54204 2.18656
-2.72245 3.5442 2.1293
-2.65266 3.54638 2.15433
-2.68984 3.54865 2.12582
-2.677 3.55098 2.12229
-2.66579 3.55108 2.11891
-2.64936 3.55349 2.11711
-2.60664 3.55597 2.12843
-2.61703 3.55835 2.11321
-2.59747 3.56091 2.11288
-2.61383 3.56354 2.09455
-2.66327 3.56373 2.06076
-2.59808 3.56642 2.08316
-2.5584 3.56917 2.09275
-2.65118 3.57196 2.03609
-2.56474 3.5748 2.069
-2.56723 3.57769 2.0574
-2.60802 3.58062 2.02663
-2.65407 3.58359 1.99319
-2.72467 3.58895 1.94633
-2.53806 3.592 2.02914
-2.51081 3.59509 2.03225
-2.54297 3.59822 2.00561
-2.47433 3.60413 2.02801
-2.45255 3.60733 2.02827
-2.51003 3.61334 1.98752
-2.5136 3.61939 1.97367
-2.47103 3.62547 1.98285
-2.42831 3.63656 1.98959
-1.13022 4.16517 1.8317
-1.15359 4.13863 1.82618
-1.14935 4.12717 1.82509
-1.18306 4.11857 1.80327
-1.21262 4.10886 1.78428
-1.17193 4.10487 1.79681
-1.25086 4.09798 1.75141
-1.24175 4.09396 1.74822
-1.26515 4.08993 1.72881
-1.22993 4.08759 1.73762
-1.31291 4.08523 1.68737
-1.23479 4.08284 1.71769
-1.26444 4.08044 1.69415
-1.30507 4.07803 1.66514
-1.09577 4.07847 1.75922
-1.21957 4.07726 1.68785
-1.26275 4.07647 1.6565
-1.26163 4.07568 1.64732
-1.26915 4.07609 1.63301
-1.2585 4.07691 1.62752
-1.26034 4.0757 1.61714
-1.153 4.07652 1.65998
-1.20651 4.07693 1.62267
-1.1966 4.07936 1.61569
-1.23044 4.07978 1.58821
-1.20104 4.08065 1.59203
-1.20797 4.0811 1.57797
-1.22826 4.0836 1.55581
-1.21202 4.08408 1.5533
-1.15238 4.08665 1.57103
-1.14904 4.08874 1.56094
-1.15207 4.09083 1.54765
-1.18084 4.09198 1.52215
-1.05749 4.09413 1.57198
-1.06151 4.09695 1.55765
-1.0459 4.09916 1.55355
-1.17093 4.10059 1.47968
-1.08014 4.10442 1.512
-1.03846 4.10602 1.52134
-1.06359 4.10928 1.49607
-1.0591 4.11172 1.48619
-0.98275 4.11517 1.51149
-1.00954 4.11771 1.48587
-1.12375 4.12138 1.41569
-1.02632 4.12521 1.45121
-1.03087 4.12919 1.4356
-1.00221 4.13199 1.43744
-0.936415 4.13472 1.4579
-0.95142 4.13912 1.4367
-0.992094 4.14369 1.4025
-0.878154 4.14844 1.44546
-0.945079 4.15365 1.39762
-0.814504 4.15886 1.44851
-0.922702 4.16574 1.3787
-0.807627 4.17191 1.42105
-0.843084 4.17924 1.38721
-0.821957 4.18784 1.38065
-0.792229 4.1994 1.37608
-0.84799 4.21699 1.32405
-3.04906 3.58637 2.82664
-3.04165 3.58388 2.82179
-2.95192 3.58098 2.85819
-3.01059 3.57898 2.82024
-2.91799 3.57582 2.85815
-3.01021 3.57394 2.80342
-3.02904 3.57156 2.78549
-3.00374 3.56914 2.78964
-2.97125 3.56797 2.79716
-2.95863 3.5651 2.79509
-3.03239 3.56345 2.74958
-3.01474 3.56119 2.74993
-3.02447 3.55919 2.73654
-3.04362 3.55772 2.71833
-3.08138 3.55662 2.69075
-2.98294 3.55412 2.73158
-3.06491 3.55278 2.68196
-3.08444 3.55149 2.66356
-2.96134 3.5494 2.71666
-2.93994 3.54818 2.71872
-2.96049 3.54703 2.69979
-2.9502 3.54594 2.69628
-3.07403 3.54394 2.62593
-2.95562 3.54292 2.67647
-3.07815 3.54195 2.60654
-2.9663 3.54098 2.6538
-2.99223 3.53917 2.63238
-3.05438 3.53823 2.59265
-2.98109 3.53743 2.6206
-2.97708 3.53651 2.61395
-3.05022 3.53488 2.56891
-3.04523 3.53422 2.5627
-2.96531 3.53334 2.59401
-2.97956 3.53275 2.57816
-2.9607 3.53137 2.57908
-2.93843 3.53091 2.58146
-2.94293 3.53009 2.57057
-2.92759 3.5297 2.56948
-2.97905 3.5289 2.5351
-2.96642 3.5278 2.53285
-2.98483 3.52756 2.51485
-2.96242 3.5268 2.51741
-3.01701 3.52589 2.48151
-2.95051 3.52579 2.50593
-3.0109 3.52507 2.46708
-2.99421 3.52504 2.46658
-2.87344 3.52435 2.51831
-2.94479 3.52372 2.47397
-2.97569 3.52383 2.44963
-2.87725 3.52318 2.4902
-2.90215 3.52337 2.46884
-2.96318 3.52274 2.42966
-3.00749 3.52239 2.39877
-2.9065 3.52272 2.44031
-2.93628 3.52213 2.41675
-2.87908 3.52196 2.43655
-2.94007 3.52244 2.39706
-2.91774 3.52189 2.39955
-2.89041 3.52243 2.40418
-2.86233 3.52191 2.40955
-2.87338 3.52202 2.39514
-2.81713 3.5227 2.41418
-2.89036 3.52223 2.36888
-2.96356 3.52252 2.32333
-2.82065 3.52334 2.38565
-2.81505 3.5229 2.37975
-2.9054 3.52379 2.32542
-2.79751 3.52338 2.37065
-2.92586 3.52394 2.29742
-2.88658 3.52496 2.30785
-2.86111 3.52459 2.31186
-2.89555 3.52533 2.28552
-2.86611 3.52648 2.29096
-2.95168 3.52615 2.23943
-2.88459 3.52707 2.26378
-2.83845 3.52835 2.27752
-2.93245 3.52806 2.22176
-2.80376 3.52779 2.27734
-2.87197 3.52889 2.23396
-2.82409 3.53008 2.24858
-2.74993 3.53156 2.27623
-2.81192 3.53135 2.23644
-2.7572 3.5327 2.2544
-2.78434 3.53429 2.23133
-2.85945 3.53413 2.18496
-2.79635 3.53564 2.20703
-2.81354 3.53735 2.18887
-2.75729 3.53712 2.2082
-2.82643 3.53889 2.16403
-2.75864 3.5388 2.18907
-2.72994 3.54056 2.19381
-2.79114 3.54245 2.15355
-2.71017 3.5424 2.18515
-2.76307 3.54431 2.14901
-2.75544 3.54629 2.14309
-2.67407 3.54832 2.17401
-2.70359 3.54834 2.15033
-2.76175 3.55046 2.11144
-2.71876 3.5505 2.12399
-2.73651 3.55271 2.10524
-2.71013 3.55498 2.10852
-2.70711 3.55722 2.10013
-2.6683 3.5596 2.10956
-2.69725 3.55972 2.08608
-2.61756 3.56218 2.11589
-2.76381 3.56471 2.0327
-2.62083 3.5671 2.09416
-2.65676 3.56748 2.06706
-2.64395 3.57014 2.0633
-2.63009 3.57285 2.06003
-2.60785 3.57536 2.06102
-2.634 3.57816 2.03767
-2.69404 3.58101 1.99735
-2.57096 3.5839 2.04854
-2.5282 3.58684 2.05954
-2.50962 3.58983 2.05842
-2.59408 3.59286 2.00573
-2.52152 3.59593 2.03153
-2.59055 3.59905 1.98649
-2.59856 3.6022 1.97193
-2.5557 3.60538 1.98277
-2.40054 3.6114 2.04837
-2.48129 3.61467 1.99733
-2.46287 3.61797 1.99584
-2.44497 3.62413 1.99267
-2.43618 3.63033 1.98489
-2.50283 3.63656 1.93934
-2.39814 3.64281 1.97942
-2.47068 3.65189 1.92943
-1.08609 4.18119 1.86195
-1.20125 4.14447 1.81675
-1.08979 4.1331 1.86917
-1.22827 4.12172 1.7967
-1.30422 4.11317 1.75376
-1.20451 4.1064 1.79756
-1.18686 4.1007 1.7997
-1.25518 4.09675 1.75775
-1.24407 4.09166 1.75627
-1.3639 4.08767 1.68864
-1.3289 4.08538 1.69735
-1.21392 4.08307 1.74608
-1.34323 4.0819 1.67192
-1.23004 4.07955 1.7198
-1.20595 4.07886 1.72204
-1.31087 4.07767 1.66011
-1.32763 4.07695 1.64196
-1.25473 4.07741 1.66787
-1.29754 4.07666 1.63671
-1.30134 4.07711 1.62427
-1.25492 4.07798 1.63666
-1.28397 4.07842 1.61159
-1.274 4.07929 1.60574
-1.12931 4.07973 1.66753
-1.16948 4.08222 1.6355
-1.23974 4.08267 1.58981
-1.15848 4.08359 1.61955
-1.15328 4.08566 1.61046
-1.27424 4.08823 1.53794
-1.13762 4.08873 1.59563
-1.17223 4.09137 1.56621
-1.11147 4.0935 1.58482
-1.13741 4.09565 1.56006
-1.05654 4.09685 1.58936
-1.15192 4.09905 1.52982
-1.08569 4.10195 1.55059
-1.12517 4.10421 1.51893
-1.16664 4.10726 1.4857
-1.13659 4.1096 1.48873
-1.12063 4.11282 1.48407
-1.00719 4.11617 1.52805
-1.13599 4.11866 1.4515
-1.07639 4.12221 1.46837
-1.06734 4.1248 1.46065
-1.02426 4.12857 1.46907
-1.03319 4.1325 1.45135
-0.946746 4.13658 1.48118
-0.971733 4.14083 1.45516
-0.913058 4.14378 1.4719
-1.01229 4.14829 1.40852
-1.00004 4.15297 1.40073
-0.986692 4.15804 1.39317
-0.925499 4.16317 1.40946
-0.851316 4.17001 1.43094
-0.895469 4.17604 1.39382
-0.914775 4.18247 1.3688
-0.861172 4.19084 1.37872
-0.774883 4.20209 1.40274
-0.789915 4.21518 1.37463
-3.02086 3.59975 2.84023
-3.02025 3.59533 2.83233
-2.97961 3.5941 2.84387
-3.08474 3.58988 2.78309
-3.02382 3.58867 2.80478
-3.0802 3.58546 2.76823
-3.03725 3.58275 2.78125
-2.93348 3.58115 2.82448
-2.93797 3.5779 2.81391
-2.97145 3.57675 2.78844
-3.04005 3.57448 2.74564
-3.01271 3.57218 2.75084
-3.00885 3.57055 2.74416
-2.8428 3.56834 2.81871
-3.08333 3.56636 2.68993
-2.99452 3.56528 2.72564
-3.01618 3.56315 2.70634
-3.02831 3.56139 2.69174
-3.03057 3.56007 2.68199
-2.86959 3.55903 2.7538
-3.04449 3.55676 2.65796
-2.99123 3.55557 2.67595
-3.02251 3.55444 2.65167
-2.92377 3.55346 2.69237
