ply
format ascii 1.0
comment Created by Open3D
element vertex 1842
property double x
property double y
property double z
end_header
-0.313596 1.20992 0.980591
-0.305569 1.21038 0.972255
-0.297095 1.21089 0.963957
-0.285739 1.21176 0.955934
-0.273427 1.21276 0.947992
-0.260194 1.21386 0.940123
-0.24608 1.21507 0.932322
-0.223642 1.21732 0.92529
-0.199124 1.21983 0.91842
-0.154112 1.22489 0.913413
-0.250458 1.252 1.34284
-0.27702 1.24802 1.32968
-0.29408 1.24526 1.31788
-0.30889 1.24279 1.30642
-0.320276 1.24076 1.29545
-0.330365 1.23891 1.28469
-0.335403 1.2377 1.27463
-0.344787 1.23593 1.26401
-0.349298 1.23479 1.25405
-0.357797 1.23314 1.2436
-0.362588 1.23197 1.23364
-0.36616 1.23095 1.22386
-0.369427 1.22997 1.21414
-0.372372 1.22904 1.20446
-0.374981 1.22815 1.19485
-0.377237 1.2273 1.18529
-0.379127 1.22651 1.17578
-0.380638 1.22576 1.16634
-0.381756 1.22506 1.15695
-0.38247 1.22441 1.14763
-0.381362 1.224 1.13852
-0.381443 1.22343 1.12929
-0.381093 1.22293 1.12011
-0.380304 1.22247 1.11099
-0.379067 1.22208 1.10193
-0.376543 1.22184 1.09303
-0.374184 1.22159 1.0841
-0.371801 1.22134 1.07519
-0.368949 1.22115 1.06633
-0.366444 1.22092 1.05743
-0.362639 1.22085 1.04868
-0.358385 1.22084 1.03998
-0.353866 1.22086 1.0313
-0.348869 1.22094 1.02268
-0.343396 1.22109 1.01411
-0.337448 1.22129 1.00558
-0.331028 1.22155 0.9971
-0.324139 1.22187 0.988663
-0.317562 1.22215 0.98019
-0.307845 1.22283 0.972027
-0.299356 1.22335 0.963732
-0.28798 1.22424 0.955714
-0.27841 1.22489 0.947506
-0.2624 1.22636 0.93991
-0.248272 1.22759 0.932112
-0.229604 1.22939 0.924726
-0.205466 1.23187 0.917826
-0.16571 1.23632 0.912337
-0.251447 1.26491 1.3427
-0.274838 1.2613 1.32998
-0.290956 1.25864 1.3183
-0.306807 1.25601 1.3067
-0.317313 1.25407 1.29585
-0.327508 1.25218 1.28507
-0.337322 1.25034 1.27437
-0.346689 1.24856 1.26376
-0.35215 1.24728 1.25368
-0.356399 1.24617 1.24378
-0.363523 1.24468 1.23352
-0.368027 1.24353 1.22363
-0.371281 1.24255 1.2139
-0.374213 1.24161 1.20423
-0.376807 1.24071 1.19462
-0.37905 1.23985 1.18506
-0.381841 1.23893 1.17545
-0.382422 1.2383 1.16612
-0.382636 1.23771 1.15685
-0.382644 1.23714 1.1476
-0.383131 1.23652 1.13831
-0.383197 1.23595 1.12908
-0.382832 1.23544 1.11991
-0.382028 1.23499 1.11079
-0.380157 1.23467 1.10181
-0.378673 1.2343 1.09278
-0.376731 1.23399 1.08382
-0.374326 1.23374 1.07491
-0.371453 1.23355 1.06605
-0.368109 1.23342 1.05725
-0.36429 1.23336 1.0485
-0.36003 1.23335 1.0398
-0.356483 1.23324 1.03102
-0.351705 1.2333 1.02238
-0.34645 1.23342 1.01379
-0.34072 1.23359 1.00524
-0.333413 1.23397 0.996854
-0.326507 1.2343 0.988421
-0.319138 1.23468 0.98003
-0.312108 1.23502 0.9716
-0.301695 1.2358 0.9635
-0.292752 1.23638 0.955244
-0.280715 1.23736 0.947281
-0.267749 1.23845 0.939394
-0.253892 1.23966 0.931575
-0.235564 1.24144 0.924162
-0.212574 1.2438 0.917159
-0.182442 1.24707 0.910785
-0.245222 1.27877 1.34356
-0.271723 1.27471 1.33041
-0.292985 1.27135 1.31803
-0.308818 1.26869 1.30643
-0.31931 1.26674 1.29558
-0.329489 1.26483 1.28481
-0.339286 1.26297 1.27411
-0.345099 1.26164 1.26397
-0.353123 1.26002 1.25356
-0.358343 1.25876 1.24353
-0.362317 1.25767 1.23368
-0.366011 1.25662 1.22388
-0.372224 1.25523 1.21378
-0.375149 1.25428 1.20411
-0.377736 1.25338 1.1945
-0.379972 1.25252 1.18495
-0.380638 1.25186 1.1756
-0.382305 1.25108 1.16614
-0.383586 1.25034 1.15673
-0.384467 1.24966 1.14739
-0.385858 1.24891 1.13799
-0.385901 1.24834 1.12877
-0.38461 1.24795 1.1197
-0.382981 1.24759 1.11068
-0.381933 1.24717 1.10161
-0.380433 1.2468 1.09258
-0.378477 1.24649 1.08362
-0.376937 1.24612 1.07461
-0.373375 1.24602 1.06584
-0.370246 1.24586 1.05701
-0.366643 1.24577 1.04824
-0.362566 1.24573 1.03953
-0.358177 1.24574 1.03084
-0.353832 1.24574 1.02216
-0.348963 1.24581 1.01352
-0.343214 1.24599 1.00498
-0.336992 1.24623 0.996485
-0.330301 1.24653 0.988034
-0.321568 1.2471 0.979784
-0.314548 1.24744 0.971355
-0.30625 1.24795 0.963048
-0.295154 1.24882 0.955008
-0.285768 1.24947 0.946789
-0.273086 1.25054 0.938879
-0.256238 1.25214 0.931351
-0.24152 1.25347 0.923598
-0.218949 1.25581 0.916562
-0.189228 1.25906 0.910155
-0.24114 1.29236 1.34412
-0.272764 1.28758 1.33026
-0.289948 1.28472 1.31844
-0.305849 1.28203 1.30683
-0.320325 1.27953 1.29545
-0.330496 1.2776 1.28468
-0.337637 1.27608 1.27433
-0.347118 1.27425 1.2637
-0.351704 1.27306 1.25374
-0.36033 1.27134 1.24327
-0.364291 1.27024 1.23343
-0.368968 1.26905 1.22351
-0.372343 1.26803 1.21377
-0.375405 1.26705 1.20408
-0.378136 1.26611 1.19445
-0.380521 1.26522 1.18488
-0.382547 1.26438 1.17536
-0.385162 1.26347 1.16579
-0.386419 1.26273 1.15639
-0.387278 1.26204 1.14705
-0.386787 1.26154 1.13788
-0.385617 1.26112 1.1288
-0.385432 1.26057 1.11961
-0.38574 1.25996 1.11037
-0.384669 1.25953 1.10129
-0.383146 1.25916 1.09228
-0.38026 1.25897 1.08342
-0.377831 1.25872 1.07451
-0.375156 1.2585 1.06564
-0.372908 1.25823 1.05672
-0.369283 1.25813 1.04796
-0.365184 1.2581 1.03924
-0.360785 1.25811 1.03057
-0.355972 1.25817 1.02193
-0.350903 1.25827 1.01332
-0.345787 1.25837 1.00471
-0.339546 1.25861 0.996222
-0.332836 1.25892 0.987775
-0.325662 1.25929 0.97937
-0.318029 1.25972 0.971006
-0.30875 1.26036 0.962799
-0.299995 1.26093 0.954532
-0.288231 1.2619 0.946549
-0.27553 1.26298 0.938643
-0.26193 1.26418 0.930807
-0.248292 1.26538 0.922957
-0.225327 1.26779 0.915964
-0.200359 1.27046 0.909122
-0.234153 1.30635 1.34508
-0.269723 1.30099 1.33068
-0.291004 1.29756 1.31829
-0.306896 1.29484 1.30669
-0.319573 1.29256 1.29555
-0.329826 1.2906 1.28476
-0.339718 1.28869 1.27406
-0.344612 1.28745 1.26403
-0.353755 1.28565 1.25347
-0.359127 1.28435 1.24343
-0.365294 1.28294 1.2333
-0.369975 1.28173 1.22338
-0.374354 1.28057 1.21351
-0.3774 1.27958 1.20383
-0.380116 1.27864 1.19421
-0.383485 1.27761 1.18452
-0.385488 1.27677 1.17501
-0.387117 1.27597 1.16555
-0.387384 1.27536 1.15628
-0.386653 1.27488 1.14713
-0.388266 1.27408 1.13771
-0.388482 1.27348 1.12846
-0.388273 1.27293 1.11928
-0.387629 1.27244 1.11015
-0.3856 1.27213 1.10119
-0.383655 1.27181 1.09222
-0.382828 1.27135 1.08313
-0.380595 1.27107 1.07421
-0.377896 1.27085 1.06534
-0.374728 1.2707 1.05652
-0.370797 1.27064 1.04779
-0.367833 1.27046 1.03896
-0.363542 1.27046 1.03027
-0.358946 1.27049 1.02161
-0.353873 1.27059 1.01301
-0.348326 1.27074 1.00445
-0.343197 1.27085 0.995845
-0.3367 1.27113 0.98738
-0.328257 1.27167 0.979107
-0.320606 1.2721 0.970747
-0.312503 1.2726 0.962426
-0.302556 1.27333 0.95428
-0.293353 1.27397 0.94605
-0.280938 1.27503 0.938121
-0.267613 1.2762 0.930264
-0.250801 1.27783 0.92272
-0.231705 1.27976 0.915367
-0.2071 1.28241 0.908497
-0.157219 1.28837 0.903911
-0.225119 1.32063 1.34633
-0.267836 1.31426 1.33094
-0.289125 1.31079 1.31855
-0.306162 1.30789 1.30678
-0.316778 1.30586 1.29592
-0.330892 1.30336 1.28462
-0.337129 1.30193 1.2744
-0.347799 1.2999 1.26362
-0.354796 1.29836 1.25334
-0.36123 1.29691 1.24316
-0.365293 1.29577 1.2333
-0.369083 1.29467 1.22349
-0.372582 1.29361 1.21374
-0.378414 1.29224 1.20371
-0.381122 1.29129 1.19408
-0.3822 1.29056 1.18467
-0.38437 1.28968 1.17514
-0.386173 1.28886 1.16567
-0.388605 1.28795 1.15613
-0.389626 1.28723 1.14677
-0.390242 1.28656 1.13747
-0.390442 1.28595 1.12823
-0.38924 1.28553 1.11916
-0.388749 1.28501 1.11002
-0.38786 1.28455 1.10093
-0.386524 1.28415 1.09189
-0.384734 1.28381 1.08292
-0.382484 1.28353 1.07399
-0.379969 1.28329 1.06511
-0.377013 1.2831 1.05627
-0.373586 1.28298 1.04749
-0.369686 1.28292 1.03876
-0.366325 1.28279 1.02997
-0.361705 1.28283 1.02132
-0.356611 1.28293 1.01272
-0.351043 1.28309 1.00417
-0.345002 1.28332 0.995659
-0.338493 1.2836 0.987197
-0.332597 1.28381 0.978668
-0.325163 1.28422 0.97029
-0.315336 1.28495 0.962145
-0.306779 1.28551 0.953864
-0.295305 1.28645 0.94586
-0.286759 1.28701 0.937559
-0.273728 1.28815 0.929679
-0.256441 1.28987 0.922186
-0.237692 1.29177 0.914806
-0.213475 1.29439 0.907906
-0.17365 1.29908 0.902402
-0.207406 1.33612 1.34877
-0.263796 1.32782 1.33149
-0.287348 1.32401 1.31879
-0.30333 1.32122 1.30717
-0.317878 1.31864 1.29577
-0.329317 1.31648 1.28483
-0.339305 1.31452 1.27411
-0.345371 1.3131 1.26393
-0.354632 1.31124 1.25336
-0.359059 1.31004 1.24344
-0.367424 1.30831 1.23303
-0.372274 1.30706 1.22309
-0.375752 1.30599 1.21334
-0.378922 1.30497 1.20364
-0.381769 1.30399 1.194
-0.384277 1.30306 1.18442
-0.387477 1.30203 1.17476
-0.389256 1.3012 1.16529
-0.390653 1.30042 1.15588
-0.390637 1.29983 1.14665
-0.391244 1.29916 1.13735
-0.391244 1.29857 1.12814
-0.391208 1.29799 1.11893
-0.390742 1.29747 1.10979
-0.389836 1.297 1.1007
-0.387499 1.29673 1.09178
-0.386516 1.29628 1.08271
-0.384484 1.29597 1.07377
-0.381989 1.29572 1.06488
-0.379028 1.29553 1.05605
-0.376256 1.29532 1.0472
-0.372591 1.29523 1.03845
-0.368451 1.2952 1.02975
-0.364034 1.29521 1.02108
-0.359182 1.29528 1.01245
-0.354246 1.29536 1.00383
-0.349118 1.29547 0.995235
-0.342849 1.29573 0.986752
-0.33474 1.29623 0.978451
-0.32731 1.29665 0.970075
-0.319425 1.29712 0.961739
-0.31216 1.29751 0.953334
-0.301014 1.29842 0.945303
-0.288909 1.29946 0.937351
-0.275881 1.30062 0.929473
-0.261969 1.3019 0.921663
-0.243576 1.30377 0.914254
-0.224878 1.30569 0.906848
-0.190645 1.30967 0.900841
-0.256927 1.34179 1.33243
-0.28451 1.33738 1.31918
-0.300531 1.33456 1.30754
-0.316269 1.33179 1.29599
-0.327821 1.32959 1.28503
-0.337905 1.3276 1.2743
-0.347601 1.32566 1.26364
-0.352352 1.32441 1.25366
-0.361255 1.32258 1.24315
-0.366529 1.32126 1.23314
-0.370423 1.32012 1.22332
-0.376829 1.31865 1.2132
-0.379992 1.31761 1.20351
-0.383903 1.31648 1.19374
-0.386395 1.31554 1.18416
-0.388533 1.31465 1.17463
-0.388309 1.31409 1.16541
-0.389895 1.31327 1.15597
-0.392119 1.31237 1.14647
-0.392921 1.31167 1.13716
-0.393313 1.31102 1.12789
-0.393283 1.31043 1.11869
-0.391966 1.31002 1.10965
-0.391291 1.30952 1.10053
-0.390172 1.30908 1.09148
-0.388603 1.3087 1.08248
-0.386576 1.30839 1.07354
-0.38426 1.30811 1.06463
-0.381541 1.30789 1.05577
-0.378352 1.30774 1.04697
-0.374692 1.30764 1.03822
-0.370558 1.30762 1.02952
-0.366996 1.30751 1.02076
-0.362345 1.30755 1.01212
-0.357025 1.30769 1.00354
-0.351231 1.30788 0.995017
-0.344966 1.30814 0.986535
-0.338232 1.30847 0.978097
-0.33209 1.30871 0.969596
-0.324436 1.30916 0.961241
-0.314283 1.30995 0.953126
-0.305514 1.31054 0.944865
-0.293727 1.31155 0.936886
-0.281004 1.31268 0.928984
-0.268443 1.31379 0.92105
-0.250413 1.31563 0.913614
-0.230977 1.31767 0.906282
-0.201646 1.32103 0.899831
-0.249021 1.35591 1.33351
-0.280538 1.35091 1.31972
-0.301688 1.34736 1.30739
-0.314553 1.34496 1.29622
-0.32897 1.34234 1.28488
-0.339046 1.34033 1.27415
-0.346059 1.33875 1.26384
-0.35546 1.33684 1.25325
-0.359991 1.3356 1.24332
-0.36753 1.33395 1.23301
-0.372428 1.33266 1.22307
-0.377045 1.33142 1.21317
-0.380367 1.33035 1.20346
-0.383373 1.32933 1.1938
-0.386048 1.32836 1.1842
-0.389382 1.3273 1.17453
-0.391352 1.32642 1.16504
-0.392948 1.3256 1.15561
-0.394156 1.32484 1.14623
-0.394964 1.32412 1.13691
-0.39434 1.32361 1.12777
-0.394249 1.32302 1.11858
-0.394015 1.32246 1.10941
-0.393346 1.32195 1.1003
-0.392233 1.32151 1.09124
-0.390362 1.32117 1.08228
-0.388573 1.32082 1.07331
-0.386325 1.32053 1.0644
-0.383611 1.32031 1.05555
-0.380428 1.32015 1.04674
-0.377806 1.31991 1.03788
-0.373634 1.31989 1.02919
-0.369343 1.31988 1.02051
-0.36474 1.31992 1.01187
-0.359662 1.32002 1.00327
-0.354109 1.32019 0.99472
-0.349122 1.32028 0.986111
-0.342628 1.32057 0.977652
-0.334184 1.32113 0.969386
-0.326534 1.32158 0.961032
-0.318431 1.3221 0.952717
-0.307618 1.32298 0.944659
-0.299465 1.3235 0.936333
-0.287054 1.3246 0.928406
-0.273731 1.32582 0.92055
-0.256072 1.32763 0.913083
-0.236976 1.32964 0.905725
-0.213408 1.33226 0.898751
-0.153721 1.33978 0.895023
-0.246068 1.36937 1.33391
-0.278506 1.36419 1.31999
-0.299709 1.36059 1.30765
-0.315526 1.35775 1.29609
-0.326997 1.35553 1.28514
-0.338174 1.35334 1.27426
-0.34704 1.35148 1.26371
-0.352876 1.35005 1.25359
-0.361962 1.34817 1.24306
-0.367243 1.34681 1.23305
-0.373424 1.34534 1.22294
-0.378039 1.34408 1.21305
-0.382356 1.34287 1.20321
-0.385369 1.34184 1.19356
-0.38805 1.34085 1.18395
-0.390384 1.33992 1.17441
-0.392357 1.33904 1.16492
-0.393956 1.33821 1.15549
-0.394439 1.33753 1.1462
-0.395459 1.33679 1.13686
-0.396074 1.3361 1.12757
-0.396272 1.33546 1.11834
-0.396044 1.33489 1.10918
-0.394604 1.33449 1.10015
-0.393724 1.33401 1.09107
-0.392396 1.33359 1.08205
-0.390613 1.33323 1.07309
-0.38837 1.33294 1.06418
-0.385662 1.33272 1.05532
-0.382983 1.33249 1.04647
-0.379572 1.33236 1.03769
-0.375688 1.3323 1.02897
-0.371399 1.33229 1.02029
-0.366802 1.33233 1.01165
-0.362753 1.33229 1.00295
-0.357207 1.33245 0.994401
-0.351187 1.33269 0.9859
-0.344696 1.33298 0.977443
-0.33774 1.33334 0.969029
-0.329642 1.33386 0.960724
-0.321544 1.33438 0.952411
-0.313001 1.33496 0.944135
-0.301542 1.33594 0.936132
-0.289134 1.33705 0.928207
-0.275813 1.33828 0.920353
-0.262655 1.3395 0.912467
-0.243908 1.34147 0.905082
-0.219684 1.3442 0.898174
-0.179828 1.34908 0.89265
-0.228672 1.38487 1.33629
-0.27527 1.37764 1.32043
-0.296523 1.374 1.30808
-0.313387 1.37099 1.29638
-0.32494 1.36873 1.28541
-0.335266 1.36664 1.27464
-0.346209 1.36447 1.26382
-0.35482 1.36264 1.25334
-0.360444 1.36122 1.24326
-0.36822 1.3595 1.23292
-0.374215 1.35804 1.22284
-0.377997 1.35689 1.21305
-0.381488 1.35578 1.20332
-0.384672 1.35472 1.19364
-0.387532 1.3537 1.18402
-0.390052 1.35273 1.17445
-0.393202 1.35167 1.16481
-0.395004 1.35081 1.15536
-0.396424 1.34999 1.14596
-0.39745 1.34924 1.13662
-0.398071 1.34854 1.12734
-0.397276 1.34804 1.11823
-0.397042 1.34746 1.10906
-0.396607 1.34692 1.09993
-0.395733 1.34643 1.09085
-0.39441 1.34601 1.08183
-0.392411 1.34568 1.07289
-0.390408 1.34535 1.06395
-0.387941 1.34509 1.05507
-0.385007 1.34489 1.04625
-0.381601 1.34476 1.03747
-0.378731 1.34456 1.02865
-0.374447 1.34455 1.01997
-0.369856 1.34459 1.01133
-0.365214 1.34463 1.00269
-0.359247 1.34486 0.99419
-0.353231 1.34509 0.985691
-0.347761 1.34525 0.977133
-0.34081 1.34562 0.968721
-0.333396 1.34604 0.960351
-0.325527 1.34654 0.952019
-0.315053 1.34739 0.943935
-0.306075 1.34803 0.935695
-0.295003 1.34897 0.927646
-0.281985 1.35017 0.919768
-0.26808 1.3515 0.911958
-0.24969 1.35345 0.904546
-0.225866 1.35615 0.897606
-0.191129 1.36036 0.891623
-0.2678 1.3917 1.32144
-0.294244 1.38729 1.30839
-0.311175 1.38424 1.29667
-0.325893 1.3815 1.28529
-0.337174 1.37926 1.27439
-0.34336 1.37775 1.2642
-0.35309 1.37574 1.25356
-0.362366 1.37379 1.24301
-0.36776 1.37239 1.23298
-0.371954 1.37117 1.22313
-0.378966 1.36955 1.21293
-0.383427 1.36829 1.20308
-0.387582 1.36708 1.19328
-0.390451 1.36605 1.18366
-0.39298 1.36507 1.17409
-0.395156 1.36415 1.16458
-0.396964 1.36327 1.15512
-0.397409 1.36259 1.14584
-0.398439 1.36183 1.1365
-0.398593 1.36119 1.12727
-0.399017 1.36051 1.11802
-0.399019 1.3599 1.10883
-0.39859 1.35934 1.0997
-0.397027 1.35895 1.0907
-0.395938 1.35849 1.08165
-0.394398 1.35809 1.07266
-0.392401 1.35776 1.06373
-0.389939 1.3575 1.05485
-0.38701 1.3573 1.04603
-0.384197 1.35708 1.03719
-0.380563 1.35699 1.02845
-0.376453 1.35695 1.01976
-0.372052 1.35696 1.0111
-0.367228 1.35703 1.00248
-0.362268 1.35712 0.993879
-0.357155 1.35723 0.98529
-0.350909 1.3575 0.976814
-0.344194 1.35783 0.968382
-0.335421 1.35846 0.960149
-0.327554 1.35895 0.95182
-0.320246 1.35937 0.943429
-0.309119 1.36032 0.935401
-0.299716 1.36103 0.927195
-0.287005 1.36221 0.919293
-0.270113 1.36396 0.911768
-0.255365 1.36542 0.904019
-0.232962 1.36795 0.896955
-0.203182 1.3715 0.890527
-0.264515 1.40518 1.32189
-0.290979 1.40072 1.30883
-0.308893 1.3975 1.29698
-0.32374 1.39472 1.28557
-0.336052 1.39232 1.27454
-0.346182 1.39022 1.26383
-0.354984 1.38832 1.25331
-0.360708 1.38687 1.24322
-0.368712 1.38508 1.23286
-0.374804 1.38358 1.22276
-0.378742 1.38238 1.21296
-0.382398 1.38123 1.20321
-0.385754 1.38012 1.19351
-0.388795 1.37906 1.18386
-0.391504 1.37804 1.17427
-0.394824 1.37694 1.16462
-0.396828 1.37603 1.15514
-0.398457 1.37517 1.14572
-0.399698 1.37437 1.13635
-0.400539 1.37363 1.12705
-0.400969 1.37295 1.1178
-0.400001 1.37247 1.10872
-0.399622 1.3719 1.09958
-0.398983 1.37137 1.09048
-0.397901 1.37091 1.08143
-0.396366 1.37051 1.07244
-0.394374 1.37017 1.06351
-0.392017 1.36989 1.05462
-0.38933 1.36965 1.04577
-0.386174 1.36949 1.03698
-0.382544 1.36939 1.02824
-0.378439 1.36935 1.01955
-0.375028 1.36922 1.01079
-0.37021 1.36929 1.00217
-0.364916 1.36943 0.993606
-0.359147 1.36963 0.985086
-0.352905 1.3699 0.976612
-0.346193 1.37024 0.968181
-0.34001 1.3705 0.959694
-0.332376 1.37097 0.951345
-0.322246 1.37179 0.943234
-0.313491 1.37242 0.934979
-0.301722 1.37347 0.927003
-0.289013 1.37465 0.919103
-0.2764 1.37582 0.911178
-0.261931 1.37725 0.90341
-0.23894 1.37989 0.896406
-0.213938 1.3828 0.889549
-0.256999 1.41929 1.32291
-0.288601 1.41404 1.30915
-0.306545 1.41078 1.29729
-0.322428 1.40783 1.28575
-0.332979 1.40565 1.27495
-0.343233 1.40352 1.26421
-0.354047 1.40131 1.25344
-0.36258 1.39944 1.24298
-0.368082 1.398 1.23294
-0.372418 1.39674 1.22307
-0.380624 1.39491 1.21272
-0.384286 1.39375 1.20297
-0.388588 1.39249 1.19316
-0.391638 1.39142 1.18351
-0.394356 1.39039 1.17392
-0.396727 1.38942 1.16439
-0.398737 1.3885 1.15491
-0.400371 1.38763 1.14549
-0.401618 1.38682 1.13613
-0.401505 1.38621 1.12693
-0.40152 1.38558 1.11773
-0.40175 1.38492 1.10852
-0.401553 1.38432 1.09936
-0.40092 1.38379 1.09026
-0.399843 1.38332 1.08121
-0.397932 1.38297 1.07227
-0.396178 1.3826 1.06331
-0.393963 1.38229 1.05441
-0.391281 1.38206 1.04556
-0.3891 1.38175 1.03666
-0.385182 1.38169 1.02796
-0.381322 1.38162 1.01924
-0.377048 1.38161 1.01057
-0.372473 1.38165 1.00194
-0.367421 1.38175 0.993347
-0.361893 1.38192 0.984806
-0.35687 1.38202 0.976211
-0.350398 1.38233 0.96776
-0.341982 1.38291 0.959498
-0.334351 1.38338 0.951151
-0.326266 1.38392 0.942842
-0.315473 1.38484 0.934787
-0.307272 1.38539 0.926473
-0.294876 1.38654 0.918548
-0.281564 1.38782 0.910695
-0.263912 1.38972 0.903226
-0.244817 1.39182 0.895866
-0.22118 1.39457 0.888891
-0.171201 1.40107 0.88425
-0.248589 1.43355 1.32405
-0.281908 1.428 1.31005
-0.303235 1.42421 1.29773
-0.320107 1.42109 1.28606
-0.334808 1.41828 1.27471
-0.34507 1.41613 1.26397
-0.351162 1.41459 1.25381
-0.360784 1.41254 1.24321
-0.369009 1.41069 1.23282
-0.375193 1.40914 1.22272
-0.379283 1.4079 1.21289
-0.385223 1.4064 1.20285
-0.389523 1.40513 1.19304
-0.392576 1.40404 1.1834
-0.395297 1.40301 1.17381
-0.397671 1.40203 1.16427
-0.399683 1.4011 1.1548
-0.401321 1.40022 1.14538
-0.401709 1.39953 1.13612
-0.402768 1.39874 1.12678
-0.40342 1.39802 1.11751
-0.404601 1.39721 1.10819
-0.403465 1.39675 1.09914
-0.401986 1.39633 1.09014
-0.401141 1.39582 1.08107
-0.399848 1.39538 1.07206
-0.398099 1.395 1.0631
-0.395889 1.39469 1.0542
-0.3934 1.39443 1.04533
-0.390491 1.39422 1.03651
-0.387111 1.39408 1.02775
-0.383256 1.39401 1.01904
-0.378984 1.39401 1.01037
-0.375078 1.39394 1.00167
-0.370331 1.394 0.993047
-0.364809 1.39418 0.984508
-0.358812 1.39442 0.976014
-0.352344 1.39473 0.967564
-0.345408 1.3951 0.959157
-0.338009 1.39555 0.950791
-0.329194 1.39619 0.942557
-0.320666 1.3968 0.934286
-0.309226 1.39782 0.926286
-0.296832 1.39898 0.918363
-0.283523 1.40027 0.910511
-0.269337 1.40169 0.902723
-0.251565 1.40362 0.895246
-0.227335 1.40648 0.888331
-0.187446 1.41159 0.882788
-0.236073 1.44844 1.32575
-0.27941 1.44135 1.31039
-0.304133 1.43703 1.29761
-0.316827 1.43449 1.28649
-0.332554 1.43151 1.275
-0.343832 1.42919 1.26413
-0.353876 1.42705 1.25346
-0.362606 1.42511 1.24298
-0.368212 1.42363 1.23292
-0.372685 1.42232 1.22303
-0.381114 1.42043 1.21266
-0.384936 1.41922 1.20289
-0.389381 1.41792 1.19306
-0.392607 1.4168 1.18339
-0.395509 1.41573 1.17378
-0.398071 1.41471 1.16422
-0.40028 1.41375 1.15472
-0.40212 1.41283 1.14528
-0.404505 1.41184 1.13578
-0.405572 1.41105 1.12646
-0.405301 1.41045 1.11729
-0.404238 1.40997 1.10823
-0.40427 1.40932 1.09905
-0.403871 1.40875 1.08992
-0.403031 1.40823 1.08085
-0.401743 1.40779 1.07184
-0.399704 1.40745 1.06292
-0.397733 1.4071 1.054
-0.395298 1.40683 1.04513
-0.392395 1.40662 1.03631
-0.389019 1.40648 1.02755
-0.386117 1.40627 1.01873
-0.38185 1.40626 1.01007
-0.377463 1.40627 1.00142
-0.37266 1.40634 0.992807
-0.36738 1.40648 0.984245
-0.360734 1.40681 0.975819
-0.35427 1.40712 0.967371
-0.348294 1.40736 0.958871
-0.3409 1.40781 0.950506
-0.333048 1.40832 0.942181
-0.322596 1.40921 0.9341
-0.313632 1.40989 0.925865
-0.301554 1.41101 0.917916
-0.289508 1.41213 0.90995
-0.275611 1.41352 0.902141
-0.257225 1.41556 0.894727
-0.233397 1.41839 0.887781
-0.198635 1.4228 0.881782
-0.276 1.45484 1.31085
-0.301661 1.45034 1.29794
-0.318598 1.44715 1.28626
-0.333446 1.44427 1.27488
-0.344723 1.44193 1.26402
-0.350888 1.44035 1.25385
-0.360676 1.43824 1.24323
-0.370011 1.43619 1.23269
-0.375385 1.43474 1.22269
-0.379621 1.43345 1.21285
-0.386754 1.43174 1.20266
-0.391196 1.43043 1.19283
-0.394427 1.4293 1.18317
-0.397335 1.42822 1.17356
-0.400812 1.42705 1.16389
-0.403029 1.42607 1.15439
-0.403963 1.42529 1.14506
-0.403486 1.42471 1.1359
-0.404759 1.42388 1.12655
-0.405631 1.42311 1.11725
-0.406091 1.42239 1.10802
-0.407052 1.42161 1.09873
-0.406661 1.42102 1.08961
-0.404133 1.42076 1.08073
-0.403079 1.42027 1.07169
-0.401572 1.41985 1.06271
-0.399607 1.4195 1.05379
-0.398109 1.41908 1.04482
-0.394555 1.41897 1.03608
-0.391423 1.41879 1.02729
-0.387817 1.41869 1.01855
-0.383735 1.41865 1.00987
-0.379351 1.41866 1.00122
-0.374552 1.41873 0.992612
-0.369566 1.41882 0.984022
-0.364467 1.41894 0.975442
-0.358243 1.41922 0.966973
-0.351549 1.41956 0.958547
-0.342802 1.42021 0.950319
-0.334953 1.42073 0.941995
-0.326652 1.42131 0.933708
-0.31649 1.42217 0.925592
-0.3071 1.42291 0.917391
-0.294401 1.42414 0.909492
-0.277519 1.42598 0.901964
-0.262777 1.4275 0.894217
-0.240309 1.43015 0.887152
-0.210512 1.43388 0.880713
-0.26828 1.469 1.31189
-0.29913 1.46367 1.29828
-0.316121 1.46044 1.28659
-0.331969 1.45739 1.27508
-0.343342 1.45501 1.2642
-0.353528 1.45282 1.2535
-0.362449 1.45081 1.243
-0.368152 1.44929 1.23293
-0.376275 1.44741 1.22258
-0.381402 1.44598 1.21263
-0.386265 1.44459 1.20272
-0.389962 1.44338 1.19299
-0.39336 1.44222 1.1833
-0.398241 1.44083 1.17345
-0.399192 1.44003 1.16409
-0.401595 1.43902 1.15457
-0.403637 1.43806 1.1451
-0.405303 1.43716 1.13569
-0.407486 1.43619 1.12623
-0.408366 1.4354 1.11694
-0.408835 1.43468 1.1077
-0.407969 1.43416 1.09862
-0.406575 1.43372 1.08962
-0.405971 1.43317 1.08052
-0.404922 1.43268 1.07149
-0.404337 1.43212 1.06241
-0.40146 1.4319 1.05359
-0.399062 1.43161 1.04472
-0.396406 1.43136 1.03588
-0.393279 1.43118 1.02709
-0.389677 1.43108 1.01836
-0.3856 1.43104 1.00968
-0.382144 1.43091 1.00093
-0.377352 1.43098 0.992323
-0.372082 1.43112 0.983765
-0.366336 1.43133 0.975252
-0.360116 1.43161 0.966785
-0.353425 1.43196 0.958361
-0.346268 1.43238 0.949978
-0.339584 1.43273 0.941544
-0.329475 1.43359 0.933436
-0.320735 1.43424 0.925186
-0.308982 1.43534 0.917213
-0.296286 1.43657 0.909315
-0.282685 1.43794 0.901485
-0.269157 1.4393 0.893631
-0.246165 1.44206 0.88662
-0.216805 1.44575 0.880147
-0.26484 1.48252 1.31236
-0.296544 1.47702 1.29863
-0.313578 1.47376 1.28692
-0.329527 1.47066 1.2754
-0.340132 1.46838 1.26462
-0.350441 1.46614 1.2539
-0.36125 1.46383 1.24315
-0.369901 1.46185 1.23271
-0.375382 1.46036 1.22269
-0.382286 1.45865 1.21251
-0.388024 1.45711 1.2025
-0.391726 1.45589 1.19277
-0.39513 1.45471 1.18308
-0.398217 1.45359 1.17345
-0.401856 1.45238 1.16377
-0.404267 1.45135 1.15424
-0.406318 1.45038 1.14478
-0.407992 1.44947 1.13537
-0.409279 1.44862 1.12602
-0.409268 1.44797 1.11683
-0.408285 1.44746 1.10776
-0.40855 1.44677 1.09856
-0.409287 1.446 1.08931
-0.40869 1.44544 1.08022
-0.406745 1.44508 1.07128
-0.404794 1.44472 1.06236
-0.403072 1.44433 1.05341
-0.400888 1.44401 1.04452
-0.398236 1.44375 1.03568
-0.396024 1.44344 1.0268
-0.392123 1.44337 1.0181
-0.388291 1.4433 1.00939
-0.384032 1.44329 1.00073
-0.379483 1.44332 0.992103
-0.374456 1.44343 0.983522
-0.368952 1.4436 0.974988
-0.362972 1.44385 0.966499
-0.357439 1.44403 0.957962
-0.349049 1.44464 0.949704
-0.341436 1.44513 0.941363
-0.333367 1.44569 0.93306
-0.322593 1.44665 0.925009
-0.311766 1.44762 0.91695
-0.30196 1.44844 0.908783
-0.288659 1.44978 0.900931
-0.271014 1.45176 0.89346
-0.25192 1.45396 0.886097
-0.22729 1.45698 0.879204
-0.168395 1.46511 0.875323
-0.257109 1.49672 1.3134
-0.293067 1.49051 1.29909
-0.314427 1.48655 1.28681
-0.33038 1.48343 1.27529
-0.34184 1.48099 1.2644
-0.353007 1.47861 1.25357
-0.362109 1.47654 1.24304
-0.367905 1.47498 1.23296
-0.377108 1.4729 1.22247
-0.38149 1.47156 1.21261
-0.386478 1.47013 1.2027
-0.392601 1.46853 1.19266
-0.39688 1.46721 1.18287
-0.399973 1.46607 1.17324
-0.403608 1.46485 1.16355
-0.405148 1.46395 1.15414
-0.407201 1.46297 1.14467
-0.406795 1.46237 1.13551
-0.409163 1.46135 1.12603
-0.41026 1.46052 1.11672
-0.41095 1.45975 1.10745
-0.411224 1.45905 1.09825
-0.411069 1.45842 1.0891
-0.409587 1.45798 1.08012
-0.407851 1.45759 1.07116
-0.40659 1.45712 1.06216
-0.405766 1.45659 1.05311
-0.403589 1.45626 1.04422
-0.400162 1.45613 1.03547
-0.397283 1.45591 1.02666
-0.393931 1.45576 1.01791
-0.390103 1.45568 1.0092
-0.385847 1.45567 1.00054
-0.381916 1.45561 0.991853
-0.377183 1.45568 0.983243
-0.371684 1.45585 0.974711
-0.36571 1.4561 0.966224
-0.359262 1.45642 0.957781
-0.352345 1.45681 0.94938
-0.343267 1.45753 0.941185
-0.335201 1.45809 0.932883
-0.327597 1.45859 0.92453
-0.316173 1.45966 0.916533
-0.303793 1.46087 0.908612
-0.290493 1.46222 0.900761
-0.276314 1.4637 0.892974
-0.258483 1.46573 0.8855
-0.234246 1.46872 0.878578
-0.189604 1.47477 0.873435
-0.248588 1.51105 1.31455
-0.290394 1.50389 1.29945
-0.311806 1.49989 1.28716
-0.328682 1.49659 1.27551
-0.34022 1.49412 1.26461
-0.350659 1.49183 1.25388
-0.360757 1.48959 1.24322
-0.370447 1.48741 1.23264
-0.375187 1.48601 1.22272
-0.383203 1.48409 1.2124
-0.388186 1.48265 1.20248
-0.392048 1.48138 1.19273
-0.395619 1.48016 1.18302
-0.398881 1.47898 1.17337
-0.402678 1.47773 1.16367
-0.40528 1.47666 1.15412
-0.407528 1.47564 1.14464
-0.409407 1.47469 1.1352
-0.410904 1.47379 1.12583
-0.412007 1.47295 1.11651
-0.412703 1.47218 1.10725
-0.412105 1.47161 1.09815
-0.410794 1.47114 1.08914
-0.411304 1.4704 1.07992
-0.4105 1.46986 1.07087
-0.409246 1.46939 1.06186
-0.406653 1.46912 1.05302
-0.404345 1.46881 1.04414
-0.40194 1.46852 1.03528
-0.399066 1.4683 1.02647
-0.395718 1.46815 1.01772
-0.392782 1.46793 1.00892
-0.38853 1.46792 1.00027
-0.383992 1.46796 0.991639
-0.378975 1.46806 0.98306
-0.37348 1.46824 0.974529
-0.367509 1.46849 0.966044
-0.361065 1.46881 0.957602
-0.355047 1.46907 0.949114
-0.34767 1.46953 0.940756
-0.339835 1.47007 0.932436
-0.329402 1.471 0.924358
-0.320451 1.4717 0.916128
-0.308388 1.47287 0.908181
-0.295392 1.47419 0.900306
-0.282401 1.4755 0.892415
-0.264019 1.47763 0.884997
-0.240186 1.48059 0.878043
-0.200793 1.4859 0.872439
-0.286861 1.5174 1.29993
-0.309938 1.51311 1.28741
-0.326064 1.5099 1.27586
-0.341047 1.50687 1.2645
-0.352315 1.50443 1.25366
-0.361591 1.5023 1.24311
-0.367474 1.5007 1.23302
-0.376863 1.49856 1.2225
-0.382215 1.49704 1.21252
-0.389033 1.4953 1.20238
-0.394582 1.49376 1.19241
-0.39816 1.49252 1.18271
-0.401431 1.49134 1.17306
-0.404379 1.4902 1.16346
-0.406986 1.48912 1.15392
-0.409239 1.4881 1.14443
-0.411124 1.48713 1.135
-0.412626 1.48623 1.12563
-0.412873 1.48552 1.11641
-0.412825 1.48485 1.10724
-0.413323 1.4841 1.09801
-0.413397 1.48342 1.08884
-0.41304 1.48281 1.07973
-0.41224 1.48226 1.07067
-0.410121 1.48192 1.06177
-0.408033 1.48157 1.05287
-0.406098 1.4812 1.04395
-0.404569 1.48077 1.035
-0.401702 1.48055 1.02619
-0.398361 1.48039 1.01744
-0.39435 1.48035 1.00876
-0.390294 1.48031 1.00008
-0.385925 1.48031 0.991439
-0.381151 1.48038 0.982838
-0.376135 1.48049 0.97426
-0.371049 1.48061 0.965688
-0.364846 1.48089 0.957226
-0.358172 1.48125 0.948807
-0.349449 1.48193 0.940582
-0.341616 1.48247 0.932264
-0.331187 1.4834 0.924187
-0.322238 1.48411 0.915959
-0.311065 1.48516 0.90793
-0.298072 1.48649 0.900057
-0.284185 1.48795 0.892251
-0.265804 1.4901 0.884835
-0.246029 1.49246 0.877518
-0.212616 1.4969 0.871386
-0.284113 1.5308 1.30029
-0.307184 1.52647 1.28777
-0.326877 1.52268 1.27575
-0.339293 1.52003 1.26473
-0.349849 1.51768 1.25398
-0.360088 1.51538 1.2433
-0.369941 1.51314 1.2327
-0.377694 1.51123 1.2224
-0.383867 1.50958 1.21231
-0.388147 1.50822 1.20249
-0.392163 1.5069 1.19271
-0.398998 1.50515 1.1826
-0.402272 1.50395 1.17295
-0.40606 1.50268 1.16326
-0.408672 1.50159 1.15371
-0.410931 1.50055 1.14423
-0.411975 1.49971 1.1349
-0.412295 1.49898 1.12567
-0.413611 1.4981 1.11633
-0.414526 1.49728 1.10704
-0.415028 1.49652 1.09782
-0.415108 1.49583 1.08865
-0.4139 1.49535 1.07963
-0.413101 1.49479 1.07058
-0.412086 1.49428 1.06155
-0.410618 1.49383 1.05258
-0.40869 1.49346 1.04367
-0.406297 1.49316 1.03481
-0.402762 1.49304 1.02608
-0.399663 1.49285 1.0173
-0.396089 1.49273 1.00857
-0.392037 1.49269 0.9999
-0.388535 1.49256 0.99117
-0.383767 1.49263 0.982571
-0.37852 1.49277 0.974019
-0.372796 1.49299 0.965513
-0.366596 1.49328 0.957052
-0.359925 1.49364 0.948634
-0.352786 1.49408 0.940257
-0.344249 1.49473 0.93201
-0.335967 1.49534 0.92373
-0.32488 1.49639 0.915709
-0.315502 1.49717 0.907514
-0.302818 1.49846 0.899617
-0.289225 1.49989 0.891788
-0.272086 1.50186 0.884264
-0.252647 1.50419 0.876922
-0.223273 1.50805 0.870438
-0.276945 1.54492 1.30125
-0.303591 1.53998 1.28825
-0.32497 1.53588 1.276
-0.340096 1.53278 1.26462
-0.351456 1.53028 1.25377
-0.361702 1.52796 1.2431
-0.370754 1.52583 1.2326
-0.377235 1.52411 1.22246
-0.384686 1.52224 1.21221
-0.390598 1.52061 1.20218
-0.394621 1.51929 1.19241
-0.398362 1.51801 1.18268
-0.401804 1.51677 1.17301
-0.40493 1.51559 1.16339
-0.407724 1.51446 1.15383
-0.410171 1.51339 1.14432
-0.412256 1.51238 1.13487
-0.413965 1.51142 1.12547
-0.415286 1.51053 1.11613
-0.417039 1.50957 1.10675
-0.416714 1.50894 1.09762
-0.415956 1.50838 1.08855
-0.415354 1.50779 1.07947
-0.41479 1.5072 1.07039
-0.413779 1.50668 1.06136
-0.412316 1.50623 1.0524
-0.409544 1.50598 1.04358
-0.407095 1.50569 1.03472
-0.40532 1.50529 1.0258
-0.402227 1.50509 1.01703
-0.398659 1.50498 1.0083
-0.394613 1.50493 0.999632
-0.39025 1.50494 0.990993
-0.385486 1.50501 0.982395
-0.380242 1.50515 0.973845
-0.374522 1.50537 0.96534
-0.368326 1.50566 0.95688
-0.362516 1.5059 0.948379
-0.355381 1.50634 0.940004
-0.347784 1.50685 0.931669
-0.337699 1.50774 0.923565
-0.328975 1.50843 0.915321
-0.31724 1.50958 0.907351
-0.30542 1.51075 0.899376
-0.29183 1.51219 0.891549
-0.277373 1.51377 0.883783
-0.254381 1.51667 0.876766
-0.229358 1.51988 0.869896
-0.273344 1.55848 1.30173
-0.304376 1.5528 1.28815
-0.322187 1.54924 1.27637
-0.33821 1.54597 1.26487
-0.348875 1.54356 1.25411
-0.359245 1.5412 1.24341
-0.369254 1.5389 1.23279
-0.378036 1.53679 1.22235
-0.383489 1.53522 1.21236
-0.387909 1.53382 1.20252
-0.396236 1.5318 1.19221
-0.399982 1.5305 1.18248
-0.403429 1.52926 1.17281
-0.407367 1.52794 1.1631
-0.410169 1.5268 1.15353
-0.412624 1.52572 1.14403
-0.414717 1.52469 1.13458
-0.416434 1.52373 1.12518
-0.416942 1.52296 1.11594
-0.41611 1.5224 1.10686
-0.416834 1.5216 1.09761
-0.41714 1.52086 1.08842
-0.417018 1.5202 1.07928
-0.416458 1.5196 1.0702
-0.415453 1.51907 1.06118
-0.413448 1.5187 1.05227
-0.411763 1.51829 1.04333
-0.409615 1.51794 1.03445
-0.406999 1.51767 1.02562
-0.40391 1.51748 1.01685
-0.400346 1.51736 1.00813
-0.396225 1.51732 0.999464
-0.391984 1.51731 0.990814
-0.387463 1.51734 0.982193
-0.383305 1.51732 0.973534
-0.377828 1.5175 0.965009
-0.371874 1.51776 0.956528
-0.365446 1.51809 0.948091
-0.357086 1.51873 0.939838
-0.349491 1.51924 0.931504
-0.34144 1.51983 0.923207
-0.331537 1.5207 0.915079
-0.322379 1.52146 0.90687
-0.310011 1.52272 0.89895
-0.296721 1.52413 0.8911
-0.279084 1.52622 0.883628
-0.259992 1.52853 0.876262
-0.236202 1.53158 0.869286
-0.265368 1.57275 1.3028
-0.301516 1.5662 1.28853
-0.322961 1.56202 1.27627
-0.335453 1.55929 1.26523
-0.350433 1.55617 1.25391
-0.361585 1.55366 1.24311
-0.370825 1.55147 1.23259
-0.376589 1.54983 1.22254
-0.385072 1.54776 1.21216
-0.390284 1.54622 1.20222
-0.394456 1.54485 1.19243
-0.400784 1.54313 1.18238
-0.405034 1.54175 1.17262
-0.408968 1.54041 1.1629
-0.411775 1.53927 1.15334
-0.413432 1.5383 1.14393
-0.415527 1.53727 1.13448
-0.415072 1.53665 1.12534
-0.416603 1.53571 1.11598
-0.417738 1.53483 1.10667
-0.419277 1.53389 1.09733
-0.41959 1.53314 1.08814
-0.419475 1.53247 1.079
-0.417285 1.53213 1.07011
-0.416317 1.53159 1.06108
-0.415094 1.5311 1.05209
-0.413413 1.53067 1.04315
-0.41127 1.53033 1.03427
-0.408658 1.53005 1.02545
-0.405015 1.52995 1.01673
-0.402518 1.52965 1.0079
-0.398722 1.52957 0.999205
-0.394484 1.52956 0.990557
-0.389969 1.52959 0.981937
-0.384975 1.5297 0.973365
-0.379501 1.52988 0.964841
-0.373551 1.53014 0.956361
-0.367126 1.53047 0.947926
-0.36023 1.53088 0.939532
-0.353704 1.53123 0.931097
-0.343966 1.53209 0.922966
-0.335469 1.53275 0.914706
-0.324063 1.53387 0.906712
-0.311698 1.53515 0.898793
-0.29841 1.53656 0.890944
-0.285076 1.53799 0.883083
-0.266337 1.54027 0.875691
-0.242094 1.54341 0.868762
-0.197411 1.54979 0.863597
-0.25742 1.58704 1.30387
-0.298607 1.57961 1.28891
-0.320856 1.57527 1.27655
-0.336975 1.57193 1.26503
-0.347738 1.56947 1.25426
-0.358233 1.56705 1.24354
-0.368389 1.56468 1.2329
-0.378137 1.56239 1.22234
-0.382919 1.5609 1.21243
-0.391843 1.55875 1.20203
-0.39602 1.55736 1.19223
-0.399924 1.55602 1.18249
-0.403537 1.55473 1.1728
-0.407625 1.55336 1.16307
-0.410608 1.55218 1.15348
-0.413253 1.55104 1.14395
-0.415542 1.54997 1.13448
-0.417463 1.54896 1.12506
-0.419001 1.54801 1.1157
-0.420145 1.54712 1.10639
-0.420881 1.54631 1.09714
-0.420397 1.54569 1.08805
-0.419034 1.54521 1.07905
-0.418707 1.54456 1.06995
-0.417938 1.54399 1.0609
-0.416719 1.54349 1.05191
-0.415043 1.54306 1.04298
-0.41268 1.54275 1.03412
-0.41031 1.54243 1.02527
-0.407469 1.5422 1.01647
-0.404153 1.54203 1.00773
-0.400361 1.54195 0.999034
-0.396126 1.54194 0.990387
-0.391614 1.54197 0.981769
-0.386623 1.54207 0.973199
-0.381153 1.54226 0.964675
-0.376026 1.54239 0.956115
-0.369606 1.54272 0.947681
-0.362715 1.54314 0.939289
-0.355358 1.54362 0.930938
-0.345624 1.54449 0.922807
-0.337129 1.54515 0.914549
-0.325726 1.54628 0.906556
-0.316969 1.54699 0.898304
-0.303986 1.54837 0.890432
-0.286735 1.55043 0.882932
-0.267997 1.55273 0.875541
-0.24789 1.55524 0.868246
-0.209289 1.5607 0.86255
-0.243784 1.60229 1.30569
-0.295652 1.59305 1.2893
-0.317921 1.58867 1.27693
-0.334116 1.58529 1.26541
-0.349995 1.58196 1.25396
-0.360499 1.57952 1.24325
-0.370664 1.57714 1.23261
-0.378903 1.57507 1.22224
-0.385211 1.57332 1.21215
-0.389773 1.57186 1.20229
-0.397565 1.56987 1.19204
-0.402241 1.5684 1.18221
-0.405862 1.56709 1.17252
-0.409174 1.56584 1.16288
-0.412163 1.56464 1.15329
-0.414812 1.5635 1.14377
-0.417107 1.56242 1.13429
-0.419032 1.5614 1.12488
-0.420576 1.56044 1.11551
-0.421724 1.55955 1.10621
-0.421675 1.55885 1.09705
-0.4213 1.55821 1.08794
-0.421414 1.55749 1.07878
-0.421094 1.55683 1.06968
-0.420332 1.55626 1.06064
-0.418325 1.55588 1.05174
-0.416182 1.55553 1.04285
-0.414282 1.55513 1.03395
-0.411916 1.55482 1.0251
-0.409079 1.55458 1.0163
-0.405768 1.55441 1.00756
-0.401979 1.55433 0.998866
-0.397746 1.55431 0.99022
-0.394197 1.55419 0.981505
-0.389451 1.55426 0.972912
-0.384226 1.5544 0.964367
-0.378522 1.55463 0.955868
-0.372341 1.55493 0.947412
-0.364346 1.55552 0.939131
-0.356991 1.55601 0.93078
-0.349176 1.55657 0.922468
-0.33958 1.55742 0.914317
-0.330646 1.55817 0.906095
-0.318603 1.55941 0.898153
-0.305622 1.5608 0.890282
-0.291744 1.56234 0.882477
-0.273367 1.56459 0.875058
-0.254402 1.56695 0.867666
-0.220082 1.57176 0.861599
-0.292654 1.60649 1.2897
-0.318656 1.60146 1.27684
-0.335589 1.59793 1.26521
-0.347176 1.59529 1.25433
-0.361245 1.59224 1.24315
-0.367348 1.59051 1.23304
-0.377257 1.58815 1.22245
-0.386716 1.58587 1.21196
-0.391282 1.58439 1.2021
-0.395603 1.58296 1.19229
-0.403004 1.58102 1.18211
-0.407387 1.57958 1.17233
-0.411463 1.5782 1.1626
-0.414459 1.57699 1.15302
-0.417115 1.57584 1.14349
-0.419417 1.57474 1.13402
-0.420582 1.57384 1.12469
-0.421355 1.573 1.11542
-0.421361 1.57229 1.10625
-0.422316 1.57142 1.09698
-0.422857 1.57062 1.08777
-0.422975 1.56989 1.07861
-0.42266 1.56923 1.06951
-0.420175 1.56893 1.06065
-0.419194 1.56839 1.05164
-0.417759 1.56791 1.04268
-0.415863 1.56752 1.03378
-0.414287 1.56707 1.02484
-0.410772 1.56694 1.01612
-0.407704 1.56673 1.00735
-0.404161 1.56661 0.998639
-0.400139 1.56656 0.989973
-0.395789 1.56656 0.981342
-0.391047 1.56663 0.972751
-0.385825 1.56678 0.964207
-0.380124 1.56701 0.955708
-0.373947 1.56731 0.947254
-0.367296 1.56769 0.938843
-0.360975 1.56801 0.930395
-0.351591 1.56884 0.922237
-0.343326 1.56948 0.913963
-0.332257 1.57057 0.905944
-0.320215 1.57183 0.898003
-0.31022 1.57274 0.88986
-0.294161 1.57465 0.882257
-0.27943 1.57633 0.874513
-0.25601 1.57942 0.867523
-0.226178 1.58355 0.861062
-0.289617 1.61996 1.29011
-0.316365 1.61476 1.27714
-0.332632 1.61131 1.2656
-0.348627 1.60791 1.25414
-0.359246 1.60541 1.24341
-0.369549 1.60297 1.23275
-0.379468 1.60059 1.22217
-0.384377 1.59904 1.21225
-0.39351 1.5968 1.20182
-0.397838 1.59535 1.19201
-0.401901 1.59396 1.18225
-0.405683 1.5926 1.17254
-0.409165 1.5913 1.16288
-0.412332 1.59006 1.15327
-0.415166 1.58887 1.14372
-0.417654 1.58774 1.13423
-0.419779 1.58666 1.12479
-0.421528 1.58566 1.1154
-0.422889 1.58471 1.10608
-0.423848 1.58384 1.09681
-0.424394 1.58303 1.08759
-0.424516 1.5823 1.07843
-0.423018 1.58183 1.06947
-0.42249 1.5812 1.0604
-0.421516 1.58065 1.05139
-0.420087 1.58017 1.04243
-0.418198 1.57977 1.03353
-0.41492 1.5796 1.02478
-0.41233 1.57932 1.01596
-0.409266 1.57911 1.00719
-0.405726 1.57898 0.998476
-0.401708 1.57893 0.989812
-0.397361 1.57894 0.981182
-0.392622 1.57901 0.972591
-0.388185 1.57903 0.96397
-0.382489 1.57925 0.955473
-0.376316 1.57956 0.947021
-0.36967 1.57994 0.938612
-0.362555 1.5804 0.930243
-0.353175 1.58123 0.922085
-0.344912 1.58187 0.913813
-0.336202 1.58259 0.905575
-0.32527 1.58367 0.897534
-0.312602 1.58504 0.889641
-0.299022 1.58655 0.881815
-0.281016 1.58878 0.87437
-0.261578 1.59125 0.867027
-0.232974 1.59521 0.860463
-0.285846 1.63355 1.29061
-0.31329 1.62819 1.27754
-0.334057 1.62396 1.26541
-0.345702 1.62127 1.25452
-0.360683 1.61801 1.24323
-0.370993 1.61555 1.23257
-0.376914 1.61382 1.2225
-0.386552 1.61147 1.21198
-0.39125 1.60995 1.2021
-0.400029 1.60775 1.19174
-0.404099 1.60634 1.18198
-0.407888 1.60498 1.17227
-0.411377 1.60366 1.16261
-0.414551 1.60241 1.15301
-0.417392 1.60121 1.14346
-0.419887 1.60006 1.13396
-0.422019 1.59898 1.12452
-0.423775 1.59797 1.11514
-0.425142 1.59702 1.10582
-0.426108 1.59613 1.09655
-0.425155 1.59557 1.08751
-0.424617 1.59494 1.07842
-0.424531 1.59423 1.0693
-0.424008 1.5936 1.06023
-0.423038 1.59304 1.05122
-0.421614 1.59256 1.04226
-0.41857 1.59235 1.03349
-0.416453 1.59198 1.02461
-0.413867 1.5917 1.01579
-0.410807 1.59149 1.00703
-0.408036 1.59123 0.998235
-0.404023 1.59118 0.989573
-0.399679 1.59119 0.980945
-0.394946 1.59126 0.972356
-0.389732 1.5914 0.963815
-0.38404 1.59163 0.955319
-0.37787 1.59194 0.946868
-0.371227 1.59232 0.93846
-0.364114 1.59278 0.930092
-0.356537 1.59332 0.921764
-0.349277 1.59381 0.9134
-0.338545 1.59487 0.905355
-0.32683 1.59609 0.89739
-0.314164 1.59746 0.889498
-0.300585 1.59899 0.881673
-0.286136 1.60065 0.87391
-0.267819 1.60295 0.866472
-0.238886 1.607 0.859943
-0.282752 1.64704 1.29102
-0.313986 1.641 1.27745
-0.331695 1.63725 1.26572
-0.347103 1.6339 1.25434
-0.357828 1.63134 1.24359
-0.368261 1.62883 1.23292
-0.378334 1.62639 1.22232
-0.387267 1.62414 1.21189
-0.39268 1.62249 1.20192
-0.397146 1.621 1.19209
-0.40554 1.61884 1.1818
-0.409333 1.61747 1.17209
-0.412827 1.61615 1.16244
-0.416005 1.61488 1.15283
-0.418852 1.61367 1.14328
-0.42135 1.61252 1.13379
-0.423487 1.61143 1.12435
-0.425248 1.6104 1.11497
-0.42662 1.60944 1.10564
-0.424992 1.60899 1.09667
-0.425758 1.60813 1.08744
-0.426106 1.60735 1.07826
-0.426025 1.60664 1.06913
-0.425506 1.606 1.06006
-0.423792 1.60556 1.05114
-0.422473 1.60506 1.04217
-0.420826 1.60461 1.03324
-0.418715 1.60424 1.02437
-0.416134 1.60395 1.01555
-0.413081 1.60374 1.00679
-0.409218 1.60366 0.998112
-0.405448 1.60357 0.989426
-0.401226 1.60356 0.980787
-0.396737 1.60359 0.972175
-0.391766 1.60369 0.963611
-0.386316 1.60388 0.955093
-0.380387 1.60415 0.946621
-0.374743 1.60437 0.938117
-0.366414 1.60504 0.92987
-0.358841 1.60558 0.921544
-0.35081 1.6062 0.913255
-0.340081 1.60727 0.905211
-0.330938 1.60807 0.897008
-0.318586 1.6094 0.889092
-0.306071 1.61076 0.881174
-0.288444 1.61297 0.873702
-0.269353 1.61542 0.866335
-0.244707 1.61879 0.85943
-0.278954 1.66066 1.29152
-0.311522 1.65434 1.27778
-0.332381 1.65003 1.26563
-0.347797 1.64664 1.25425
-0.359904 1.64383 1.24333
-0.370346 1.6413 1.23265
-0.380427 1.63884 1.22205
-0.385457 1.63724 1.21211
-0.394789 1.6349 1.20166
-0.399262 1.6334 1.19183
-0.40348 1.63194 1.18205
-0.410049 1.63008 1.172
-0.414258 1.62863 1.16226
-0.418151 1.62723 1.15257
-0.421004 1.62601 1.14303
-0.423509 1.62485 1.13353
-0.424936 1.62387 1.12418
-0.425977 1.62296 1.11489
-0.425994 1.62222 1.10572
-0.427174 1.62129 1.09642
-0.427948 1.62042 1.08719
-0.428302 1.61963 1.07801
-0.428228 1.61891 1.06889
-0.426247 1.61852 1.05998
-0.425132 1.61798 1.05099
-0.423947 1.61745 1.04201
-0.422304 1.61699 1.03308
-0.420197 1.61662 1.02421
-0.417621 1.61633 1.0154
-0.413998 1.61621 1.00669
-0.41071 1.61604 0.997957
-0.406944 1.61595 0.989272
-0.402724 1.61593 0.980634
-0.398715 1.61588 0.971974
-0.394016 1.61594 0.963385
-0.38857 1.61613 0.954869
-0.382646 1.6164 0.946398
-0.376246 1.61675 0.937971
-0.369374 1.61718 0.929585
-0.360351 1.61797 0.9214
-0.352322 1.6186 0.913111
-0.343841 1.61929 0.904859
-0.333205 1.62035 0.896798
-0.320857 1.6217 0.888883
-0.307581 1.62319 0.881037
-0.29342 1.62484 0.873254
-0.274684 1.62725 0.86586
-0.251183 1.63045 0.858859
-0.20167 1.638 0.85409
-0.27135 1.67494 1.29253
-0.308317 1.66782 1.2782
-0.329903 1.66334 1.26596
-0.346097 1.6598 1.25447
-0.360586 1.65656 1.24324
-0.371031 1.65401 1.23256
-0.377021 1.65223 1.22248
-0.386832 1.64979 1.21194
-0.391659 1.64821 1.20205
-0.400648 1.64592 1.19166
-0.40487 1.64445 1.18188
-0.40882 1.64303 1.17215
-0.412478 1.64166 1.16248
-0.415829 1.64034 1.15285
-0.418856 1.63908 1.14328
-0.421544 1.63788 1.13377
-0.423876 1.63674 1.12431
-0.425839 1.63566 1.1149
-0.42742 1.63465 1.10555
-0.428605 1.63371 1.09626
-0.429382 1.63284 1.08702
-0.429741 1.63204 1.07785
-0.427599 1.63167 1.06896
-0.427312 1.63098 1.05986
-0.426582 1.63037 1.05083
-0.425401 1.62984 1.04185
-0.423762 1.62938 1.03293
-0.42093 1.62913 1.02413
-0.418998 1.62872 1.01525
-0.416192 1.62847 1.00646
-0.41291 1.62829 0.997728
-0.409149 1.6282 0.989044
-0.404932 1.62818 0.980408
-0.400451 1.62821 0.971799
-0.395489 1.62832 0.963237
-0.390047 1.62851 0.954723
-0.384126 1.62878 0.946253
-0.377729 1.62913 0.937826
-0.370859 1.62957 0.929441
-0.363522 1.63008 0.921096
-0.35455 1.63086 0.912901
-0.346073 1.63157 0.90465
-0.33469 1.63276 0.89666
-0.325122 1.63365 0.888491
-0.309071 1.63562 0.880902
-0.29491 1.63728 0.87312
-0.276914 1.63959 0.865662
-0.252665 1.64294 0.858729
-0.212671 1.64895 0.853131
-0.263114 1.68935 1.29363
-0.308975 1.68063 1.27811
-0.330564 1.67612 1.26587
-0.346762 1.67255 1.25438
-0.358252 1.6698 1.24354
-0.368815 1.66721 1.23285
-0.37904 1.66469 1.22223
-0.38886 1.66223 1.21169
-0.393693 1.66064 1.20179
-0.402015 1.65845 1.19149
-0.406919 1.65685 1.18163
-0.410875 1.65541 1.1719
-0.414541 1.65403 1.16223
-0.417898 1.6527 1.15261
-0.420932 1.65143 1.14304
-0.423626 1.65022 1.13352
-0.425965 1.64907 1.12406
-0.427934 1.64798 1.11466
-0.429521 1.64696 1.10531
-0.430713 1.64601 1.09602
-0.430797 1.64525 1.08686
-0.42957 1.64472 1.07787
-0.429723 1.64395 1.06872
-0.429442 1.64326 1.05963
-0.428718 1.64264 1.05059
-0.427543 1.6421 1.04162
-0.424627 1.64186 1.03283
-0.422763 1.64144 1.02394
-0.420432 1.6411 1.0151
-0.417629 1.64084 1.00631
-0.41435 1.64067 0.997578
-0.410593 1.64057 0.988895
-0.406379 1.64055 0.98026
-0.401901 1.64058 0.971652
-0.396942 1.64069 0.963092
-0.391503 1.64089 0.954578
-0.386306 1.64104 0.946038
-0.379913 1.64139 0.937613
-0.373048 1.64183 0.92923
-0.365715 1.64234 0.920887
-0.357919 1.64293 0.912582
-0.347535 1.64397 0.904513
-0.338616 1.64475 0.896296
-0.326588 1.64606 0.888357
-0.314346 1.64741 0.880422
-0.300478 1.64903 0.872619
-0.282106 1.65141 0.8652
-0.258265 1.65473 0.858235
-0.224149 1.65978 0.852131
-0.258702 1.70312 1.29421
-0.306349 1.69402 1.27846
-0.327973 1.68947 1.26621
-0.344247 1.68586 1.25471
-0.360211 1.6823 1.24329
-0.370782 1.67969 1.2326
-0.381016 1.67715 1.22198
-0.385505 1.6756 1.21211
-0.395024 1.67318 1.20163
-0.399635 1.67162 1.19178
-0.407593 1.66947 1.18155
-0.412221 1.66791 1.17174
-0.415891 1.66652 1.16206
-0.419253 1.66518 1.15244
-0.422291 1.6639 1.14287
-0.424989 1.66267 1.13336
-0.427332 1.66151 1.1239
-0.429306 1.66042 1.1145
-0.430897 1.65939 1.10515
-0.431405 1.65855 1.09594
-0.430376 1.65798 1.08691
-0.430957 1.65713 1.07771
-0.431114 1.65636 1.06856
-0.430837 1.65566 1.05947
-0.430118 1.65504 1.05044
-0.427431 1.65475 1.04163
-0.426032 1.65425 1.03268
-0.424172 1.65383 1.02379
-0.421845 1.65348 1.01495
-0.419045 1.65322 1.00616
-0.41577 1.65304 0.99743
-0.411798 1.65298 0.988771
-0.408509 1.65281 0.980043
-0.404177 1.65281 0.971422
-0.399464 1.65288 0.962839
-0.394269 1.65303 0.954303
-0.388594 1.65327 0.945813
-0.382441 1.65358 0.937367
-0.374481 1.65421 0.929092
-0.36715 1.65473 0.92075
-0.359357 1.65532 0.912446
-0.348975 1.65636 0.904378
-0.340772 1.65703 0.896096
-0.328747 1.65835 0.888158
-0.315782 1.65983 0.880292
-0.301915 1.66147 0.87249
-0.283545 1.66387 0.865071
-0.264479 1.66639 0.857688
-0.230135 1.67152 0.851609
-0.303028 1.70753 1.2789
-0.329243 1.70214 1.26604
-0.346154 1.69839 1.25446
-0.356442 1.69581 1.24377
-0.371428 1.6924 1.23251
-0.377479 1.69057 1.22243
-0.387457 1.68805 1.21186
-0.396986 1.68561 1.20138
-0.401602 1.68403 1.19154
-0.405973 1.6825 1.18175
-0.412887 1.68053 1.17166
-0.41788 1.67889 1.16182
-0.421248 1.67754 1.1522
-0.424292 1.67625 1.14263
-0.426997 1.67501 1.13312
-0.429346 1.67384 1.12366
-0.430658 1.67286 1.11434
-0.431578 1.67194 1.10507
-0.431412 1.67121 1.09594
-0.432413 1.67028 1.08668
-0.433 1.66943 1.07748
-0.433163 1.66864 1.06833
-0.432892 1.66794 1.05925
-0.430809 1.66755 1.05037
-0.429495 1.66703 1.0414
-0.428102 1.66652 1.03246
-0.426247 1.66609 1.02357
-0.423926 1.66574 1.01473
-0.420441 1.6656 1.00602
-0.417401 1.66538 0.997261
-0.413892 1.66524 0.988555
-0.409904 1.66518 0.9799
-0.405574 1.66518 0.97128
-0.400863 1.66525 0.962698
-0.395672 1.66541 0.954164
-0.39 1.66564 0.945675
-0.38385 1.66596 0.93723
-0.377225 1.66636 0.928827
-0.369264 1.66699 0.920548
-0.361474 1.66759 0.912245
-0.353228 1.66827 0.903979
-0.342182 1.66944 0.895965
-0.332833 1.6703 0.887783
-0.320178 1.67174 0.879892
-0.303332 1.6739 0.872363
-0.289308 1.67558 0.864558
-0.265887 1.67887 0.857564
-0.236037 1.68326 0.851094
-0.303647 1.72036 1.27881
-0.326522 1.71552 1.2664
-0.342252 1.71195 1.25497
-0.358327 1.70832 1.24353
-0.36901 1.70565 1.23282
-0.37938 1.70304 1.22218
-0.389367 1.7005 1.21162
-0.39369 1.69896 1.2018
-0.40289 1.69656 1.19138
-0.407265 1.69502 1.18159
-0.411376 1.69353 1.17184
-0.415205 1.69208 1.16215
-0.421903 1.69013 1.15212
-0.42495 1.68883 1.14256
-0.427656 1.68759 1.13304
-0.427365 1.68687 1.1239
-0.429538 1.68573 1.11447
-0.431334 1.68465 1.1051
-0.432741 1.68364 1.09579
-0.433745 1.6827 1.08653
-0.434337 1.68184 1.07733
-0.434504 1.68105 1.06818
-0.432266 1.68068 1.05932
-0.431779 1.68001 1.05026
-0.430845 1.67942 1.04126
-0.429456 1.6789 1.03231
-0.427605 1.67847 1.02342
-0.424609 1.67824 1.01466
-0.421796 1.67798 1.00587
-0.418768 1.67775 0.997118
-0.415263 1.67761 0.988414
-0.411278 1.67756 0.97976
-0.40695 1.67756 0.971141
-0.402242 1.67763 0.96256
-0.397737 1.67766 0.953959
-0.392069 1.6779 0.945471
-0.385923 1.67822 0.937027
