ply
format ascii 1.0
comment Created by Open3D
element vertex 1939
property double x
property double y
property double z
end_header
0.681053 2.25172 3.28507
0.724916 2.25986 3.28636
0.56475 2.30619 3.94209
0.544838 2.30067 3.92197
0.530472 2.29637 3.90396
0.520258 2.29298 3.88754
0.510977 2.2898 3.87149
0.497805 2.28577 3.85406
0.493459 2.28367 3.8399
0.489304 2.28161 3.82583
0.481515 2.27877 3.81046
0.477921 2.27683 3.79664
0.474577 2.27496 3.78294
0.471498 2.27314 3.76935
0.4687 2.27139 3.75588
0.469338 2.27038 3.74366
0.466982 2.26873 3.73038
0.464941 2.26714 3.71724
0.463953 2.26579 3.70448
0.462585 2.26435 3.6916
0.463933 2.2635 3.6797
0.463091 2.26218 3.66704
0.464696 2.26139 3.65524
0.464403 2.2602 3.6428
0.465239 2.25924 3.63076
0.46572 2.25821 3.6186
0.46798 2.25757 3.60707
0.470333 2.25694 3.59558
0.471604 2.25609 3.58373
0.474051 2.25548 3.57228
0.476214 2.25482 3.56075
0.479073 2.25431 3.54946
0.482112 2.25384 3.53824
0.485604 2.25346 3.52717
0.488738 2.25301 3.51599
0.492293 2.25265 3.50495
0.495946 2.25231 3.49395
0.49992 2.25204 3.48306
0.504683 2.25193 3.47243
0.509292 2.2518 3.46176
0.514323 2.25176 3.45122
0.519614 2.25177 3.44077
0.525009 2.2518 3.43035
0.530877 2.25194 3.42009
0.537978 2.25234 3.41022
0.544669 2.25265 3.40022
0.55176 2.25304 3.39034
0.558073 2.25327 3.38021
0.567953 2.25426 3.37122
0.574654 2.25458 3.3612
0.58567 2.25581 3.35255
0.595498 2.25678 3.3435
0.60785 2.2583 3.33525
0.618537 2.25945 3.32645
0.632966 2.2614 3.31881
0.650926 2.2641 3.31224
0.670824 2.26721 3.30625
0.696785 2.27161 3.3021
0.561992 2.32245 3.95379
0.537495 2.31588 3.93192
0.527119 2.31243 3.91538
0.513144 2.30819 3.89754
0.503993 2.30501 3.88153
0.49519 2.30191 3.86568
0.490866 2.2998 3.85151
0.482772 2.29686 3.83599
0.478965 2.29487 3.82206
0.475392 2.29293 3.80823
0.472069 2.29104 3.79452
0.469011 2.28922 3.78093
0.466234 2.28745 3.76745
0.463751 2.28576 3.7541
0.461577 2.28413 3.74088
0.462536 2.28319 3.7288
0.460843 2.28167 3.71578
0.459491 2.28023 3.7029
0.459212 2.27902 3.69041
0.458576 2.27773 3.67782
0.460298 2.27696 3.66606
0.460218 2.2758 3.65368
0.462212 2.27509 3.64203
0.463449 2.27422 3.63013
0.464345 2.27328 3.61813
0.466821 2.27267 3.60667
0.46907 2.27202 3.59515
0.471089 2.27132 3.58355
0.473955 2.27081 3.57225
0.476917 2.27031 3.56099
0.479437 2.26972 3.54958
0.482701 2.2693 3.53844
0.486626 2.26901 3.52751
0.4902 2.26865 3.51648
0.493982 2.26834 3.50551
0.498651 2.26821 3.49485
0.503069 2.26804 3.4841
0.507911 2.26795 3.4735
0.513108 2.26794 3.46301
0.51841 2.26796 3.45256
0.52409 2.26805 3.44223
0.530185 2.26824 3.43204
0.536689 2.26851 3.42198
0.544413 2.26904 3.4123
0.550638 2.26926 3.40214
0.558144 2.26974 3.39239
0.568329 2.27081 3.38349
0.575134 2.27114 3.37351
0.586441 2.27244 3.36495
0.596454 2.27347 3.35596
0.609914 2.27523 3.34805
0.623272 2.27696 3.34009
0.634597 2.27826 3.33148
0.653699 2.28123 3.32528
0.673854 2.28441 3.31937
0.717676 2.29266 3.32077
0.59297 2.34738 3.99095
0.549218 2.3365 3.96173
0.534731 2.3321 3.94358
0.515339 2.32663 3.92365
0.50602 2.32339 3.90753
0.497006 2.32022 3.89155
0.491871 2.31791 3.87705
0.484159 2.31503 3.86162
0.479488 2.31283 3.84733
0.475699 2.31082 3.8334
0.469167 2.30821 3.81848
0.466002 2.30635 3.80482
0.463109 2.30455 3.79128
0.460504 2.30281 3.77786
0.4582 2.30114 3.76456
0.456211 2.29954 3.7514
0.457276 2.29862 3.73935
0.455777 2.29713 3.72639
0.457082 2.29626 3.71445
0.4561 2.29489 3.7017
0.456195 2.29376 3.68935
0.45595 2.29255 3.67689
0.457876 2.29182 3.66521
0.4582 2.29074 3.65297
0.459647 2.28991 3.64114
0.46205 2.28928 3.62965
0.463367 2.28842 3.61779
0.466062 2.28786 3.60641
0.468733 2.2873 3.59503
0.470981 2.28665 3.58351
0.474069 2.28618 3.57229
0.477255 2.28573 3.56111
0.480213 2.28523 3.54985
0.48436 2.28499 3.539
0.488063 2.28465 3.528
0.492079 2.28439 3.51711
0.496865 2.28429 3.50648
0.501516 2.28416 3.4958
0.506589 2.28413 3.48527
0.511902 2.28414 3.47482
0.51732 2.28418 3.4644
0.523229 2.28433 3.45414
0.529549 2.28456 3.44402
0.535482 2.28471 3.43377
0.542411 2.28508 3.42383
0.550545 2.2857 3.41429
0.558265 2.28624 3.4046
0.567182 2.28704 3.3953
0.575661 2.28774 3.38584
0.588075 2.28929 3.37763
0.597449 2.29018 3.36844
0.611164 2.292 3.36062
0.625603 2.29399 3.353
0.643592 2.29673 3.34648
0.663496 2.29989 3.34053
0.689435 2.30434 3.33643
0.570897 2.35941 3.99541
0.541729 2.3517 3.97164
0.522106 2.34613 3.95155
0.508086 2.34182 3.93361
0.502631 2.33941 3.91891
0.493636 2.33623 3.90292
0.485009 2.33312 3.88711
0.480825 2.33101 3.87297
0.472937 2.32807 3.85748
0.469291 2.32609 3.84359
0.465886 2.32415 3.82981
0.462737 2.32228 3.81614
0.459862 2.32047 3.80259
0.457273 2.31872 3.78916
0.455667 2.31719 3.77611
0.453698 2.31559 3.76294
0.452057 2.31406 3.74991
0.453305 2.31317 3.73793
0.452171 2.31175 3.7251
0.452094 2.31057 3.71267
0.451686 2.30932 3.70014
0.453546 2.30857 3.68842
0.4537 2.30744 3.6761
0.455834 2.30675 3.66449
0.456569 2.30575 3.6524
0.458427 2.305 3.64072
0.461047 2.30443 3.6293
0.462791 2.30365 3.61759
0.465706 2.30314 3.60629
0.468718 2.30265 3.59503
0.471282 2.30206 3.58362
0.474595 2.30163 3.57247
0.478538 2.30135 3.56154
0.481405 2.30083 3.55025
0.485883 2.30066 3.53951
0.489916 2.30039 3.52862
0.494372 2.30022 3.51788
0.499379 2.30017 3.50732
0.504469 2.30014 3.49679
0.509791 2.30016 3.48633
0.516289 2.30043 3.47627
0.522425 2.30063 3.46608
0.528267 2.30076 3.4558
0.535015 2.30109 3.44581
0.542164 2.3015 3.43594
0.550503 2.30218 3.42646
0.558436 2.30277 3.41684
0.56755 2.30361 3.4076
0.578891 2.30494 3.39906
0.588919 2.30598 3.39009
0.601575 2.30759 3.38194
0.612448 2.30881 3.37321
0.627123 2.31086 3.36567
0.646229 2.31387 3.35951
0.666391 2.3171 3.35365
0.705713 2.32449 3.35376
0.563317 2.37464 4.00532
0.538236 2.3678 3.98306
0.514706 2.36131 3.96146
0.505271 2.358 3.94522
0.495469 2.3546 3.92888
0.486618 2.35142 3.91293
0.478153 2.34833 3.89716
0.474096 2.34623 3.88306
0.466402 2.34332 3.86764
0.462902 2.34135 3.85379
0.459651 2.33944 3.84005
0.456665 2.33759 3.82643
0.453957 2.3358 3.81294
0.454687 2.33478 3.80071
0.45242 2.3331 3.7874
0.450467 2.33148 3.77423
0.449521 2.33009 3.76144
0.448238 2.32863 3.74854
0.449675 2.32778 3.73663
0.448916 2.32644 3.72394
0.449218 2.32533 3.71165
0.449205 2.32416 3.69926
0.451271 2.32345 3.68761
0.451832 2.32241 3.67544
0.454179 2.32176 3.66391
0.456045 2.32101 3.65222
0.457606 2.32019 3.64043
0.460446 2.31965 3.62909
0.462654 2.31898 3.61754
0.465681 2.31849 3.60628
0.468994 2.31806 3.59512
0.472327 2.31764 3.58398
0.475535 2.31719 3.57279
0.479912 2.31699 3.56201
0.483762 2.31669 3.55105
0.488028 2.31647 3.54023
0.492941 2.3164 3.52964
0.497841 2.31632 3.51904
0.50307 2.31632 3.50855
0.5086 2.31638 3.49816
0.514142 2.31645 3.48778
0.520295 2.31665 3.47759
0.527632 2.31711 3.4678
0.534602 2.31749 3.45788
0.541969 2.31796 3.44808
0.550513 2.31868 3.43866
0.558655 2.31932 3.42911
0.567964 2.32021 3.41993
0.579592 2.32161 3.41148
0.589803 2.3227 3.40257
0.600355 2.32386 3.39375
0.617171 2.32639 3.38692
0.632297 2.32855 3.37952
0.648053 2.33084 3.3723
0.681819 2.33708 3.37074
0.545755 2.38761 4.01143
0.526051 2.38194 3.99119
0.511824 2.37751 3.97308
0.501798 2.37403 3.9566
0.488302 2.36978 3.93885
0.479601 2.36661 3.92294
0.471306 2.36354 3.90722
0.467379 2.36145 3.89316
0.463668 2.35942 3.8792
0.46019 2.35744 3.86534
0.45696 2.35552 3.8516
0.453994 2.35366 3.83797
0.451307 2.35186 3.82447
0.448914 2.35013 3.8111
0.446829 2.34848 3.79785
0.445729 2.34704 3.78498
0.4443 2.34554 3.772
0.443216 2.34411 3.75917
0.444766 2.34328 3.74729
0.444214 2.34197 3.73468
0.446024 2.3412 3.72291
0.446714 2.34017 3.71076
0.447104 2.33908 3.69852
0.44938 2.33841 3.68695
0.450355 2.33746 3.67493
0.452435 2.33675 3.6633
0.4552 2.33619 3.65193
0.457189 2.33546 3.64029
0.460251 2.33497 3.62903
0.463409 2.33451 3.6178
0.466223 2.33396 3.60647
0.469684 2.33357 3.59536
0.473856 2.33333 3.5845
0.477626 2.333 3.5735
0.481702 2.33274 3.56262
0.486521 2.33264 3.55198
0.491231 2.33252 3.54131
0.496363 2.3325 3.53079
0.501708 2.33252 3.52033
0.507157 2.33257 3.50992
0.513124 2.33273 3.49967
0.519503 2.33298 3.48955
0.527053 2.33349 3.47983
0.534243 2.33392 3.46997
0.541826 2.33444 3.46025
0.550571 2.33521 3.45089
0.559701 2.33607 3.44166
0.568424 2.33684 3.43228
0.57829 2.33786 3.42327
0.590724 2.33944 3.41507
0.60145 2.34065 3.40631
0.619384 2.34345 3.39984
0.634733 2.34567 3.39252
0.658662 2.34978 3.3879
0.684036 2.35421 3.3837
0.542766 2.40386 4.02308
0.518483 2.3971 4.00106
0.508298 2.39356 3.98446
0.490042 2.38819 3.96485
0.481132 2.38495 3.94881
0.476757 2.38274 3.93451
0.468484 2.37965 3.91878
0.46458 2.37756 3.90471
0.457108 2.37465 3.88934
0.453779 2.3727 3.87553
0.450707 2.3708 3.86184
0.447907 2.36896 3.84826
0.445392 2.36719 3.83482
0.443177 2.36549 3.8215
0.444177 2.36452 3.80937
0.442432 2.36293 3.79625
0.441678 2.36157 3.78351
0.440614 2.36014 3.77067
0.439905 2.35878 3.75798
0.441651 2.35799 3.74618
0.441488 2.35676 3.7337
0.442383 2.35578 3.72162
0.444589 2.35509 3.71001
0.445389 2.35408 3.69791
0.447878 2.35346 3.68642
0.449274 2.35259 3.67454
0.451773 2.35197 3.66307
0.454758 2.35146 3.65177
0.457134 2.35081 3.64027
0.460307 2.35035 3.62904
0.463849 2.34996 3.61795
0.4671 2.34952 3.60677
0.470787 2.34917 3.59574
0.475298 2.349 3.58499
0.479391 2.34874 3.57411
0.483907 2.34858 3.56337
0.488946 2.34853 3.5528
0.494091 2.34851 3.54228
0.499449 2.34853 3.53183
0.50597 2.34882 3.52176
0.512163 2.34903 3.51159
0.518766 2.34933 3.50155
0.524843 2.34952 3.49133
0.533936 2.35038 3.4821
0.540411 2.35065 3.47201
0.550679 2.35177 3.46315
0.560003 2.35268 3.45398
0.568927 2.35349 3.44467
0.578978 2.35456 3.43571
0.59246 2.35639 3.42785
0.605903 2.35821 3.41996
0.620819 2.36035 3.41253
0.636383 2.36264 3.40528
0.664746 2.36776 3.40209
0.719219 2.37868 3.40715
0.573272 2.42905 4.06039
0.529832 2.41783 4.03092
0.515489 2.41331 4.01267
0.496298 2.40768 3.99262
0.487109 2.40435 3.97642
0.478222 2.40109 3.96038
0.469701 2.39792 3.94451
0.465011 2.39563 3.9301
0.457834 2.39277 3.9148
0.454287 2.39074 3.90087
0.45098 2.38877 3.88706
0.447929 2.38687 3.87336
0.445149 2.38502 3.85978
0.442655 2.38325 3.84633
0.440461 2.38154 3.83301
0.438581 2.37991 3.81981
0.439757 2.37897 3.80776
0.438364 2.37745 3.79477
0.437315 2.37601 3.78193
0.437279 2.3748 3.76947
0.436954 2.37353 3.75691
0.438902 2.37278 3.74519
0.439805 2.37178 3.7331
0.440432 2.37073 3.72092
0.44285 2.37009 3.70939
0.444067 2.36917 3.69744
0.44637 2.3685 3.68588
0.44928 2.36797 3.67455
0.451517 2.36729 3.66298
0.454691 2.36681 3.65175
0.45803 2.36638 3.64058
0.461093 2.36589 3.62932
0.464702 2.36552 3.61825
0.469103 2.36532 3.60746
0.473022 2.36502 3.59651
0.477347 2.36482 3.58569
0.482293 2.36475 3.5751
0.487252 2.36468 3.5645
0.492513 2.36469 3.55401
0.498102 2.36476 3.54363
0.504106 2.36493 3.53339
0.509886 2.36505 3.52308
0.517247 2.36553 3.51329
0.524274 2.36593 3.50338
0.532446 2.36658 3.49385
0.540264 2.36716 3.48419
0.550833 2.36835 3.47544
0.557796 2.36874 3.46549
0.570233 2.37035 3.45733
0.579706 2.37129 3.44818
0.593444 2.37319 3.44041
0.607907 2.37525 3.43285
0.625968 2.37811 3.42643
0.646662 2.38156 3.42083
0.671771 2.38599 3.41661
0.551059 2.44093 4.06469
0.522119 2.43299 4.04075
0.507279 2.42832 4.02229
0.488819 2.42282 4.00249
0.479753 2.4195 3.98633
0.474679 2.41709 3.97171
0.466177 2.4139 3.95583
0.462114 2.41174 3.94165
0.454346 2.40873 3.9261
0.450816 2.40669 3.91217
0.447527 2.40471 3.89835
0.441661 2.40214 3.88359
0.439049 2.40032 3.87007
0.43673 2.39857 3.85667
0.434718 2.3969 3.84341
0.435842 2.39594 3.83131
0.434308 2.39438 3.81825
0.433111 2.39289 3.80533
0.432906 2.39164 3.79279
0.432422 2.39032 3.78016
0.434305 2.38954 3.76839
0.434374 2.38835 3.75599
0.436527 2.38764 3.74434
0.43783 2.38673 3.73239
0.438871 2.38577 3.72036
0.441504 2.38517 3.70891
0.443143 2.38434 3.69711
0.445868 2.38377 3.68571
0.449 2.38328 3.67445
0.451543 2.38266 3.66299
0.454863 2.38222 3.65181
0.458633 2.38189 3.64079
0.462135 2.38149 3.62968
0.46597 2.38116 3.61869
0.470607 2.38103 3.60798
0.47495 2.38082 3.59717
0.479716 2.38071 3.5865
0.484881 2.38069 3.57598
0.490995 2.38089 3.56577
0.496812 2.38102 3.55547
0.502502 2.38112 3.54512
0.508938 2.38138 3.53502
0.516511 2.38191 3.5253
0.523759 2.38236 3.51546
0.531399 2.3829 3.50575
0.540167 2.3837 3.49641
0.549319 2.38458 3.48719
0.558099 2.38537 3.47783
0.570809 2.38706 3.46976
0.583549 2.38874 3.46168
0.594461 2.39002 3.45299
0.609161 2.39214 3.44551
0.628279 2.39526 3.43944
0.648456 2.39862 3.43369
0.68769 2.40626 3.43402
0.547912 2.4572 4.07632
0.519013 2.44921 4.05235
0.495078 2.4424 4.03036
0.485776 2.43899 4.01405
0.476734 2.43564 3.99788
0.467435 2.43224 3.98164
0.459095 2.42907 3.9658
0.455158 2.42692 3.95166
0.451428 2.42482 3.93762
0.444201 2.42191 3.92229
0.441065 2.41996 3.90852
0.438192 2.41806 3.89487
0.435597 2.41624 3.88134
0.433908 2.41462 3.86816
0.431915 2.41294 3.85489
0.430243 2.41133 3.84176
0.431547 2.41041 3.82973
0.43037 2.40892 3.81681
0.429542 2.40751 3.80403
0.42971 2.40633 3.79163
0.429616 2.40509 3.77914
0.431701 2.40436 3.76745
0.432819 2.4034 3.75543
0.433685 2.40239 3.74332
0.436246 2.40177 3.73183
0.437706 2.40089 3.71995
0.440556 2.40034 3.70858
0.443289 2.39976 3.69716
0.44577 2.39912 3.68567
0.449013 2.39866 3.67445
0.452581 2.39827 3.66335
0.455894 2.39783 3.65217
0.45965 2.39749 3.64114
0.464194 2.39732 3.63039
0.468347 2.39707 3.61951
0.472923 2.39692 3.60878
0.477995 2.39688 3.59821
0.483171 2.39686 3.58769
0.488589 2.3969 3.57724
0.494423 2.39703 3.56694
0.501385 2.39742 3.55702
0.508046 2.39774 3.54699
0.514155 2.39794 3.53677
0.523296 2.39882 3.52757
0.531151 2.39942 3.51793
0.540119 2.40026 3.50865
0.549466 2.40119 3.49949
0.561177 2.40266 3.49111
0.568521 2.40313 3.48127
0.582017 2.405 3.47344
0.598903 2.40764 3.4667
0.614055 2.40989 3.45937
0.633719 2.41315 3.45349
0.659301 2.41775 3.44948
0.544721 2.47346 4.08793
0.510676 2.46422 4.06193
0.491967 2.45858 4.04193
0.482129 2.45502 4.02539
0.473107 2.45166 4.0092
0.460193 2.44739 3.99157
0.456089 2.44518 3.97733
0.448215 2.4421 3.96168
0.444623 2.44002 3.94768
0.441261 2.43799 3.93379
0.438147 2.43603 3.92001
0.435296 2.43412 3.90636
0.432722 2.43229 3.89282
0.43044 2.43052 3.87942
0.428464 2.42883 3.86614
0.427418 2.42736 3.85323
0.426097 2.42582 3.84023
0.425119 2.42436 3.82737
0.426778 2.42352 3.8155
0.42633 2.42219 3.80286
0.42688 2.4211 3.7906
0.428352 2.42022 3.77868
0.429477 2.41926 3.76665
0.430998 2.41839 3.75477
0.43228 2.41746 3.74281
0.435057 2.41689 3.7314
0.437273 2.41618 3.7198
0.439893 2.41557 3.70834
0.443171 2.41512 3.69712
0.445881 2.41453 3.68571
0.449348 2.41411 3.67457
0.453348 2.41382 3.66362
0.457101 2.41348 3.65259
0.461083 2.41318 3.64164
0.465847 2.41307 3.63097
0.47044 2.41292 3.62023
0.475521 2.41288 3.60967
0.481438 2.41303 3.5994
0.487086 2.41312 3.58903
0.493148 2.41331 3.5788
0.498961 2.41344 3.56848
0.50721 2.41413 3.55899
0.51343 2.41435 3.54881
0.522885 2.41531 3.53971
0.5295 2.41563 3.52965
0.540118 2.41685 3.52093
0.547112 2.41725 3.51098
0.559562 2.4189 3.50284
0.572081 2.42056 3.49471
0.582845 2.42182 3.48598
0.600789 2.42472 3.4796
0.616164 2.42702 3.47235
0.636095 2.43037 3.46656
0.665475 2.43587 3.4638
0.526985 2.4863 4.0939
0.50287 2.47934 4.07171
0.488812 2.47476 4.05348
0.474565 2.47013 4.03522
0.465672 2.46678 4.01907
0.457121 2.46351 4.00308
0.448973 2.46033 3.98729
0.445189 2.45819 3.97318
0.437836 2.45521 3.95774
0.434624 2.45321 3.9439
0.431668 2.45127 3.93018
0.428981 2.44939 3.91657
0.426578 2.44758 3.90309
0.425066 2.44598 3.88997
0.423279 2.44432 3.87675
0.421816 2.44274 3.86368
0.42325 2.44184 3.85169
0.422292 2.44038 3.83883
0.421687 2.439 3.82611
0.422062 2.43786 3.81377
0.424102 2.4371 3.80205
0.424424 2.43594 3.7897
0.426738 2.43525 3.7781
0.427638 2.43424 3.76599
0.429569 2.43346 3.75426
0.431727 2.43273 3.74262
0.434269 2.4321 3.73112
0.437228 2.43156 3.71978
0.439876 2.43096 3.70833
0.443266 2.43052 3.69716
0.447063 2.43018 3.68613
0.450626 2.42979 3.67502
0.45453 2.42947 3.66404
0.4592 2.42934 3.65332
0.463604 2.42914 3.64252
0.468429 2.42904 3.63186
0.473627 2.42903 3.62134
0.478929 2.42904 3.61085
0.484594 2.42913 3.60048
0.491362 2.42948 3.59049
0.497857 2.42977 3.5804
0.504758 2.43015 3.57045
0.512759 2.43079 3.56087
0.520457 2.43135 3.55118
0.529248 2.43217 3.54185
0.538422 2.43307 3.53264
0.54726 2.4339 3.52331
0.559984 2.43562 3.51527
0.572773 2.43735 3.50723
0.583708 2.43866 3.49855
0.598423 2.44083 3.49112
0.617549 2.44402 3.4851
0.637735 2.44745 3.4794
0.676918 2.45524 3.47986
0.523721 2.50254 4.10548
0.495038 2.49444 4.08147
0.48508 2.4908 4.06481
0.466992 2.48524 4.04505
0.458236 2.48189 4.02893
0.454007 2.47962 4.01459
0.445882 2.47643 3.99878
0.438217 2.47336 3.98318
0.434789 2.47129 3.96922
0.431599 2.46927 3.95538
0.428664 2.46732 3.94165
0.425998 2.46544 3.92804
0.423617 2.46362 3.91456
0.421534 2.46188 3.90121
0.419763 2.46021 3.88799
0.418906 2.45876 3.87513
0.417801 2.45726 3.86219
0.419422 2.45639 3.85028
0.418837 2.45501 3.83756
0.419221 2.45386 3.82521
0.419378 2.45265 3.81279
0.421623 2.45194 3.80114
0.422351 2.45087 3.78895
0.424091 2.45005 3.77714
0.426191 2.4493 3.76546
0.428538 2.44862 3.75388
0.431299 2.44803 3.74246
0.433848 2.44739 3.73097
0.437199 2.44695 3.71977
0.440608 2.44651 3.70859
0.443765 2.44602 3.69733
0.447994 2.44578 3.68646
0.451917 2.44547 3.67547
0.456127 2.44522 3.6646
0.461018 2.44514 3.65396
0.466014 2.44508 3.64336
0.471734 2.44519 3.63301
0.477212 2.44524 3.62258
0.483105 2.44539 3.61228
0.489412 2.44563 3.60213
0.49681 2.44613 3.59235
0.50295 2.44634 3.58214
0.510272 2.44682 3.57233
0.520054 2.44787 3.56334
0.529044 2.44874 3.55408
0.538414 2.44969 3.54493
0.550174 2.4512 3.53658
0.557549 2.45169 3.52675
0.57106 2.4536 3.51895
0.587987 2.45631 3.51227
0.603154 2.4586 3.50498
0.626762 2.46285 3.50045
0.648376 2.46663 3.49522
0.515244 2.51754 4.11502
0.491772 2.51063 4.09301
0.477322 2.50589 4.07458
0.463788 2.50138 4.05656
0.455055 2.49802 4.04043
0.446684 2.49474 4.02448
0.442204 2.4924 4.01006
0.435105 2.48944 3.99466
0.431699 2.48736 3.98069
0.427975 2.4852 3.96663
0.422169 2.48256 3.9518
0.419671 2.4807 3.93825
0.417464 2.47891 3.92482
0.41855 2.47791 3.91266
0.4168 2.47624 3.89943
0.415374 2.47464 3.88635
0.414868 2.47327 3.87363
0.414131 2.47184 3.86083
0.415945 2.47102 3.84899
0.415744 2.46972 3.83642
0.416514 2.46865 3.82421
0.417072 2.46753 3.81194
0.419527 2.46687 3.80038
0.420667 2.46589 3.78834
0.42282 2.46515 3.77668
0.425761 2.4646 3.76531
0.427911 2.46387 3.75366
0.431097 2.46338 3.74239
0.434479 2.46294 3.73119
0.437449 2.46239 3.71986
0.441476 2.4621 3.7089
0.44532 2.46177 3.69788
0.449341 2.46148 3.68693
0.454138 2.46137 3.67626
0.458791 2.46123 3.66553
0.463866 2.46119 3.65495
0.469189 2.4612 3.64446
0.474617 2.46124 3.63401
0.481675 2.46167 3.62412
0.48752 2.4618 3.61381
0.494256 2.46215 3.6038
0.50207 2.46275 3.59415
0.509611 2.46328 3.58441
0.518221 2.46407 3.57503
0.528888 2.46533 3.56633
0.535914 2.46575 3.5564
0.548378 2.46743 3.54829
0.560946 2.46914 3.54019
0.571733 2.47042 3.53149
0.586227 2.47258 3.524
0.605074 2.47574 3.51794
0.625014 2.47916 3.51221
0.663755 2.48696 3.51264
0.502605 2.53152 4.12292
0.487953 2.52669 4.10434
0.469548 2.52097 4.08434
0.46054 2.51752 4.06806
0.451307 2.51401 4.05172
0.442955 2.51072 4.03576
0.439037 2.5085 4.02154
0.431413 2.50539 4.00591
0.428025 2.5033 3.99195
0.421832 2.50054 3.97693
0.419079 2.4986 3.96325
0.416602 2.49674 3.94969
0.414417 2.49495 3.93626
0.412536 2.49323 3.92297
0.413794 2.49226 3.91087
0.412389 2.49066 3.89778
0.411319 2.48914 3.88484
0.411175 2.48784 3.87225
0.410816 2.4865 3.8596
0.412829 2.48572 3.84784
0.41302 2.4845 3.83541
0.414185 2.48352 3.82336
0.415152 2.4825 3.81124
0.417819 2.48188 3.79975
0.41998 2.48114 3.78809
0.421949 2.48035 3.77636
0.42511 2.47985 3.76507
0.427749 2.47923 3.7536
0.43115 2.47879 3.74241
0.434706 2.47838 3.73128
0.438113 2.47794 3.72009
0.442572 2.47775 3.70929
0.446642 2.47747 3.69835
0.451102 2.47728 3.68755
0.45612 2.47722 3.67695
0.461242 2.47719 3.66639
0.467191 2.47736 3.65611
0.472915 2.47747 3.64576
0.479054 2.47767 3.63555
0.484907 2.47781 3.62524
0.493221 2.47854 3.61577
0.499481 2.47877 3.60559
0.509001 2.47978 3.59653
0.515657 2.4801 3.58647
0.527011 2.48154 3.57802
0.535907 2.4824 3.56871
0.548645 2.48415 3.56069
0.561483 2.48594 3.55269
0.572441 2.48727 3.54405
0.587171 2.48949 3.53664
0.606305 2.49275 3.53069
0.630548 2.4972 3.52639
0.665631 2.50419 3.52564
0.551324 2.56168 4.16791
0.499225 2.54773 4.13445
0.480022 2.54177 4.11406
0.466233 2.53712 4.09584
0.45674 2.53353 4.07935
0.448051 2.53013 4.0632
0.439722 2.52682 4.04723
0.431814 2.52362 4.03145
0.428226 2.52146 4.01737
0.424859 2.51936 4.0034
0.418144 2.51646 3.98816
0.415408 2.51452 3.97448
0.413491 2.51277 3.96112
0.411327 2.51097 3.94769
0.409467 2.50925 3.93439
0.407924 2.5076 3.92123
0.407269 2.50617 3.90842
0.406403 2.50469 3.89554
0.405889 2.50329 3.88281
0.407838 2.50249 3.87101
0.407867 2.50123 3.85851
0.40885 2.5002 3.84637
0.410674 2.49937 3.83455
0.412242 2.49848 3.82265
0.414211 2.49769 3.8109
0.416 2.49686 3.79909
0.419086 2.49634 3.78776
0.421665 2.49569 3.77626
0.424866 2.4952 3.76498
0.428345 2.49477 3.75382
0.431564 2.49428 3.74256
0.435345 2.49393 3.7315
0.439812 2.49374 3.7207
0.444083 2.4935 3.70983
0.449007 2.49342 3.69919
0.45391 2.49334 3.68854
0.45915 2.49333 3.67802
0.464682 2.4934 3.66759
0.470235 2.49347 3.65718
0.477034 2.49383 3.64719
0.483605 2.49415 3.63713
0.491231 2.49471 3.62742
0.498612 2.49521 3.61763
0.507041 2.49596 3.60819
0.515205 2.49665 3.59865
0.526186 2.49801 3.59007
0.535945 2.49907 3.58105
0.546064 2.50022 3.57215
0.559589 2.50218 3.56439
0.576558 2.50495 3.55776
0.59174 2.50729 3.55051
0.6121 2.51086 3.54497
0.636938 2.51548 3.54088
0.529007 2.57336 4.17201
0.495802 2.56393 4.14597
0.472069 2.55682 4.12376
0.46238 2.55315 4.10713
0.449045 2.54859 4.08911
0.440498 2.54521 4.07301
0.432332 2.54192 4.05709
0.428561 2.5397 4.0429
0.421154 2.5366 4.02733
0.417933 2.53452 4.01341
0.414957 2.53251 3.99959
0.412243 2.53056 3.9859
0.409805 2.52868 3.97234
0.405124 2.52625 3.95794
0.403448 2.52456 3.9447
0.404833 2.52361 3.93264
0.403641 2.52204 3.91962
0.403342 2.52069 3.90694
0.402848 2.51929 3.89421
0.404257 2.51835 3.8822
0.404866 2.51722 3.86991
0.405858 2.51619 3.85776
0.406673 2.51511 3.84556
0.409289 2.51447 3.83404
0.41069 2.51353 3.82208
0.413075 2.51284 3.81048
0.416181 2.51231 3.79916
0.418597 2.51163 3.78759
0.421999 2.51118 3.77638
0.425032 2.51064 3.76504
0.428735 2.51026 3.75396
0.432999 2.51002 3.74307
0.43701 2.50972 3.7321
0.441299 2.50949 3.72123
0.446232 2.50941 3.71059
0.451153 2.50933 3.69995
0.456401 2.50933 3.68942
0.462577 2.50955 3.67922
0.468548 2.50972 3.66895
0.474931 2.50998 3.65882
0.482359 2.5105 3.64905
0.489557 2.51097 3.63919
0.497795 2.51168 3.62969
0.506429 2.51248 3.62032
0.514803 2.51323 3.61085
0.524202 2.51421 3.60173
0.536026 2.51578 3.59342
0.546328 2.51698 3.58458
0.560109 2.51901 3.57691
0.574617 2.52121 3.56946
0.593472 2.52444 3.56345
0.613419 2.52793 3.55778
0.647762 2.53484 3.55688
0.525497 2.58961 4.18355
0.487226 2.57887 4.15546
0.468643 2.57298 4.13525
0.458989 2.5693 4.11861
0.445679 2.56471 4.10058
0.432948 2.56028 4.08281
0.429013 2.558 4.06853
0.421309 2.55481 4.0528
0.417881 2.55266 4.03876
0.414682 2.55058 4.02483
0.411729 2.54855 4.01102
0.409036 2.5466 3.99732
0.403915 2.54405 3.98272
0.401949 2.54227 3.96934
0.400294 2.54057 3.9561
0.398962 2.53895 3.943
0.400528 2.53805 3.93101
0.399697 2.53655 3.91813
0.399765 2.53528 3.9056
0.399653 2.53397 3.89302
0.401823 2.53321 3.8813
0.402268 2.53203 3.86894
0.403658 2.53109 3.85695
0.404884 2.5301 3.8449
0.407715 2.52951 3.83346
0.410063 2.5288 3.82185
0.412342 2.52807 3.81021
0.415668 2.5276 3.79897
0.418505 2.52701 3.78755
0.422142 2.52662 3.77643
0.425865 2.52624 3.76535
0.42954 2.52586 3.75425
0.434167 2.52571 3.74349
0.438899 2.52558 3.73278
0.443808 2.52549 3.72212
0.448961 2.52547 3.71156
0.454326 2.52549 3.70107
0.459795 2.52554 3.69062
0.46692 2.52599 3.68075
0.472805 2.52614 3.67044
0.479618 2.52651 3.66045
0.487462 2.52713 3.65082
0.495078 2.5277 3.64111
0.503718 2.52851 3.63174
0.514449 2.52983 3.62309
0.524042 2.53087 3.61403
0.533998 2.53199 3.60508
0.54663 2.53376 3.59704
0.560663 2.53586 3.58945
0.575408 2.53813 3.58209
0.590819 2.54056 3.57493
0.614753 2.54503 3.57061
0.649445 2.55207 3.56986
0.521943 2.60586 4.19508
0.479102 2.59392 4.16511
0.465173 2.58914 4.14672
0.451087 2.58433 4.12831
0.437938 2.57976 4.11032
0.429564 2.57637 4.09425
0.421589 2.57308 4.07837
0.417971 2.57088 4.06422
0.410785 2.56779 4.04871
0.407736 2.56573 4.03483
0.404939 2.56373 4.02106
0.40241 2.5618 4.00743
0.400164 2.55994 3.99391
0.398731 2.55828 3.98073
0.397097 2.55658 3.96749
0.395785 2.55496 3.95439
0.394809 2.55342 3.94143
0.396562 2.55255 3.92951
0.396104 2.55114 3.91678
0.396548 2.54995 3.90439
0.396828 2.54873 3.89196
0.399202 2.54801 3.88032
0.400051 2.54693 3.86812
0.401847 2.54608 3.85628
0.404048 2.54533 3.84459
0.4061 2.54454 3.83287
0.409351 2.54405 3.82158
0.412127 2.54344 3.81013
0.415564 2.54299 3.79893
0.41921 2.54259 3.78781
0.422697 2.54216 3.77663
0.427191 2.54197 3.76582
0.431349 2.5417 3.7549
0.435889 2.54153 3.74411
0.440948 2.54148 3.73351
0.446113 2.54145 3.72295
0.451492 2.54148 3.71246
0.457895 2.54176 3.70234
0.464111 2.54199 3.69214
0.471348 2.54247 3.68231
0.478384 2.5429 3.6724
0.484686 2.54315 3.66223
0.49427 2.54419 3.65319
0.503113 2.54506 3.6439
0.512339 2.54602 3.63472
0.523925 2.54755 3.62635
0.534067 2.54872 3.61747
0.547607 2.55072 3.60974
0.561249 2.55274 3.60202
0.576226 2.55508 3.59474
0.599504 2.55943 3.59025
0.620839 2.5633 3.58506
0.665158 2.57271 3.58757
0.50401 2.61853 4.20086
0.475563 2.61009 4.17659
0.461202 2.60518 4.158
0.443175 2.59936 4.138
0.434487 2.59587 4.12175
0.426137 2.59246 4.10567
0.418186 2.58916 4.08978
0.41459 2.58694 4.07563
0.407427 2.58384 4.06011
0.4044 2.58177 4.04622
0.401625 2.57976 4.03246
0.399118 2.57782 4.01881
0.396893 2.57596 4.0053
0.394965 2.57417 3.99192
0.393347 2.57246 3.97867
0.392566 2.57095 3.96576
0.391611 2.56941 3.9528
0.391521 2.56808 3.94018
0.391273 2.56671 3.92752
0.39287 2.5658 3.91556
0.3937 2.5647 3.90332
0.394916 2.5637 3.89124
0.395988 2.56266 3.87912
0.398767 2.56205 3.86764
0.40043 2.56116 3.85575
0.403048 2.56051 3.84423
0.406319 2.56001 3.83295
0.409002 2.55938 3.82146
0.41257 2.55896 3.8103
0.416236 2.55857 3.79918
0.419741 2.55813 3.788
0.424243 2.55795 3.77719
0.428421 2.55768 3.76627
0.432978 2.55751 3.75548
0.438046 2.55746 3.74488
0.443823 2.55758 3.73454
0.449433 2.55767 3.72413
0.455027 2.55775 3.71372
0.461857 2.55813 3.70374
0.468505 2.55847 3.69369
0.476161 2.55905 3.684
0.483618 2.55959 3.67423
0.492078 2.56037 3.66481
0.500317 2.56109 3.6553
0.511979 2.56265 3.64697
0.521771 2.56375 3.63798
0.534177 2.56548 3.62988
0.544844 2.56679 3.62117
0.562496 2.5698 3.61483
0.577701 2.57221 3.60764
0.597396 2.57571 3.60194
0.622237 2.58046 3.59795
0.500385 2.63474 4.21235
0.47198 2.62627 4.18805
0.453114 2.62019 4.16764
0.439657 2.61548 4.14943
0.430993 2.61197 4.13317
0.422667 2.60854 4.11708
0.41474 2.60523 4.10119
0.410695 2.60288 4.08684
0.404026 2.59988 4.0715
0.401021 2.59781 4.05761
0.394821 2.59493 4.0425
0.395783 2.59385 4.03019
0.39358 2.59197 4.01667
0.391673 2.59018 4.00329
0.390076 2.58846 3.99004
0.386653 2.58629 3.97611
0.38837 2.5854 3.96416
0.387781 2.58393 3.95134
0.388063 2.58269 3.93887
0.388201 2.58141 3.92635
0.39053 2.58068 3.91468
0.391229 2.57954 3.9024
0.392847 2.57863 3.89047
0.395112 2.57788 3.87879
0.397328 2.57713 3.8671
0.399954 2.57647 3.85557
0.402454 2.57578 3.84401
0.405946 2.57534 3.83281
0.40898 2.57479 3.82145
0.412854 2.57445 3.8104
0.416744 2.57411 3.79936
0.420687 2.57378 3.78835
0.425621 2.5737 3.77769
0.430597 2.57362 3.76705
0.435596 2.57356 3.75643
0.440887 2.57356 3.7459
0.446514 2.57365 3.7355
0.453143 2.57399 3.72545
0.459603 2.57428 3.71534
0.46562 2.57447 3.70507
0.474336 2.57531 3.69575
0.482604 2.57605 3.68627
0.491268 2.57688 3.67691
0.499717 2.57766 3.66748
0.509146 2.57868 3.65837
0.521644 2.58045 3.65032
0.534326 2.58227 3.64232
0.545166 2.58363 3.63367
0.559694 2.58589 3.62627
0.57856 2.58922 3.62033
0.598519 2.5928 3.61474
0.632802 2.59989 3.61397
0.496717 2.65095 4.22382
0.468354 2.64243 4.1995
0.44501 2.63519 4.17726
0.436096 2.63159 4.16085
0.427008 2.62795 4.1444
0.418702 2.62451 4.1283
0.410794 2.62118 4.11239
0.40724 2.61894 4.09823
0.400583 2.61593 4.08287
0.39713 2.61372 4.0688
0.391422 2.61095 4.05386
0.389104 2.60903 4.04027
0.387074 2.60719 4.02682
0.388338 2.60618 4.01465
0.384427 2.60387 4.0005
0.383349 2.60227 3.98746
0.385087 2.60138 3.97551
0.384518 2.59991 3.96269
0.384306 2.59854 3.95002
0.384968 2.59738 3.9377
0.386804 2.59652 3.92583
0.388037 2.59551 3.91374
0.389663 2.59459 3.90181
0.391169 2.59365 3.88984
0.394184 2.59309 3.87844
0.396288 2.5923 3.86672
0.399337 2.59174 3.85535
0.402804 2.59129 3.84414
0.405913 2.59076 3.8328
0.409795 2.59041 3.82175
0.414102 2.59017 3.81086
0.418221 2.58989 3.7999
0.422608 2.58967 3.78904
0.427415 2.58955 3.77834
0.43261 2.58953 3.76778
0.437909 2.58954 3.75726
0.444125 2.58978 3.74706
0.45019 2.58998 3.73681
0.457244 2.59042 3.72691
0.464133 2.59082 3.71695
0.472008 2.59146 3.70733
0.4797 2.59206 3.69764
0.48837 2.5929 3.68829
0.499166 2.59427 3.67968
0.508788 2.59534 3.67064
0.518775 2.5965 3.66172
0.532073 2.59848 3.65394
0.545523 2.60049 3.64619
0.560288 2.60283 3.63888
0.57944 2.60624 3.63305
0.604298 2.61106 3.62914
0.643697 2.61945 3.63014
0.493005 2.66716 4.23529
0.464263 2.65849 4.21076
0.441381 2.65131 4.18868
0.432492 2.6477 4.17226
0.42344 2.64404 4.1558
0.415158 2.64059 4.13969
0.407273 2.63724 4.12378
0.403741 2.63499 4.10961
0.396643 2.63185 4.09406
0.393677 2.62975 4.08016
0.38798 2.62696 4.06522
0.385684 2.62504 4.05162
0.383676 2.62319 4.03816
0.381971 2.62142 4.02484
0.38106 2.61985 4.01184
0.380003 2.61825 3.99879
0.379286 2.61674 3.9859
0.381214 2.61589 3.97403
0.381021 2.61451 3.96136
0.381694 2.61335 3.94903
0.382247 2.61216 3.93666
0.384802 2.61147 3.92507
0.385928 2.61043 3.91294
0.387963 2.60961 3.90117
0.390405 2.6089 3.88955
0.392741 2.60816 3.87791
0.396178 2.6077 3.86668
0.399181 2.60713 3.85529
0.402862 2.60673 3.84416
0.406694 2.60637 3.83308
0.410469 2.606 3.822
0.415148 2.60585 3.81124
0.419552 2.60564 3.80039
0.424547 2.60557 3.78975
0.430135 2.60565 3.77933
0.435593 2.60569 3.76886
0.441468 2.60584 3.75854
0.448321 2.60624 3.74857
0.454257 2.60641 3.73827
0.462703 2.6072 3.72886
0.469045 2.60746 3.71869
0.478695 2.60855 3.7097
0.485432 2.60892 3.69967
0.496824 2.61044 3.69127
0.505871 2.61138 3.68203
0.518647 2.61324 3.67409
0.532206 2.61529 3.6664
0.546507 2.61753 3.65895
0.561506 2.61994 3.65172
0.58094 2.62344 3.646
0.605492 2.62821 3.642
0.645247 2.63674 3.64315
0.479568 2.68089 4.24282
0.455954 2.67347 4.22033
0.437709 2.66743 4.20008
0.428422 2.66369 4.18348
0.419828 2.66013 4.16719
0.407413 2.6556 4.14941
0.403709 2.65329 4.13514
0.396304 2.65005 4.11943
0.393125 2.64788 4.10541
0.390182 2.64577 4.09151
0.384496 2.64297 4.07656
0.382222 2.64104 4.06296
0.380236 2.63919 4.0495
0.378552 2.63741 4.03617
0.377183 2.63572 4.02298
0.376616 2.63423 4.01012
0.375919 2.63271 3.99722
0.375573 2.63128 3.98447
0.377695 2.63048 3.97268
0.377889 2.62919 3.96016
0.37895 2.62812 3.94798
0.380401 2.62715 3.93596
0.381752 2.62615 3.92392
0.384715 2.62557 3.91249
0.38666 2.62472 3.90068
0.389521 2.62411 3.88922
0.392977 2.62365 3.87799
0.395945 2.62307 3.86659
0.3997 2.62269 3.85548
0.403288 2.62227 3.84431
0.407344 2.62196 3.83332
0.412033 2.62181 3.82257
0.416728 2.62167 3.81182
0.421839 2.62163 3.80122
0.427055 2.62161 3.79066
0.432531 2.62167 3.7802
0.438973 2.62196 3.77008
0.445284 2.62222 3.75991
0.45256 2.62273 3.75009
0.459689 2.62319 3.74021
0.467781 2.6239 3.73067
0.475706 2.62456 3.72106
0.484586 2.62546 3.71178
0.493849 2.62646 3.70264
0.505515 2.62806 3.69432
0.515693 2.62928 3.68547
0.529257 2.63135 3.67779
0.543563 2.6336 3.67035
0.562144 2.63692 3.66438
0.58185 2.64052 3.65875
0.611471 2.64658 3.65652
0.475784 2.69707 4.25425
0.447619 2.68843 4.22988
0.433994 2.68355 4.21147
0.424743 2.67979 4.19486
0.411886 2.67511 4.17684
0.403783 2.67166 4.16077
0.396096 2.66832 4.1449
0.392721 2.66608 4.13078
0.389564 2.66391 4.11676
0.383059 2.66087 4.10144
0.380527 2.65886 4.08771
0.37827 2.65693 4.07411
0.376753 2.65518 4.06082
0.37509 2.6534 4.04749
0.373743 2.6517 4.0343
0.372723 2.65008 4.02125
0.37251 2.64868 4.00853
0.372184 2.64724 3.99578
0.374327 2.64644 3.98399
0.373102 2.64478 3.97092
0.375611 2.64407 3.95929
0.376587 2.64297 3.94708
0.378442 2.6421 3.93522
0.380932 2.64139 3.92361
0.383389 2.64067 3.91199
0.386259 2.64006 3.90053
0.389043 2.63943 3.88904
0.392722 2.63902 3.8779
0.395983 2.63851 3.8666
0.400103 2.63822 3.85563
0.404647 2.63804 3.84482
0.408933 2.63779 3.83391
0.413588 2.63763 3.82314
0.418709 2.63759 3.81254
0.423934 2.63758 3.80198
0.430232 2.63784 3.79182
0.435877 2.63793 3.78141
0.442747 2.63834 3.77144
0.449488 2.63871 3.76143
0.457183 2.63932 3.75175
0.464733 2.63989 3.74201
0.47323 2.64071 3.73261
0.48379 2.64204 3.72393
0.493248 2.64309 3.71485
0.503077 2.64423 3.70589
0.515563 2.64605 3.69786
0.529383 2.64819 3.69027
0.543931 2.65052 3.68292
0.559162 2.65302 3.67578
0.582777 2.65761 3.67153
0.612718 2.6638 3.66943
0.471957 2.71325 4.26566
0.443834 2.70457 4.24127
0.430236 2.69966 4.22284
0.416624 2.69475 4.20446
0.40819 2.69118 4.1882
0.400111 2.68771 4.17212
0.392448 2.68435 4.15624
0.389095 2.68211 4.14211
0.382247 2.67897 4.12661
0.379479 2.67688 4.11276
0.376969 2.67487 4.09903
0.374734 2.67292 4.08543
0.370157 2.67037 4.07093
0.371586 2.66938 4.0588
0.37026 2.66767 4.04561
0.369261 2.66605 4.03256
0.369058 2.66464 4.01983
0.368753 2.6632 4.00708
0.368809 2.66186 3.99448
0.369701 2.66073 3.98222
0.371759 2.6599 3.97041
0.373226 2.65892 3.95838
0.375091 2.65805 3.94652
0.376878 2.65715 3.93463
0.380077 2.65662 3.92328
0.382466 2.65588 3.91164
0.385758 2.65537 3.90034
0.389457 2.65497 3.8892
0.392748 2.65446 3.87791
0.396876 2.65417 3.86693
0.401428 2.65399 3.85612
0.405734 2.65374 3.84522
0.410407 2.65359 3.83445
0.415537 2.65355 3.82386
0.421362 2.65369 3.81351
0.427085 2.65381 3.80313
0.432739 2.6539 3.79273
0.440308 2.65449 3.78301
0.446375 2.65469 3.77275
0.455173 2.65558 3.76347
0.463479 2.65635 3.75401
0.472181 2.65722 3.74468
0.480723 2.65805 3.73528
0.490189 2.65911 3.7262
0.502711 2.66094 3.7182
0.515472 2.66284 3.71027
0.529543 2.66506 3.70277
0.544328 2.66746 3.69551
0.563491 2.67097 3.68975
0.584284 2.67488 3.68453
0.623228 2.68337 3.68557
0.468086 2.72942 4.27706
0.440007 2.72069 4.25265
0.426049 2.71566 4.23405
0.41286 2.71083 4.21581
0.400207 2.70614 4.19783
0.396397 2.70376 4.18345
0.388758 2.70039 4.16757
0.381591 2.69714 4.1519
0.378602 2.69498 4.13793
0.375856 2.69289 4.12407
0.373369 2.69086 4.11034
0.371155 2.68891 4.09674
0.36659 2.68635 4.08222
0.365132 2.6846 4.06896
0.366735 2.68364 4.0569
0.365757 2.68202 4.04385
0.365118 2.68048 4.03095
0.36528 2.67915 4.01837
0.365356 2.67781 4.00577
0.366258 2.67667 3.9935
0.367087 2.67552 3.98121
0.369823 2.67487 3.96967
0.371229 2.67387 3.95762
0.373504 2.67309 3.94591
0.376723 2.67256 3.93457
0.378809 2.67174 3.9228
0.382432 2.67131 3.91163
0.385662 2.67079 3.9003
0.389589 2.67044 3.88925
0.393607 2.67012 3.87823
0.397669 2.6698 3.86723
0.402493 2.66969 3.85652
0.407423 2.6696 3.84584
0.412805 2.66963 3.83534
0.418156 2.66965 3.82482
0.423897 2.66977 3.81444
0.430573 2.67013 3.80441
0.437144 2.67046 3.79433
0.444649 2.67103 3.78459
0.452562 2.6717 3.77499
0.460347 2.67234 3.76533
0.469056 2.67322 3.75601
0.478152 2.67419 3.74681
0.489591 2.67576 3.73844
0.499614 2.67697 3.72955
0.512937 2.67902 3.72182
0.527015 2.68126 3.71434
0.541808 2.68368 3.70709
0.560976 2.6872 3.70134
0.585229 2.69202 3.69734
0.62014 2.69954 3.69701
0.464173 2.74558 4.28845
0.436137 2.73682 4.26401
0.422216 2.73176 4.2454
0.409054 2.7269 4.22715
0.396427 2.7222 4.20915
0.39264 2.71981 4.19478
0.385025 2.71642 4.17888
0.377882 2.71315 4.1632
0.374915 2.71099 4.14923
0.372192 2.70888 4.13537
0.369727 2.70685 4.12164
0.367535 2.70489 4.10803
0.36298 2.70232 4.09351
0.361544 2.70056 4.08024
0.360428 2.69889 4.06711
0.362212 2.69798 4.05513
0.359642 2.69593 4.04147
0.361765 2.6951 4.02964
0.361861 2.69375 4.01704
0.362774 2.69261 4.00477
0.363622 2.69146 3.99248
0.366379 2.6908 3.98094
0.367804 2.6898 3.96889
0.370088 2.68903 3.95718
0.372781 2.68835 3.94564
0.375421 2.68767 3.93408
0.379064 2.68725 3.9229
0.382318 2.68672 3.91158
0.386259 2.68638 3.90053
0.390297 2.68606 3.88951
0.394377 2.68575 3.87852
0.39937 2.68568 3.86786
0.404416 2.68562 3.85723
0.409548 2.68558 3.84663
0.414909 2.6856 3.83611
0.421172 2.68586 3.82592
0.42735 2.68609 3.81571
0.434451 2.68656 3.80582
0.441452 2.687 3.79589
0.449372 2.68768 3.7863
0.457694 2.68847 3.77684
0.46589 2.68922 3.76733
0.477308 2.69079 3.75897
0.486976 2.69192 3.74997
0.499247 2.69371 3.74188
0.509804 2.69506 3.73317
0.523888 2.69731 3.7257
0.54218 2.70064 3.71969
0.561628 2.70426 3.71406
0.590311 2.71024 3.71162
0.635398 2.72042 3.71487
0.464849 2.76296 4.30173
0.43681 2.75414 4.27724
0.413858 2.74667 4.25491
0.405205 2.74297 4.23847
0.396846 2.73936 4.22219
0.38884 2.73584 4.20608
0.381249 2.73244 4.19018
0.37413 2.72916 4.17449
0.371186 2.72699 4.16052
0.368485 2.72488 4.14666
0.366042 2.72284 4.13292
0.363872 2.72087 4.11931
0.359329 2.71829 4.10478
0.357914 2.71652 4.09151
0.356819 2.71484 4.07838
0.358624 2.71393 4.0664
0.356064 2.71187 4.05273
0.357778 2.71093 4.04074
0.358325 2.70969 4.02831
0.35881 2.70844 4.01586
0.360115 2.70739 4.00374
0.362447 2.70662 3.99203
0.363464 2.70551 3.97982
0.36663 2.70496 3.96844
0.368878 2.70416 3.95672
0.371992 2.7036 3.94534
0.375654 2.70318 3.93416
0.378927 2.70266 3.92285
0.382888 2.70231 3.9118
0.386781 2.70195 3.90072
0.391523 2.70181 3.88997
0.396044 2.70162 3.87914
0.400985 2.70153 3.86846
0.40625 2.70153 3.85791
0.412311 2.70173 3.84765
0.417891 2.70181 3.83721
0.4252 2.70234 3.8274
0.431195 2.70252 3.81711
0.439739 2.70337 3.80775
0.44614 2.70366 3.7976
0.455887 2.70482 3.78866
0.464805 2.70576 3.77941
0.474106 2.70679 3.77029
0.485851 2.70846 3.76203
0.496067 2.70974 3.75322
0.509655 2.71188 3.74559
0.523986 2.71421 3.73821
0.539015 2.71671 3.73105
0.558466 2.72036 3.72544
0.587682 2.72651 3.72322
0.460503 2.77903 4.31295
0.432502 2.77016 4.28843
0.409941 2.76275 4.26623
0.401314 2.75904 4.24978
0.392612 2.75531 4.23334
0.384627 2.75177 4.21723
0.377431 2.74845 4.20146
0.370336 2.74516 4.18577
0.367415 2.74298 4.17179
0.361221 2.73993 4.15652
0.358942 2.73793 4.14284
0.356942 2.73599 4.12929
0.355636 2.73425 4.11604
0.354242 2.73248 4.10276
0.353168 2.73079 4.08963
0.352427 2.7292 4.07665
0.352445 2.72781 4.06398
0.352406 2.7264 4.0513
0.354747 2.72563 4.03956
0.355253 2.72437 4.02711
0.356567 2.72332 4.01499
0.357841 2.72227 4.00286
0.359945 2.72143 3.99107
0.362689 2.72076 3.97952
0.365398 2.72009 3.96797
0.368521 2.71952 3.95659
0.37175 2.71899 3.94524
0.375495 2.71858 3.9341
0.379013 2.71812 3.92288
0.383387 2.71789 3.91199
0.388138 2.71775 3.90123
0.392678 2.71756 3.8904
0.397637 2.71747 3.87973
0.403389 2.7176 3.86936
0.40898 2.71768 3.85892
0.41547 2.718 3.84882
0.421894 2.71829 3.83868
0.427898 2.71848 3.82839
0.436457 2.71934 3.81904
0.444594 2.72008 3.80952
0.45313 2.72093 3.80014
0.461554 2.72175 3.79071
0.470862 2.72279 3.7816
0.483132 2.72461 3.77354
0.495698 2.7265 3.76557
0.509542 2.72872 3.75804
0.524115 2.73112 3.75075
0.539371 2.73371 3.74367
0.563509 2.73859 3.73973
0.588643 2.74372 3.73608
0.447214 2.79271 4.32048
0.428512 2.78627 4.29976
0.405982 2.77882 4.27753
0.39738 2.77509 4.26108
0.388714 2.77135 4.24463
0.380753 2.7678 4.22851
0.373206 2.76437 4.21259
0.366499 2.76116 4.19704
0.363601 2.75897 4.18305
0.357431 2.75591 4.16777
0.355173 2.75389 4.15409
0.353195 2.75195 4.14054
0.351511 2.7501 4.12713
0.350528 2.74842 4.11401
0.349476 2.74674 4.10087
0.348755 2.74514 4.08789
0.348784 2.74374 4.07521
0.348765 2.74233 4.06253
0.351127 2.74156 4.05079
0.351653 2.74029 4.03835
0.352977 2.73924 4.02623
0.354271 2.73819 4.0141
0.356384 2.73735 4.0023
0.359159 2.73669 3.99076
0.361877 2.73601 3.97921
0.364933 2.73542 3.96779
0.368117 2.73487 3.95643
0.372021 2.73451 3.94535
0.376022 2.73417 3.9343
0.379952 2.73381 3.92324
0.384712 2.73368 3.91249
0.38927 2.73349 3.90166
0.394712 2.73353 3.89117
0.399999 2.73353 3.88061
0.405607 2.73362 3.87018
0.412105 2.73394 3.86008
0.418546 2.73425 3.84995
0.425877 2.73478 3.84015
0.433618 2.73543 3.83049
0.441279 2.73605 3.8208
0.449821 2.73691 3.81143
0.460477 2.73831 3.80281
0.46998 2.73942 3.79377
0.479852 2.74061 3.78484
0.492934 2.74265 3.77706
0.506786 2.74489 3.76954
0.521366 2.74731 3.76226
0.54026 2.75086 3.7565
0.560251 2.75469 3.75109
0.59439 2.7622 3.75066
0.443141 2.80884 4.33181
0.419899 2.80114 4.30919
0.406459 2.79609 4.29067
0.393404 2.79114 4.27236
0.384773 2.78739 4.25591
0.376837 2.78382 4.23978
0.369314 2.78037 4.22385
0.362621 2.77715 4.20829
0.359381 2.77485 4.19416
0.353598 2.77188 4.17902
0.351362 2.76985 4.16533
0.349406 2.76791 4.15178
0.347744 2.76604 4.13836
0.346772 2.76437 4.12524
0.345741 2.76267 4.1121
0.345042 2.76107 4.09912
0.345081 2.75967 4.08644
0.345083 2.75826 4.07376
0.347062 2.75737 4.06186
0.348012 2.75622 4.04958
0.348935 2.75505 4.03729
0.350659 2.7541 4.02532
0.352782 2.75326 4.01352
0.354891 2.75242 4.00172
0.358314 2.75192 3.99044
0.361401 2.75134 3.97903
0.364582 2.75078 3.96766
0.368506 2.75042 3.95658
0.372251 2.75002 3.94543
0.376475 2.74974 3.93448
0.381245 2.7496 3.92373
0.38608 2.74948 3.913
0.391271 2.74946 3.90241
0.396567 2.74947 3.89186
0.402653 2.74968 3.8816
0.408699 2.74988 3.87133
0.415624 2.75032 3.86138
0.422496 2.75074 3.85141
0.430244 2.75139 3.84176
0.437922 2.75202 3.83207
0.446472 2.75288 3.8227
0.457624 2.75442 3.81427
0.466652 2.75541 3.80506
0.476532 2.75662 3.79614
0.489619 2.75867 3.78837
0.503476 2.76092 3.78086
0.521472 2.76425 3.77481
0.536957 2.76693 3.76784
0.556951 2.77078 3.76245
0.591079 2.77834 3.76204
0.439026 2.82497 4.34313
0.415825 2.81723 4.32048
0.402414 2.81215 4.30195
0.389385 2.80718 4.28363
0.38079 2.80342 4.26718
0.372879 2.79984 4.25104
0.36538 2.79637 4.2351
0.362183 2.79407 4.22095
0.355494 2.79083 4.20539
0.349723 2.78784 4.19025
0.34751 2.78581 4.17656
0.345576 2.78386 4.163
0.343935 2.78199 4.14958
0.342601 2.7802 4.13631
0.341965 2.7786 4.12332
0.341287 2.777 4.11033
0.340952 2.77549 4.0975
0.341359 2.77417 4.08497
0.341746 2.77286 4.07244
0.344329 2.77213 4.06079
0.345272 2.77097 4.0485
0.347006 2.77001 4.03654
0.349138 2.76917 4.02473
0.351266 2.76832 4.01293
0.35471 2.76783 4.00165
0.357441 2.76715 3.9901
0.361006 2.76669 3.97888
0.36495 2.76633 3.9678
0.368713 2.76593 3.95666
0.372957 2.76565 3.9457
0.377737 2.76552 3.93495
0.382589 2.76541 3.92423
0.387789 2.76539 3.91364
0.393095 2.76539 3.9031
0.399528 2.7657 3.89297
0.405252 2.76582 3.88257
0.412184 2.76626 3.87263
0.419073 2.76668 3.86266
0.426829 2.76734 3.85301
0.436344 2.76846 3.84401
0.445098 2.76938 3.83471
0.454239 2.7704 3.82554
0.465774 2.77206 3.81725
0.475841 2.77332 3.8084
0.486263 2.77468 3.79967
0.500124 2.77694 3.79216
0.518124 2.7803 3.78613
0.533614 2.78299 3.77917
0.562054 2.7891 3.77681
0.601277 2.79804 3.77825
0.439492 2.84235 4.35636
0.41171 2.83332 4.33176
0.398326 2.82821 4.31322
0.385003 2.82313 4.29475
0.376764 2.81944 4.27843
0.368878 2.81584 4.26228
0.361404 2.81236 4.24634
0.35823 2.81005 4.23218
0.351564 2.8068 4.21662
0.345806 2.80379 4.20146
0.343615 2.80176 4.18777
0.341703 2.7998 4.17422
0.340084 2.79793 4.16079
0.338772 2.79613 4.14751
0.338147 2.79453 4.13452
0.33749 2.79292 4.12154
0.337176 2.7914 4.1087
0.337594 2.79008 4.09617
0.338001 2.78877 4.08364
0.340604 2.78804 4.07199
0.341568 2.78687 4.05971
0.343311 2.78592 4.04774
0.345453 2.78507 4.03593
0.347601 2.78423 4.02413
0.351065 2.78374 4.01286
0.353815 2.78305 4.00131
0.357388 2.7826 3.99008
0.360935 2.78213 3.97885
0.365134 2.78184 3.96787
0.369398 2.78157 3.95692
0.374229 2.78144 3.94619
0.379056 2.78132 3.93545
0.384266 2.7813 3.92487
0.390157 2.78147 3.91454
0.396031 2.78163 3.9042
0.401764 2.78175 3.89381
0.408704 2.78219 3.88386
0.417024 2.783 3.87443
0.423373 2.78329 3.86426
0.432904 2.78442 3.85526
0.441665 2.78535 3.84597
0.450813 2.78638 3.83681
0.462827 2.78817 3.82869
0.475193 2.79005 3.82068
0.485794 2.79146 3.81202
0.499908 2.79381 3.80461
0.514735 2.79634 3.79744
0.53768 2.80103 3.79317
0.558659 2.80519 3.78815
0.6023 2.81537 3.7912
0.43529 2.85846 4.36765
0.407551 2.84939 4.34303
0.394195 2.84426 4.32448
0.38091 2.83916 4.306
0.372697 2.83545 4.28967
0.364835 2.83184 4.27351
0.357385 2.82835 4.25756
0.350404 2.82498 4.24183
0.347592 2.82276 4.22783
0.345022 2.82061 4.21396
0.339679 2.8177 4.19897
0.337789 2.81574 4.18541
0.336192 2.81386 4.17199
0.334901 2.81206 4.15871
0.334287 2.81045 4.14571
0.333651 2.80883 4.13273
0.333358 2.80731 4.11989
0.333787 2.80599 4.10735
0.334214 2.80467 4.09483
0.336839 2.80394 4.08318
0.336575 2.80244 4.0704
0.339575 2.80182 4.05892
0.34134 2.80086 4.04696
0.343894 2.80012 4.03532
0.346858 2.79949 4.02385
0.349841 2.79887 4.01238
0.353729 2.79849 4.00127
0.357306 2.79803 3.99005
0.361514 2.79774 3.97907
0.366145 2.79757 3.96826
0.370637 2.79735 3.95739
0.375482 2.79724 3.94666
0.380702 2.79722 3.93608
0.3866 2.79738 3.92575
0.392492 2.79755 3.91542
0.399231 2.79794 3.9054
0.406388 2.79845 3.89554
0.413518 2.79894 3.88566
0.421492 2.79966 3.87609
0.429868 2.80049 3.86666
0.438191 2.80131 3.85721
0.447346 2.80235 3.84806
0.459365 2.80415 3.83995
0.471746 2.80605 3.83195
0.485364 2.80828 3.82439
0.499725 2.8107 3.81708
0.514784 2.81331 3.81
0.534717 2.81722 3.80466
0.559281 2.82237 3.80095
0.612813 2.83524 3.80758
0.435665 2.87585 4.38087
0.407926 2.86672 4.3562
0.394225 2.86147 4.33747
0.376775 2.85519 4.31723
0.368587 2.85146 4.30089
0.36075 2.84783 4.28472
0.353324 2.84432 4.26876
0.346367 2.84095 4.25303
0.343579 2.83872 4.23903
0.341031 2.83656 4.22515
0.3357 2.83364 4.21016
0.333833 2.83167 4.1966
0.332258 2.82978 4.18317
0.330989 2.82798 4.16989
0.330039 2.82626 4.15675
0.329771 2.82474 4.1439
0.329499 2.82322 4.13107
0.329938 2.82189 4.11853
0.330386 2.82056 4.106
0.332663 2.81974 4.09421
0.332777 2.81833 4.08158
0.335798 2.81771 4.0701
0.337582 2.81675 4.05814
0.340145 2.81601 4.0465
0.343119 2.81538 4.03502
0.346121 2.81476 4.02356
0.350029 2.81438 4.01246
0.353636 2.81393 4.00124
0.357852 2.81364 3.99026
0.362492 2.81346 3.97945
0.367004 2.81326 3.96859
0.371867 2.81314 3.95786
0.377509 2.81324 3.94744
0.383003 2.8133 3.93695
0.389332 2.81358 3.92678
0.395659 2.81386 3.91661
0.402823 2.81437 3.90675
0.409971 2.81488 3.89688
0.417953 2.8156 3.88731
0.426335 2.81644 3.87789
0.436783 2.81783 3.86923
0.446135 2.81893 3.86015
0.455862 2.82013 3.85119
0.468705 2.82216 3.84338
0.48233 2.8244 3.83582
0.496698 2.82684 3.82852
0.511764 2.82947 3.82146
0.531237 2.83328 3.81596
0.564531 2.8408 3.81542
0.431376 2.89196 4.39214
0.403681 2.88279 4.36744
0.390019 2.87751 4.3487
0.372597 2.8712 4.32845
0.364434 2.86746 4.3121
0.356623 2.86382 4.29592
0.349222 2.8603 4.27996
0.342289 2.8569 4.26421
0.339523 2.85467 4.25021
0.336998 2.8525 4.23633
0.33168 2.84956 4.22133
0.329835 2.84759 4.20777
0.328282 2.8457 4.19434
0.327034 2.84389 4.18106
0.326106 2.84217 4.16792
0.32585 2.84064 4.15507
0.325598 2.83911 4.14223
0.326048 2.83778 4.12969
0.326517 2.83645 4.11716
0.328825 2.83563 4.10538
0.328937 2.83421 4.09274
0.331979 2.83359 4.08126
0.333783 2.83264 4.06931
0.336356 2.83189 4.05766
0.339338 2.83126 4.04618
0.34236 2.83064 4.03472
0.346288 2.83027 4.02362
0.349924 2.82982 4.01241
0.35415 2.82953 4.00144
0.358798 2.82936 3.99062
0.36333 2.82915 3.97977
0.36836 2.82908 3.96911
0.373852 2.82914 3.95862
0.379364 2.8292 3.94814
0.385701 2.82949 3.93797
0.392047 2.82978 3.92781
0.399218 2.83029 3.91795
0.406802 2.83092 3.90824
0.414372 2.83154 3.89853
0.422762 2.83238 3.88911
0.433225 2.83379 3.88045
0.442585 2.83489 3.87138
0.452318 2.8361 3.86243
