ply
format ascii 1.0
comment Created by Open3D
element vertex 1650
property double x
property double y
property double z
end_header
-0.0514458 -0.147854 0.100653
-0.180732 -0.147785 0.0277362
-0.126948 -0.147751 0.0452351
-0.294703 -0.147683 -0.0469017
-0.38468 -0.147615 -0.100142
-0.0943588 -0.14441 0.960043
-0.18167 -0.143846 0.9208
-0.0486871 -0.143422 0.987913
-0.122654 -0.143247 0.944688
-0.0928459 -0.142898 0.958201
-0.0246253 -0.142761 0.985061
-0.116815 -0.142523 0.934586
-0.125198 -0.142387 0.923138
-0.154635 -0.142156 0.903908
-0.29926 -0.142057 0.823347
-0.201 -0.141863 0.866979
0.0608223 -0.141766 0.989611
-0.110295 -0.141577 0.898459
-0.159515 -0.141425 0.867203
-0.0791335 -0.141357 0.898361
-0.136622 -0.14121 0.862891
-0.274577 -0.141087 0.786502
-0.185896 -0.140946 0.823969
-0.140485 -0.14086 0.838215
-0.234356 -0.140742 0.783783
-0.00381312 -0.140659 0.89055
-0.0968204 -0.140543 0.836507
-0.206545 -0.140463 0.773091
-0.142671 -0.14035 0.79744
-0.189557 -0.14023 0.766644
-0.281274 -0.140162 0.711889
-0.153218 -0.140048 0.768424
-0.144943 -0.139981 0.763687
-0.337394 -0.139872 0.65982
-0.199161 -0.139805 0.720082
-0.128297 -0.139736 0.746712
-0.145372 -0.139636 0.730344
-0.127415 -0.139569 0.730505
-0.219787 -0.139473 0.676359
-0.3703 -0.139406 0.592303
-0.122336 -0.139318 0.708151
-0.262901 -0.139251 0.629087
-0.298318 -0.139169 0.603065
-0.334592 -0.139102 0.576163
-0.201218 -0.139047 0.633735
-0.170985 -0.13898 0.640106
-0.315381 -0.138909 0.559315
0.0037815 -0.138842 0.710165
-0.301038 -0.138775 0.549041
-0.0873701 -0.138711 0.647083
-0.37131 -0.138645 0.496411
-0.179061 -0.138578 0.583849
-0.250255 -0.138522 0.539255
-0.108053 -0.138455 0.601681
-0.213812 -0.138406 0.539598
-0.17775 -0.13834 0.548964
-0.248996 -0.138274 0.504692
-0.282334 -0.138232 0.478603
-0.249114 -0.138166 0.486573
-0.239566 -0.1381 0.482721
-0.319625 -0.138066 0.433062
-0.220356 -0.138 0.474088
-0.0674968 -0.137967 0.54086
-0.355281 -0.137901 0.388351
-0.236855 -0.137838 0.438894
-0.267538 -0.137805 0.413912
-0.198639 -0.137744 0.439643
-0.107839 -0.137684 0.47627
-0.22354 -0.137619 0.409865
-0.299442 -0.137594 0.362021
-0.252362 -0.137529 0.377021
-0.497394 -0.137474 0.245631
-0.19366 -0.137408 0.388975
-0.142682 -0.137388 0.404461
-0.0522341 -0.137322 0.441175
-0.125213 -0.137271 0.395707
-0.385406 -0.137239 0.256032
-0.257868 -0.13719 0.31077
-0.150173 -0.137124 0.356135
-0.0935585 -0.137078 0.375356
-0.125899 -0.137013 0.350719
-0.0676682 -0.137 0.369604
-0.298439 -0.136935 0.245762
-0.0360709 -0.136893 0.36775
-0.0575359 -0.136828 0.348576
-0.340206 -0.136763 0.19881
-0.219645 -0.136755 0.248742
-0.257077 -0.13669 0.221605
-0.15308 -0.136652 0.264296
-0.0947675 -0.136587 0.285044
-0.199191 -0.136523 0.224435
-0.0742434 -0.136491 0.277414
-0.152746 -0.136455 0.2288
-0.0876281 -0.13639 0.25298
-0.28177 -0.136326 0.147541
-0.227584 -0.136292 0.165213
-0.191292 -0.13626 0.173888
-0.0803259 -0.136196 0.221021
-0.150132 -0.136132 0.177779
-0.101235 -0.1361 0.192746
-0.215764 -0.136037 0.127152
-0.170389 -0.135973 0.141518
-0.275309 -0.135941 0.0796225
-0.100137 -0.135877 0.158904
-0.166402 -0.135848 0.116229
-0.207774 -0.135784 0.0872468
-0.149314 -0.135721 0.108189
0.0899577 -0.135657 0.219547
-0.00257424 -0.135625 0.163878
-0.218956 -0.135562 0.0474244
-0.235879 -0.135498 0.0307092
-0.0006938 -0.135435 0.140056
-0.165945 -0.135371 0.0491925
-0.25377 -0.13534 -0.00409107
-0.416659 -0.135315 -0.095155
-0.263788 -0.135252 -0.0269454
-0.248645 -0.135189 -0.0275921
-0.147829 -0.13103 0.918585
-0.0303456 -0.130516 0.981905
-0.00903634 -0.130195 0.991266
-0.103942 -0.130036 0.937602
-0.181714 -0.129783 0.895415
-0.216826 -0.129627 0.871613
-0.115928 -0.129442 0.916757
0.0767997 -0.129289 1.00681
-0.243565 -0.129108 0.841245
-0.227171 -0.129019 0.84122
0.0557781 -0.128842 0.977236
-0.200338 -0.128699 0.842671
-0.262217 -0.128582 0.804429
-0.289209 -0.128497 0.782635
-0.304985 -0.128382 0.767426
-0.328569 -0.128249 0.748929
-0.335569 -0.128137 0.738052
-0.158915 -0.128009 0.819522
-0.248778 -0.127931 0.766152
-0.206527 -0.127824 0.779813
-0.0407554 -0.127748 0.854214
-0.133607 -0.127643 0.80028
-0.248327 -0.12757 0.734384
-0.211721 -0.127467 0.745129
0.0130559 -0.127397 0.848925
-0.32605 -0.127297 0.671761
-0.113274 -0.127229 0.769495
-0.48973 -0.127132 0.573596
-0.322573 -0.127067 0.648456
-0.209948 -0.126973 0.697032
-0.176364 -0.126911 0.705036
-0.236831 -0.126819 0.666997
-0.0407668 -0.126758 0.756245
-0.265513 -0.126672 0.635914
-0.295023 -0.12661 0.612393
-0.241966 -0.126549 0.630172
-0.252738 -0.126493 0.615856
-0.34085 -0.126416 0.563579
-0.295202 -0.126355 0.577675
-0.0946671 -0.126285 0.669536
-0.232471 -0.126224 0.591922
-0.079126 -0.126162 0.659897
-0.29341 -0.126099 0.544155
-0.155599 -0.126038 0.604377
-0.19289 -0.125976 0.577063
-0.197402 -0.125919 0.566007
-0.179099 -0.125859 0.566502
-0.239405 -0.125808 0.527345
-0.0262568 -0.125747 0.625274
-0.288682 -0.12571 0.484637
-0.154945 -0.125643 0.543083
-0.301271 -0.125588 0.461103
-0.417012 -0.125548 0.393905
-0.0246595 -0.125488 0.581478
-0.367274 -0.125427 0.401582
-0.269438 -0.125366 0.441926
-0.240427 -0.125334 0.446876
-0.239167 -0.125273 0.438939
-0.300768 -0.125213 0.399586
-0.213248 -0.125184 0.433671
-0.257894 -0.125124 0.40281
-0.173276 -0.125067 0.436471
-0.180572 -0.125037 0.42322
-0.182107 -0.124981 0.413754
-0.134582 -0.124921 0.429012
-0.119862 -0.124898 0.426535
-0.205333 -0.124838 0.375308
-0.250409 -0.124787 0.343969
-0.080168 -0.124727 0.420614
-0.241527 -0.124707 0.329987
-0.11211 -0.124647 0.386233
-0.280549 -0.1246 0.293105
-0.15852 -0.12454 0.345673
-0.185413 -0.124524 0.322164
-0.304239 -0.124465 0.254316
-0.246403 -0.124421 0.274216
-0.151816 -0.124361 0.313088
-0.0529599 -0.124332 0.352999
-0.255179 -0.12429 0.242817
-0.251386 -0.12423 0.236315
-0.234894 -0.124191 0.235432
-0.161256 -0.124161 0.262752
-0.207396 -0.124102 0.231304
-0.230226 -0.124043 0.211523
-0.356277 -0.124005 0.139313
-0.144172 -0.123946 0.23701
-0.409767 -0.123916 0.0947458
-0.187353 -0.123881 0.19671
-0.143098 -0.123822 0.210501
-0.103273 -0.123763 0.222088
-0.180382 -0.123704 0.175218
-0.162774 -0.1237 0.173592
-0.266276 -0.123642 0.113532
-0.135583 -0.123583 0.17058
-0.258949 -0.123524 0.100608
-0.129753 -0.123465 0.156927
-0.236168 -0.123464 0.0932187
-0.140053 -0.123406 0.133003
-0.0526993 -0.123347 0.168416
-0.336807 -0.123289 0.0181072
-0.034625 -0.12323 0.160953
-0.158097 -0.123172 0.0909796
-0.123509 -0.123143 0.0988983
-0.184893 -0.123084 0.0599849
-0.140247 -0.123055 0.0729441
-0.18014 -0.122999 0.0447095
-0.0642245 -0.122941 0.0944602
-0.189954 -0.122912 0.0222445
-0.198852 -0.122854 0.00960274
-0.196115 -0.122796 0.00278676
-0.215431 -0.117698 0.870204
-0.0106615 -0.117351 0.973314
0.036787 -0.117063 0.995812
-0.0569895 -0.116919 0.94275
-0.0744393 -0.116692 0.930778
-0.0198739 -0.116552 0.951848
-0.0542388 -0.11633 0.931301
-0.0197919 -0.116248 0.94035
-0.127408 -0.116085 0.881201
-0.12784 -0.116004 0.872789
-0.120939 -0.115845 0.870821
-0.230128 -0.115766 0.807996
-0.0690167 -0.115611 0.883033
-0.124171 -0.115535 0.847182
-0.242058 -0.115432 0.780953
-0.267807 -0.115311 0.761393
-0.211243 -0.115211 0.782333
-0.0274691 -0.115139 0.865853
-0.196473 -0.11504 0.773974
-0.232633 -0.114929 0.748947
-0.239352 -0.114862 0.737121
-0.12448 -0.114767 0.78708
-0.207251 -0.114701 0.737176
-0.198136 -0.114609 0.734205
-0.181722 -0.114546 0.733837
-0.0682721 -0.114456 0.782978
-0.250297 -0.114395 0.683328
-0.129415 -0.114307 0.736124
-0.226011 -0.114249 0.679122
-0.230657 -0.114164 0.669089
-0.152128 -0.114108 0.699584
-0.311288 -0.114052 0.611251
-0.0913218 -0.113971 0.71345
-0.303413 -0.113918 0.598559
-0.209148 -0.113862 0.636964
-0.121731 -0.113788 0.672631
-0.306698 -0.113733 0.571436
-0.154739 -0.113677 0.638721
-0.0584828 -0.113609 0.678627
-0.298311 -0.113553 0.550032
-0.132157 -0.113491 0.624699
-0.0807975 -0.113436 0.641713
-0.244879 -0.113393 0.55054
-0.0278273 -0.113324 0.650942
-0.174173 -0.113282 0.568616
-0.189126 -0.113229 0.552432
-0.127025 -0.113173 0.574864
-0.234274 -0.113118 0.512635
-0.250769 -0.113071 0.495473
-0.106994 -0.113016 0.558767
-0.162723 -0.112961 0.522324
-0.132837 -0.11292 0.528138
-0.279528 -0.112865 0.446224
-0.178199 -0.112833 0.487425
-0.226665 -0.112775 0.454752
-0.174648 -0.112723 0.47211
-0.184243 -0.112692 0.45785
-0.120392 -0.112637 0.481244
-0.206685 -0.112582 0.429581
-0.142526 -0.112555 0.452066
-0.259995 -0.1125 0.384807
-0.14089 -0.112446 0.435871
-0.457528 -0.112421 0.267882
-0.00201549 -0.112366 0.487164
-0.187555 -0.112315 0.38577
-0.154681 -0.112288 0.392647
-0.345988 -0.112239 0.288317
-0.185173 -0.112184 0.360281
-0.214797 -0.112137 0.336739
-0.15169 -0.112083 0.359865
-0.356261 -0.112064 0.247687
-0.19298 -0.11201 0.320912
-0.196585 -0.111966 0.310271
-0.253125 -0.111939 0.272486
-0.0961817 -0.111885 0.342566
-0.23869 -0.111843 0.26242
-0.0149183 -0.111789 0.365928
-0.258077 -0.111762 0.234859
-0.326423 -0.111722 0.19174
-0.232356 -0.111668 0.230418
-0.043192 -0.11163 0.315995
-0.0953965 -0.111603 0.280422
-0.216499 -0.111549 0.211535
-0.310702 -0.111495 0.156109
-0.355793 -0.111459 0.124503
-0.161186 -0.111405 0.213493
-0.222379 -0.111379 0.173457
-0.110211 -0.111325 0.221247
-0.176318 -0.111291 0.179073
-0.187715 -0.111237 0.16509
-0.328618 -0.111184 0.0863642
-0.0224603 -0.111157 0.230034
-0.19772 -0.111125 0.133223
0.0218568 -0.111072 0.234753
-0.212474 -0.111019 0.109339
-0.263753 -0.110965 0.0754609
-0.0992832 -0.110939 0.148315
-0.232772 -0.110886 0.0733479
-0.12698 -0.110832 0.11803
-0.106066 -0.110779 0.120283
-0.106126 -0.11075 0.111001
-0.375928 -0.110724 -0.033255
-0.17661 -0.110671 0.058213
-0.142968 -0.110618 0.0668514
-0.226848 -0.110565 0.0167373
-0.151036 -0.110512 0.0464775
-0.0687279 -0.110486 0.0783077
-0.190582 -0.110433 0.009229
0.0924241 -0.105125 0.993536
-0.0231719 -0.104468 0.94989
-0.0792686 -0.104159 0.922654
-0.045237 -0.103903 0.938497
0.0885395 -0.103776 0.999237
-0.0413923 -0.103575 0.931051
-0.102324 -0.1035 0.892458
-0.280546 -0.103304 0.800031
-0.300183 -0.10323 0.782065
-0.235054 -0.103085 0.80933
0.0698066 -0.103014 0.95359
-0.222949 -0.102872 0.801833
-0.00419146 -0.102803 0.903007
-0.235466 -0.102665 0.781887
-0.214271 -0.102597 0.784234
-0.106286 -0.102505 0.830975
-0.366593 -0.102399 0.694157
-0.198273 -0.102334 0.769989
-0.042302 -0.102245 0.840647
-0.303288 -0.102157 0.702809
-0.174873 -0.102095 0.758627
-0.33976 -0.102009 0.668798
-0.128208 -0.101915 0.767522
-0.278097 -0.101865 0.683757
-0.264661 -0.101775 0.683296
-0.141866 -0.101724 0.735895
-0.256655 -0.101668 0.66995
-0.193432 -0.101588 0.694019
-0.135235 -0.101535 0.714503
-0.0892956 -0.101482 0.728824
0.0449074 -0.101405 0.788286
-0.115432 -0.101355 0.699397
-0.0510152 -0.101281 0.723896
-0.199021 -0.101231 0.64118
-0.266887 -0.101181 0.59855
-0.14872 -0.101111 0.64977
-0.240754 -0.101061 0.595073
-0.379235 -0.100996 0.517793
-0.149422 -0.100947 0.624036
-0.397256 -0.100904 0.491173
-0.336528 -0.100854 0.512894
-0.335255 -0.100797 0.505214
-0.128521 -0.100747 0.599952
-0.292441 -0.100697 0.509379
-0.318298 -0.100646 0.487937
-0.185731 -0.100596 0.54562
-0.280709 -0.10056 0.488967
-0.308536 -0.1005 0.466916
-0.107603 -0.100461 0.558371
-0.117188 -0.100417 0.544757
-0.203611 -0.100368 0.492989
-0.305669 -0.100318 0.433419
-0.224 -0.10028 0.465217
-0.288075 -0.100231 0.424647
-0.190701 -0.100202 0.463928
-0.217158 -0.100149 0.442331
-0.262121 -0.1001 0.411339
-0.436739 -0.100074 0.314521
-0.147529 -0.100024 0.450656
-0.297347 -0.0999756 0.367242
-0.219119 -0.0999265 0.397888
-0.221263 -0.0999018 0.387257
-0.267646 -0.0998528 0.355613
-0.271412 -0.0998282 0.344177
-0.329178 -0.0997806 0.306795
-0.173959 -0.0997316 0.375979
-0.180148 -0.0996856 0.364333
-0.390986 -0.0996366 0.250504
-0.204047 -0.0996166 0.334251
-0.152888 -0.0995678 0.351434
-0.280264 -0.0995434 0.278237
-0.252045 -0.0995006 0.283692
-0.285851 -0.0994518 0.258417
-0.293862 -0.0994106 0.245701
-0.25789 -0.099362 0.255329
-0.105478 -0.0993466 0.321639
-0.219545 -0.0992982 0.256259
-0.205787 -0.0992496 0.254803
-0.299775 -0.0992359 0.197853
-0.384505 -0.0991876 0.147163
-0.183735 -0.0991392 0.239234
-0.252774 -0.099103 0.195836
-0.337525 -0.0990789 0.144018
-0.219674 -0.0990306 0.19465
-0.0686724 -0.0989824 0.261868
-0.173802 -0.0989481 0.200367
-0.21008 -0.0989 0.173956
-0.259129 -0.098876 0.140021
-0.202759 -0.0988279 0.159952
-0.182199 -0.0987798 0.161989
-0.237548 -0.0987476 0.125318
-0.202382 -0.0987236 0.133511
-0.231456 -0.0986757 0.110748
-0.348954 -0.0986279 0.0437826
-0.423904 -0.09858 -0.00189938
-0.410365 -0.0985322 -0.0033272
-0.13066 -0.0985261 0.1263
-0.234678 -0.0984785 0.0660986
-0.24178 -0.0984308 0.0543649
-0.438278 -0.0983833 -0.0520575
-0.109001 -0.0983595 0.103245
-0.356306 -0.0983119 -0.0285655
-0.134385 -0.0982644 0.0742455
-0.109196 -0.0982169 0.0786987
-0.175649 -0.0981695 0.0373394
-0.2057 -0.0981458 0.0130098
-0.249523 -0.0980984 -0.0170198
-0.00204812 -0.0917218 0.935465
-0.146287 -0.0912753 0.871986
-0.0861575 -0.0910501 0.90094
-0.135311 -0.0908262 0.875255
-0.0880532 -0.0907152 0.892772
-0.0663881 -0.0905392 0.900436
-0.122419 -0.0904737 0.864322
-0.215112 -0.0903015 0.814707
0.0645432 -0.0902375 0.946414
-0.073918 -0.0901107 0.871926
-0.195834 -0.090048 0.802823
-0.0297572 -0.0899243 0.880521
-0.0499545 -0.0898632 0.862241
-0.233454 -0.0897429 0.765045
-0.0895317 -0.0896837 0.828778
-0.109383 -0.0896029 0.811636
-0.178188 -0.089545 0.768974
-0.340448 -0.0894656 0.680599
-0.239231 -0.0893758 0.724464
-0.211127 -0.0893209 0.730168
-0.15035 -0.0892446 0.753221
-0.195646 -0.0891913 0.722178
-0.293838 -0.0891167 0.665702
-0.150211 -0.0890652 0.729067
-0.216617 -0.0889923 0.688433
-0.38316 -0.0889426 0.596657
-0.152851 -0.0888716 0.704325
-0.103865 -0.0888274 0.720079
-0.238479 -0.0887548 0.645395
-0.199341 -0.0887106 0.656246
0.0109536 -0.0886647 0.752766
-0.252605 -0.0885978 0.613384
-0.137262 -0.0885536 0.662374
-0.132843 -0.0884891 0.656892
-0.269402 -0.0884473 0.579837
-0.256995 -0.0884034 0.577382
-0.184525 -0.0883593 0.604974
-0.20919 -0.0883012 0.584693
-0.253984 -0.0882572 0.55367
-0.358683 -0.0882132 0.49271
-0.264945 -0.0881596 0.531447
-0.149487 -0.0881235 0.5802
-0.243994 -0.0880666 0.525004
-0.359476 -0.0880358 0.458038
-0.190002 -0.087989 0.534355
-0.249504 -0.0879454 0.49604
-0.114212 -0.0879016 0.555138
-0.178717 -0.0878595 0.514262
-0.231811 -0.087816 0.479177
-0.383409 -0.0877858 0.394178
-0.243675 -0.0877351 0.455888
-0.120845 -0.0876987 0.508434
-0.400758 -0.0876639 0.359535
-0.400953 -0.0876205 0.350941
-0.310026 -0.0875771 0.387923
-0.251311 -0.0875472 0.408117
-0.0922806 -0.0875039 0.479158
-0.285244 -0.0874639 0.37405
-0.0788177 -0.0874368 0.467979
-0.229372 -0.0873936 0.384256
-0.162678 -0.0873503 0.409171
-0.263576 -0.0873279 0.349221
-0.285992 -0.0872848 0.329595
-0.187508 -0.0872415 0.370432
-0.203944 -0.0872199 0.352694
-0.347272 -0.0871774 0.272604
-0.194014 -0.0871342 0.340854
-0.0819721 -0.0871147 0.387266
-0.162644 -0.0870716 0.338564
-0.271895 -0.0870319 0.275406
-0.251578 -0.0869889 0.277214
-0.301937 -0.0869674 0.242558
-0.01047 -0.0869292 0.379707
-0.194714 -0.0868863 0.279258
-0.199959 -0.0868648 0.267176
-0.418448 -0.0868281 0.149293
-0.17978 -0.0867853 0.260323
-0.128568 -0.0867425 0.277636
-0.21172 -0.0867287 0.226218
-0.202461 -0.086686 0.222565
-0.21262 -0.0866433 0.209213
-0.0326573 -0.0866097 0.290443
-0.165624 -0.0865884 0.214544
-0.0795808 -0.0865458 0.249314
-0.110636 -0.0865033 0.225545
-0.225708 -0.0864713 0.159199
-0.166479 -0.0864501 0.179422
-0.228679 -0.0864077 0.140099
-0.2945 -0.0863654 0.0989762
-0.276938 -0.086323 0.0995549
-0.364333 -0.0862806 0.0476648
-0.0874263 -0.0862718 0.176076
-0.240756 -0.0862296 0.0912249
-0.132932 -0.0861874 0.136961
-0.209847 -0.0861452 0.0903361
-0.123107 -0.0861242 0.124371
-0.130026 -0.086082 0.112761
-0.273548 -0.0860399 0.032858
-0.0391766 -0.0859978 0.141911
-0.260164 -0.0859768 0.0221074
-0.110779 -0.0859347 0.088683
-0.192083 -0.0858927 0.0399222
-0.209878 -0.0858507 0.0229242
-0.125004 -0.0858298 0.0560768
-0.407422 -0.0857878 -0.0932181
0.0324906 -0.078504 0.936307
-0.224617 -0.0781589 0.81456
-0.176896 -0.0779274 0.839388
0.0195117 -0.0777739 0.934538
-0.0295016 -0.0776788 0.903955
0.0964139 -0.077528 0.963796
-0.252479 -0.0774718 0.78128
-0.291808 -0.0773243 0.758394
-0.154437 -0.0772694 0.818985
-0.153476 -0.0771608 0.814249
-0.108172 -0.0771071 0.828781
-0.146152 -0.0770011 0.804489
-0.279097 -0.0769488 0.729859
-0.183912 -0.0768777 0.77032
-0.276815 -0.0767951 0.717383
-0.265825 -0.0767565 0.714028
-0.402059 -0.0766762 0.639341
-0.172989 -0.076608 0.746665
-0.20041 -0.0765598 0.724678
-0.150253 -0.076493 0.742509
-0.298744 -0.076446 0.659944
-0.0858802 -0.0763806 0.759087
-0.124184 -0.0763351 0.731567
-0.229839 -0.0762711 0.671404
-0.105039 -0.0762271 0.725382
-0.176555 -0.0761647 0.682235
-0.0664186 -0.0761223 0.728823
-0.393761 -0.0760615 0.557705
-0.2293 -0.0760207 0.631391
-0.155309 -0.0759806 0.659807
-0.212823 -0.0759224 0.623505
-0.296443 -0.0758843 0.573034
-0.208366 -0.0758461 0.608429
-0.330357 -0.0757897 0.539831
-0.260607 -0.0757516 0.566079
-0.216006 -0.0756986 0.580607
-0.164132 -0.0756607 0.597934
-0.277585 -0.0756261 0.532414
-0.166735 -0.0755881 0.57925
-0.277111 -0.0755501 0.515488
-0.27798 -0.0755029 0.507014
-0.236685 -0.075465 0.519102
-0.17821 -0.0754216 0.54011
-0.233603 -0.0753955 0.503189
-0.220581 -0.0753542 0.501373
-0.294314 -0.0753165 0.45598
-0.313639 -0.0752787 0.437805
-0.258157 -0.0752414 0.457016
-0.214705 -0.0752037 0.470241
-0.245385 -0.0751772 0.445758
-0.194557 -0.0751329 0.463088
-0.303386 -0.075102 0.399805
-0.111653 -0.0750643 0.487216
-0.0207783 -0.0750334 0.523799
-0.347711 -0.0749959 0.351886
-0.224185 -0.0749727 0.404362
-0.279945 -0.0749318 0.36826
-0.191083 -0.0748978 0.404065
-0.222881 -0.0748733 0.378975
-0.250858 -0.074836 0.356576
-0.344041 -0.0748008 0.301457
-0.316767 -0.0747788 0.30578
-0.258861 -0.0747413 0.326364
-0.201851 -0.0747043 0.346485
-0.191268 -0.0746856 0.342279
-0.0204309 -0.0746483 0.419349
-0.172056 -0.0746112 0.335184
-0.259412 -0.074574 0.283174
-0.200083 -0.0745553 0.303369
-0.207271 -0.0745195 0.291372
-0.382963 -0.0744823 0.195219
-0.0962241 -0.0744663 0.328979
-0.255168 -0.0744292 0.241211
-0.253108 -0.0743921 0.233956
0.00783493 -0.0743736 0.354995
-0.396236 -0.0743403 0.144451
-0.341829 -0.0743033 0.163392
0.0475108 -0.0742714 0.349495
-0.123156 -0.0742529 0.254749
-0.061621 -0.0742161 0.277275
-0.326926 -0.0741792 0.136393
-0.238931 -0.0741607 0.171
-0.181978 -0.0741303 0.190855
-0.17798 -0.0740935 0.184643
-0.327481 -0.0740568 0.101693
-0.175185 -0.07402 0.169651
-0.417443 -0.0740016 0.0391624
-0.310534 -0.0739728 0.0839362
-0.217723 -0.0739362 0.122169
-0.0402303 -0.0739179 0.201571
-0.15758 -0.0738813 0.134741
-0.0211541 -0.0738447 0.194809
-0.14266 -0.0738082 0.125921
-0.408053 -0.0737899 -0.0160935
-0.239073 -0.073763 0.0596511
-0.0328674 -0.0737266 0.154634
-0.302966 -0.0736902 0.0114724
-0.251929 -0.0736721 0.0276938
-0.169582 -0.0736358 0.0607715
-0.266031 -0.0735995 0.00445979
-0.302772 -0.0735632 -0.0219898
-0.223851 -0.0735451 0.00819846
-0.161171 -0.0735089 0.0314749
0.0358216 -0.0653237 0.921653
-0.0625715 -0.0650676 0.877398
0.0719387 -0.0648747 0.945697
-0.188594 -0.0647785 0.81043
-0.225099 -0.0646676 0.788139
-0.244973 -0.0645728 0.773177
-0.0894205 -0.0644951 0.844872
-0.0484896 -0.0644022 0.860256
-0.120487 -0.0643266 0.818096
-0.258597 -0.0642649 0.74201
-0.138111 -0.0641914 0.796013
-0.224245 -0.0641308 0.745889
-0.00224634 -0.0640595 0.850547
-0.0581067 -0.0640002 0.81552
-0.153627 -0.0639576 0.759601
-0.102682 -0.0638992 0.777955
-0.202085 -0.0638325 0.721702
-0.188095 -0.0638002 0.719911
-0.19867 -0.0637355 0.707975
-0.271217 -0.0637032 0.662941
-0.284982 -0.0636408 0.649302
-0.167654 -0.0636024 0.699641
-0.29678 -0.0635484 0.627795
-0.221476 -0.0635162 0.656735
-0.185548 -0.0634586 0.667699
-0.292053 -0.0634264 0.605757
-0.160134 -0.0633713 0.664579
-0.181215 -0.0633392 0.645371
-0.287422 -0.0633047 0.583777
-0.266363 -0.0632548 0.586867
-0.297847 -0.0632216 0.562566
-0.0524672 -0.0631732 0.677748
-0.291524 -0.0631572 0.548516
-0.124834 -0.0631095 0.624328
-0.0856893 -0.0630775 0.63531
-0.153045 -0.0630324 0.593952
-0.199507 -0.0630005 0.562147
-0.210933 -0.0629711 0.547697
-0.23195 -0.0629392 0.528636
-0.258083 -0.0629073 0.507032
-0.350303 -0.062867 0.452974
-0.251139 -0.0628352 0.494033
-0.131468 -0.062798 0.545732
-0.275394 -0.0627663 0.46526
-0.232547 -0.062741 0.477736
-0.0707066 -0.0627093 0.550166
-0.297355 -0.0626776 0.428365
-0.284364 -0.0626455 0.426424
-0.141998 -0.0626139 0.489142
-0.230502 -0.0625898 0.435903
-0.245434 -0.0625596 0.419892
-0.332529 -0.0625281 0.36791
-0.136421 -0.0625063 0.456836
-0.0677417 -0.0624697 0.483123
-0.0662234 -0.0624432 0.475113
-0.224137 -0.0624116 0.387767
-0.198843 -0.0623869 0.391536
-0.33824 -0.0623555 0.313456
-0.181241 -0.0623365 0.382676
-0.0643264 -0.0623028 0.432939
-0.0276805 -0.0622738 0.442734
-0.167759 -0.0622544 0.363474
-0.235675 -0.0622231 0.321167
-0.289873 -0.0621931 0.28564
-0.257261 -0.0621758 0.292598
-0.322337 -0.0621446 0.251737
-0.243921 -0.0621134 0.282634
-0.262465 -0.0620978 0.263906
-0.014715 -0.0620666 0.379491
-0.169353 -0.0620354 0.293895
-0.213545 -0.0620197 0.262366
-0.24187 -0.0619894 0.239876
-0.251657 -0.0619582 0.226729
-0.20904 -0.0619271 0.239795
-0.329335 -0.0619134 0.170094
-0.258325 -0.0618823 0.197367
-0.158571 -0.0618513 0.239023
-0.307768 -0.0618357 0.155036
-0.332816 -0.0618077 0.134077
-0.248314 -0.0617767 0.168128
-0.361423 -0.0617457 0.103385
-0.127604 -0.0617302 0.21093
-0.03055 -0.0617035 0.250964
-0.220903 -0.0616726 0.147618
-0.287464 -0.0616417 0.106178
-0.143723 -0.0616263 0.168708
-0.0846694 -0.0615955 0.190093
-0.248556 -0.06157 0.0995962
-0.329034 -0.0615547 0.0500312
-0.162983 -0.061524 0.124932
-0.215387 -0.0614933 0.0906152
-0.303882 -0.0614626 0.0382622
-0.142984 -0.0614472 0.109412
-0.316624 -0.0614166 0.0145031
-0.195194 -0.0613859 0.0671377
-0.279813 -0.0613706 0.0155486
-0.241019 -0.06134 0.0268809
-0.079833 -0.0613094 0.0994184
-0.187555 -0.0612789 0.0375102
-0.189007 -0.0612636 0.0275301
-0.212965 -0.0612331 0.00751901
-0.177868 -0.0521814 0.798594
-0.171339 -0.0520018 0.804907
-0.0742612 -0.0518476 0.854564
-0.0947952 -0.0517836 0.838306
-0.115189 -0.0516819 0.825153
-0.161938 -0.0516307 0.794825
-0.150626 -0.0515439 0.796406
-0.125659 -0.0514935 0.801928
-0.120975 -0.0514327 0.798168
-0.0599107 -0.051383 0.821726
-0.0863615 -0.0513238 0.802324
-0.182516 -0.0512749 0.747249
-0.182427 -0.0512174 0.741021
-0.25658 -0.0511696 0.696909
-0.152723 -0.0511141 0.742445
-0.080509 -0.051088 0.769775
-0.206406 -0.0510341 0.70035
-0.143303 -0.0510012 0.723714
-0.154811 -0.0509557 0.710827
-0.110569 -0.0509237 0.724719
-0.178465 -0.0508791 0.683599
-0.0843055 -0.050848 0.722405
-0.204537 -0.0508044 0.655072
-0.177262 -0.0507742 0.660385
-0.427531 -0.0507316 0.527983
-0.389096 -0.0507024 0.538819
-0.227567 -0.0506608 0.612261
-0.18893 -0.050635 0.622948
-0.276312 -0.0506069 0.570821
-0.164899 -0.0505665 0.619157
-0.150642 -0.0505395 0.617782
-0.272252 -0.0505002 0.549539
-0.16592 -0.0504873 0.593023
-0.181022 -0.0504487 0.578009
-0.398487 -0.0504229 0.460723
-0.293447 -0.050386 0.505653
-0.295533 -0.0503603 0.496073
-0.217564 -0.0503364 0.526377
-0.231081 -0.0503107 0.511102
-0.147824 -0.0502849 0.544229
-0.141402 -0.0502519 0.539585
-0.305858 -0.0502262 0.44887
-0.260693 -0.0502043 0.462654
-0.276084 -0.0501786 0.446491
-0.150568 -0.0501494 0.501108
-0.160072 -0.0501239 0.487901
-0.138462 -0.0500984 0.490266
-0.247508 -0.0500784 0.426814
-0.353339 -0.0500529 0.365476
-0.279811 -0.0500274 0.393831
-0.431646 -0.0500024 0.309462
-0.173305 -0.049977 0.430234
-0.0794318 -0.0499591 0.4681
-0.119615 -0.0499338 0.439626
-0.341994 -0.0499083 0.320068
-0.242321 -0.0498913 0.360788
-0.371722 -0.0498623 0.288065
-0.0751061 -0.0498406 0.427702
-0.126419 -0.0498214 0.393148
-0.26268 -0.0497961 0.316684
-0.13337 -0.0497736 0.372766
-0.291929 -0.0497561 0.284467
-0.212586 -0.0497309 0.315832
-0.315438 -0.0497076 0.255932
-0.253459 -0.0496917 0.277776
-0.221627 -0.0496659 0.285473
-0.29186 -0.0496414 0.242026
-0.18017 -0.0496282 0.28849
-0.282677 -0.0496031 0.22898
-0.192092 -0.049578 0.266028
-0.0421004 -0.0495655 0.331613
-0.198177 -0.0495403 0.24535
-0.191703 -0.0495152 0.240374
-0.38746 -0.0495026 0.133108
-0.178615 -0.0494781 0.229279
-0.274625 -0.049453 0.173083
-0.379643 -0.0494279 0.112395
-0.205482 -0.0494154 0.190113
-0.178783 -0.0493919 0.195157
-0.31714 -0.0493669 0.117819
-0.299656 -0.0493544 0.117215
-0.23169 -0.0493294 0.143057
-0.183439 -0.0493069 0.15882
-0.364191 -0.0492944 0.0591133
-0.342857 -0.0492695 0.0616585
-0.283935 -0.0492447 0.0830074
-0.180493 -0.0492198 0.126626
-0.303145 -0.0492074 0.0559983
-0.1503 -0.0491826 0.124335
-0.277004 -0.0491577 0.0529085
-0.163494 -0.0491489 0.100028
-0.19895 -0.0491242 0.0742315
-0.229605 -0.0490995 0.0508441
-0.28323 -0.0490748 0.0159807
-0.35704 -0.0490625 -0.0301856
-0.257186 -0.0490378 0.0117062
-0.226775 -0.0490132 0.0188855
-0.181196 -0.0490009 0.0324323
-0.0849929 -0.0489763 0.0725225
-0.107881 -0.0391156 0.813458
-0.0856639 -0.0389619 0.829713
-0.120004 -0.0388653 0.811706
-0.210961 -0.0388173 0.76028
-0.033709 -0.0387407 0.846027
-0.187786 -0.0386934 0.763016
-0.0264773 -0.0386368 0.838735
-0.0473562 -0.0385906 0.822266
-0.120593 -0.0385352 0.78064
0.0121277 -0.0385077 0.838995
-0.0875821 -0.0384535 0.78406
-0.0851968 -0.0384267 0.777218
-0.213399 -0.0383738 0.707941
-0.218023 -0.0383541 0.69686
-0.23408 -0.0383121 0.682511
-0.260429 -0.0382866 0.661231
-0.24039 -0.0382515 0.664212
-0.0554261 -0.0382266 0.748555
-0.315099 -0.0381777 0.613253
-0.257097 -0.0381678 0.632472
-0.0942833 -0.0381202 0.70831
-0.214516 -0.0381104 0.638433
-0.0873968 -0.0380773 0.694842
-0.0809481 -0.0380544 0.689793
-0.118069 -0.0380221 0.664032
-0.196067 -0.0379999 0.616705
-0.0345295 -0.0379684 0.690219
-0.292464 -0.0379488 0.552657
-0.171309 -0.0379275 0.604853
-0.13855 -0.0378968 0.61393
-0.109233 -0.0378762 0.62014
-0.239568 -0.0378464 0.547604
-0.261194 -0.0378367 0.527132
-0.185588 -0.0378073 0.557541
-0.132222 -0.0377878 0.575707
-0.291704 -0.0377596 0.488465
-0.205221 -0.0377401 0.523206
-0.09622 -0.0377219 0.569083
-0.291957 -0.0377024 0.462734
-0.243561 -0.037683 0.478466
-0.172022 -0.0376576 0.506472
-0.201148 -0.0376458 0.482573
-0.0863404 -0.0376214 0.532121
-0.0897342 -0.0376021 0.521992
-0.218205 -0.0375858 0.448975
-0.173258 -0.0375603 0.463763
-0.311558 -0.0375471 0.385487
-0.0716432 -0.0375257 0.497294
-0.0795528 -0.0375065 0.484952
-0.36761 -0.0374917 0.332007
-0.233289 -0.0374678 0.391352
-0.167871 -0.0374532 0.415149
-0.31263 -0.0374391 0.33381
-0.0730277 -0.0374158 0.445759
-0.137693 -0.0374006 0.404612
-0.272157 -0.0373835 0.328801
-0.231278 -0.0373644 0.340922
-0.174022 -0.0373486 0.360833
-0.153938 -0.0373327 0.362178
-0.327366 -0.0373136 0.267172
-0.259581 -0.0373017 0.291906
-0.312863 -0.0372826 0.256987
-0.154435 -0.0372635 0.327936
-0.45165 -0.0372522 0.170117
-0.305099 -0.0372332 0.235141
-0.127846 -0.0372141 0.315527
-0.291808 -0.0372034 0.22428
-0.281818 -0.0371845 0.221048
-0.217566 -0.0371655 0.244959
-0.285688 -0.0371554 0.201576
-0.13883 -0.0371365 0.266802
-0.334804 -0.0371175 0.160622
-0.182316 -0.037099 0.22864
-0.165227 -0.0370891 0.227863
-0.238928 -0.0370702 0.182851
-0.217203 -0.0370512 0.185563
-0.233184 -0.0370418 0.168227
-0.314894 -0.0370232 0.119196
-0.273381 -0.0370043 0.131823
-0.385625 -0.0369949 0.0663721
-0.245288 -0.036976 0.128429
-0.266839 -0.0369571 0.109553
-0.167538 -0.0369477 0.149896
-0.459846 -0.03693 -0.00448843
-0.195748 -0.0369112 0.119478
-0.113558 -0.0369018 0.151281
-0.262676 -0.036883 0.0686571
-0.141189 -0.0368642 0.121345
-0.311157 -0.0368455 0.0283143
-0.158009 -0.0368361 0.0956239
-0.280443 -0.0368174 0.0263773
-0.217941 -0.0367986 0.0496074
-0.281114 -0.0367893 0.00877581
-0.198352 -0.0367706 0.0421517
-0.022345 -0.0367519 0.122159
-0.133581 -0.0367425 0.0573148
-0.296889 -0.0367239 -0.0323197
0.0646694 -0.0260506 0.881676
-0.0320342 -0.0259481 0.838573
-0.0268574 -0.0259092 0.836307
-0.0557768 -0.0258517 0.820022
-0.0767117 -0.0258006 0.80673
0.0397179 -0.0257815 0.857007
-0.200427 -0.0257314 0.734043
-0.0487592 -0.0257126 0.801929
-0.173838 -0.0256754 0.734456
-0.125376 -0.025657 0.750723
-0.131424 -0.0256206 0.742697
-0.0849907 -0.0256026 0.757922
0.0153288 -0.0255671 0.80299
-0.0539845 -0.0255496 0.760301
-0.128396 -0.0255256 0.716144
-0.127193 -0.0255084 0.708687
-0.0975791 -0.0254747 0.718208
-0.128649 -0.0254681 0.692892
-0.151632 -0.0254351 0.676026
-0.192974 -0.0254285 0.645595
-0.129841 -0.0253964 0.671685
0.0230742 -0.0253898 0.738404
-0.0646965 -0.0253587 0.688931
-0.287374 -0.0253521 0.567874
-0.29588 -0.0253303 0.556487
-0.123465 -0.0253153 0.634419
-0.384444 -0.025294 0.496742
-0.245367 -0.0252796 0.557945
-0.175568 -0.0252589 0.585598
-0.123527 -0.0252458 0.60308
-0.192298 -0.0252319 0.560301
-0.245545 -0.0252182 0.525249
-0.297099 -0.0252052 0.490964
-0.184251 -0.0251853 0.540063
-0.225468 -0.0251723 0.51096
-0.202516 -0.025153 0.515039
-0.281464 -0.0251461 0.466026
-0.222872 -0.0251276 0.487828
-0.362278 -0.0251146 0.40968
-0.234327 -0.0251025 0.465053
-0.147563 -0.0250842 0.500935
-0.344929 -0.0250764 0.392917
0.0188336 -0.0250598 0.567034
-0.267007 -0.0250468 0.415717
-0.230587 -0.0250357 0.425203
-0.467254 -0.0250227 0.298492
-0.213686 -0.025012 0.416509
-0.222649 -0.0249951 0.404373
-0.248141 -0.0249861 0.382575
-0.0782359 -0.0249721 0.459369
-0.201239 -0.0249592 0.389532
-0.226125 -0.0249498 0.368132
-0.27723 -0.0249366 0.334312
-0.301895 -0.0249238 0.313674
-0.223036 -0.0249145 0.344154
-0.19742 -0.0249016 0.348671
-0.0333604 -0.0248887 0.422423
-0.264787 -0.0248798 0.297713
-0.234744 -0.0248648 0.304865
-0.258994 -0.0248541 0.284097
-0.259735 -0.0248456 0.27468
-0.27142 -0.0248311 0.260923
-0.249815 -0.02482 0.263181
-0.274732 -0.0248119 0.241624
-0.158832 -0.0247978 0.291612
-0.166066 -0.0247914 0.278595
-0.211333 -0.0247786 0.247763
-0.0644865 -0.024765 0.313174
-0.330881 -0.0247543 0.171409
-0.14577 -0.0247459 0.254977
-0.0294267 -0.0247332 0.304986
-0.0672308 -0.0247212 0.277787
-0.212333 -0.0247136 0.196116
-0.26935 -0.0247009 0.159467
-0.406696 -0.0246886 0.0825951
-0.154229 -0.0246819 0.199574
-0.194644 -0.0246692 0.171246
-0.175327 -0.0246566 0.172803
-0.130563 -0.0246502 0.185874
-0.130848 -0.0246376 0.177649
-0.310108 -0.0246249 0.0799471
-0.197131 -0.0246185 0.127146
-0.173548 -0.0246059 0.130883
-0.321229 -0.0245932 0.0489979
-0.216543 -0.0245869 0.0920711
-0.209872 -0.0245746 0.08731
-0.165213 -0.024562 0.101612
-0.231541 -0.0245557 0.059194
-0.128468 -0.0245431 0.10272
-0.162931 -0.0245305 0.0774872
-0.165123 -0.0245242 0.0671562
-0.192989 -0.0245117 0.0452384
-0.216242 -0.0244991 0.0256353
-0.184268 -0.0244928 0.0324066
-0.196696 -0.0244803 0.0182315
0.00525849 -0.0130183 0.831971
-0.178804 -0.0129671 0.745256
-0.107402 -0.0129446 0.777128
-0.0267956 -0.0129188 0.814696
-0.298191 -0.0128995 0.674218
-0.227445 -0.0128774 0.705733
-0.0342423 -0.0128584 0.797513
-0.0117825 -0.012843 0.8028
-0.132038 -0.0128303 0.735845
-0.127235 -0.0128152 0.732244
-0.24623 -0.0128027 0.665902
-0.16524 -0.012788 0.700312
-0.183768 -0.0127758 0.684173
-0.206721 -0.0127669 0.664709
-0.16391 -0.0127548 0.679224
-0.220104 -0.0127462 0.643115
-0.303688 -0.0127343 0.594409
-0.227617 -0.0127208 0.626091
-0.0928737 -0.0127092 0.686488
-0.270244 -0.012701 0.589694
-0.111922 -0.0126896 0.661843
-0.340123 -0.0126817 0.539588
-0.359102 -0.0126751 0.521515
-0.245757 -0.0126672 0.570017
-0.110566 -0.0126562 0.630546
-0.155856 -0.0126486 0.599677
-0.0702007 -0.0126379 0.635385
-0.242704 -0.0126306 0.540851
0.0174276 -0.0126201 0.663738
-0.186773 -0.0126168 0.551995
-0.167325 -0.0126064 0.554519
-0.354844 -0.0125998 0.45228
-0.264268 -0.0125929 0.489201
-0.212638 -0.0125829 0.507761
-0.150812 -0.0125763 0.530235
-0.209276 -0.0125697 0.492562
-0.179983 -0.0125631 0.498784
-0.149316 -0.0125536 0.506713
-0.104944 -0.0125501 0.519433
-0.374417 -0.0125409 0.377207
-0.252285 -0.0125344 0.429884
-0.168273 -0.0125284 0.463306
-0.201545 -0.0125193 0.439206
-0.319762 -0.0125153 0.370835
-0.302278 -0.0125071 0.371811
-0.259593 -0.0125006 0.38481
-0.0592012 -0.0124951 0.476297
-0.123928 -0.0124886 0.435608
-0.15865 -0.0124833 0.409495
-0.192645 -0.0124768 0.384189
-0.33109 -0.0124703 0.306672
-0.0641676 -0.0124652 0.431339
-0.0999979 -0.012457 0.405762
-0.392235 -0.0124522 0.250761
-0.324157 -0.0124473 0.275963
-0.248775 -0.0124393 0.305953
-0.267097 -0.012436 0.287356
-0.0658457 -0.0124296 0.379747
-0.203816 -0.0124231 0.302539
-0.11006 -0.0124186 0.340483
-0.137044 -0.012411 0.319201
-0.160794 -0.0124056 0.298713
-0.374258 -0.0124013 0.182996
-0.1164 -0.0123939 0.304088
-0.150884 -0.0123884 0.27833
-0.278514 -0.0123843 0.205478
-0.177059 -0.0123779 0.248047
-0.360683 -0.0123723 0.147772
-0.129189 -0.0123675 0.254745
-0.426884 -0.0123611 0.0977629
-0.182377 -0.0123554 0.21165
-0.154416 -0.012351 0.216725
-0.255992 -0.0123446 0.157825
-0.231061 -0.0123414 0.160966
-0.127285 -0.012335 0.204761
-0.244836 -0.0123287 0.137903
-0.263275 -0.0123227 0.120465
-0.159407 -0.0123189 0.163338
-0.0862103 -0.0123125 0.191873
-0.286782 -0.0123093 0.0823018
-0.125999 -0.012303 0.154648
-0.269212 -0.0122966 0.0750065
-0.2041 -0.0122934 0.0982973
-0.28915 -0.0122871 0.047755
-0.160087 -0.0122807 0.104278
-0.252912 -0.0122776 0.0486207
-0.232438 -0.0122712 0.0508664
-0.275477 -0.0122649 0.0213649
-0.294542 -0.0122617 0.00260677
-0.187854 -0.0122554 0.0479897
-0.182422 -0.012249 0.042758
-0.29109 -0.0122459 -0.0207776
-0.212596 -0.0122396 0.0105093
0.218721 0 0.91689
-0.137245 0 0.742379
-0.0504783 0 0.785147
-0.02321 0 0.790907
0.0434651 0 0.82155
-0.0530726 0 0.765413
-0.0678885 0 0.755233
-0.0910303 0 0.735779
-0.0705612 0 0.741181
-0.201165 0 0.667977
-0.126594 0 0.700355
-0.0374316 0 0.737003
-0.0487839 0 0.724502
-0.00404434 0 0.74004
-0.126044 0 0.672845
-0.289376 0 0.582555
-0.116513 0 0.662707
-0.111346 0 0.656693
-0.218511 0 0.596736
-0.168049 0 0.613395
-0.0857988 0 0.64804
-0.326476 0 0.519154
-0.197297 0 0.575624
-0.140106 0 0.597218
-0.266648 0 0.525776
-0.232564 0 0.535764
-0.292438 0 0.496188
-0.136601 0 0.567036
-0.28397 0 0.485099
-0.444594 0 0.397656
-0.271907 0 0.474395
-0.347951 0 0.42922
-0.167096 0 0.5113
-0.106221 0 0.533321
-0.256917 0 0.450761
-0.197821 0 0.471893
-0.102351 0 0.511243
-0.210227 0 0.448856
-0.168753 0 0.462274
-0.237174 0 0.418668
-0.158223 0 0.450657
-0.346043 0 0.348411
-0.401317 0 0.312209
-0.219979 0 0.39456
-0.35529 0 0.3183
-0.228978 0 0.373156
-0.200825 0 0.378947
-0.14551 0 0.397961
-0.295678 0 0.315377
-0.203262 0 0.352562
-0.0411374 0 0.42494
-0.245408 0 0.314566
-0.262088 0 0.297496
-0.301309 0 0.270307
-0.123613 0 0.350301
-0.175654 0 0.315506
-0.114188 0 0.33862
-0.306465 0 0.233082
-0.230584 0 0.262842
-0.162073 0 0.288929
-0.156436 0 0.282875
-0.296589 0 0.204644
-0.310636 0 0.189478
-0.299572 0 0.186086
-0.396796 0 0.129344
-0.083891 0 0.277263
-0.27394 0 0.173677
-0.256629 0 0.174226
-0.227474 0 0.179478
-0.227731 0 0.171263
-0.221425 0 0.166616
-0.226657 0 0.154693
-0.209952 0 0.15498
-0.0142557 0 0.244773
-0.192372 0 0.146429
-0.176053 0 0.146553
-0.324156 0 0.0646541
-0.105506 0 0.16471
-0.239653 0 0.0896197
-0.412743 0 -0.00493225
-0.150272 0 0.117055
-0.0748801 0 0.146761
-0.229223 0 0.0616093
-0.190848 0 0.071568
-0.193709 0 0.0621742
-0.367551 0 -0.0339631
-0.212825 0 0.0354527
-0.232205 0 0.0178241
-0.164452 0 0.0425036
-0.259741 0 -0.0130352
-0.0254518 0.0129753 0.77496
-0.0275829 0.0129303 0.77744
-0.187413 0.0129142 0.69174
-0.0306354 0.0128884 0.767533
0.0279889 0.0128628 0.794227
-0.0870339 0.0128471 0.73091
-0.0535101 0.0128281 0.742958
-0.24885 0.0128187 0.637444
-0.0655656 0.0128 0.724327
-0.126973 0.0127907 0.685762
-0.0983352 0.0127724 0.695253
-0.139843 0.0127634 0.666609
-0.180215 0.012751 0.639656
-0.183448 0.0127421 0.630129
-0.270085 0.0127246 0.581823
-0.0811807 0.0127212 0.666545
-0.262538 0.0127041 0.570802
-0.223022 0.0127007 0.580851
-0.194781 0.012684 0.589819
0.0061124 0.0126806 0.680579
-0.149774 0.0126643 0.597385
-0.0566839 0.0126609 0.634263
-0.278237 0.0126495 0.516572
-0.0445948 0.0126416 0.625299
-0.0728367 0.0126305 0.604216
-0.0681044 0.0126238 0.598116
-0.330124 0.0126162 0.458966
-0.129322 0.0126087 0.551198
-0.229882 0.012598 0.493884
-0.261846 0.0125913 0.46948
-0.239256 0.012584 0.47255
-0.178909 0.0125736 0.495638
-0.244118 0.0125702 0.453469
-0.0431873 0.01256 0.546825
-0.0804876 0.0125532 0.519852
-0.119827 0.0125465 0.491821
0.0176064 0.0125398 0.552193
-0.0723529 0.01253 0.499993
-0.286449 0.0125234 0.384615
-0.22443 0.012517 0.407196
-0.156021 0.0125104 0.433089
-0.241035 0.0125042 0.382117
-0.193072 0.0124976 0.397807
-0.165286 0.0124909 0.403422
-0.239936 0.0124849 0.357597
-0.134111 0.0124758 0.403165
-0.241153 0.0124725 0.340188
-0.215598 0.0124635 0.345583
-0.243407 0.0124592 0.32259
-0.132943 0.0124536 0.369244
-0.124482 0.0124448 0.366058
-0.303144 0.0124415 0.267307
-0.127895 0.0124329 0.347473
-0.211424 0.0124283 0.296788
-0.165259 0.0124231 0.311204
-0.142309 0.0124147 0.315181
-0.316277 0.0124099 0.219372
0.0293327 0.0124049 0.383465
-0.2647 0.0123967 0.22891
-0.326744 0.0123934 0.188524
-0.202813 0.0123869 0.242362
-0.172882 0.0123803 0.249212
-0.188697 0.0123756 0.232493
-0.271771 0.0123691 0.182854
-0.182505 0.0123639 0.218882
-0.258102 0.0123581 0.172734
-0.185017 0.0123516 0.201198
-0.257052 0.0123484 0.15587
-0.234324 0.0123419 0.159175
-0.288252 0.0123353 0.124163
-0.193467 0.0123311 0.16264
-0.282459 0.0123246 0.110106
-0.26241 0.0123191 0.111747
-0.199831 0.0123149 0.134123
-0.242959 0.0123085 0.10455
-0.119475 0.0123052 0.157035
-0.24426 0.0122987 0.0866517
-0.112084 0.0122916 0.145027
-0.258743 0.0122884 0.0624574
-0.219129 0.0122819 0.0742924
-0.189678 0.0122755 0.0810557
-0.281674 0.0122723 0.0258377
-0.152582 0.0122658 0.0824381
-0.253689 0.0122594 0.0239481
-0.14318 0.0122562 0.0700023
-0.191247 0.0122498 0.0380485
-0.211281 0.0122466 0.0188432
-0.312753 0.0122402 -0.0397969
-0.0396401 0.0259038 0.742262
-0.0110653 0.0258138 0.760239
0.0492175 0.0257622 0.787852
-0.146288 0.0257302 0.684368
-0.0129772 0.0256792 0.748457
-0.166935 0.0256601 0.663678
-0.108097 0.0256221 0.688446
-0.115139 0.0255965 0.678257
-0.0235208 0.025566 0.718227
-0.124807 0.0255406 0.660902
-0.0680939 0.0255109 0.683341
-0.149005 0.0254928 0.635029
0.0819185 0.0254681 0.743773
-0.154263 0.0254435 0.618957
-0.0217814 0.025426 0.677309
-0.356635 0.0254018 0.503135
-0.304748 0.0253846 0.52116
-0.280726 0.0253608 0.526396
-0.267801 0.025344 0.524904
-0.131 0.0253206 0.586495
-0.136632 0.0253042 0.575683
-0.136338 0.0252813 0.568979
-0.269412 0.0252653 0.494399
-0.152463 0.0252429 0.545976
-0.0965373 0.0252361 0.564331
-0.145341 0.0252139 0.533018
-0.217488 0.0251987 0.488827
-0.236927 0.025177 0.47214
-0.243553 0.0251703 0.459256
-0.175514 0.0251489 0.486288
-0.306157 0.0251354 0.412601
-0.343436 0.0251211 0.385764
-0.222755 0.025107 0.437872
-0.244164 0.0250936 0.418831
-0.258986 0.0250731 0.404353
-0.21783 0.0250663 0.41542
-0.131825 0.0250461 0.451328
-0.227731 0.0250394 0.393881
-0.228631 0.0250196 0.386306
-0.254021 0.0250062 0.365339
-0.222658 0.0249933 0.372658
-0.109692 0.0249741 0.421945
-0.101684 0.0249675 0.416492
-0.264947 0.0249486 0.327629
-0.110021 0.0249407 0.395868
-0.397867 0.0249286 0.24351
-0.169398 0.0249101 0.350484
-0.15269 0.0249035 0.34942
-0.166062 0.0248853 0.335434
-0.231178 0.0248768 0.293816
-0.24386 0.0248654 0.27896
-0.393463 0.0248477 0.196825
-0.184161 0.024841 0.292093
-0.18452 0.0248237 0.284536
-0.10863 0.0248145 0.313587
-0.241205 0.0248038 0.238697
-0.277832 0.0247869 0.212966
-0.175858 0.0247803 0.254604
-0.108399 0.0247671 0.280233
-0.084477 0.0247575 0.283424
-0.139923 0.024744 0.247682
-0.141295 0.0247309 0.238921
-0.183725 0.0247243 0.208391
-0.306709 0.0247111 0.138844
-0.182539 0.024698 0.192884
-0.253293 0.0246886 0.148761
-0.13554 0.0246755 0.199604
-0.170258 0.0246651 0.173694
-0.290068 0.0246558 0.105046
-0.255369 0.0246427 0.114392
-0.36572 0.0246338 0.050419
-0.195978 0.0246207 0.127298
-0.289754 0.0246077 0.0724277
-0.270512 0.0246012 0.072807
-0.249023 0.0245881 0.0755874
-0.270621 0.0245773 0.056409
-0.334719 0.0245686 0.0155644
-0.228288 0.0245556 0.0608434
-0.285408 0.0245491 0.0230752
-0.358995 0.0245361 -0.0216381
-0.127018 0.0245214 0.0867769
-0.178905 0.0245149 0.0516414
-0.399386 0.024502 -0.066502
-0.286503 0.0244955 -0.0192398
-0.327518 0.0244826 -0.0476341
-0.0341916 0.0388524 0.723214
-0.067698 0.0387177 0.71021
0.00548628 0.0386692 0.741112
-0.252205 0.0385729 0.611902
-0.279972 0.0385334 0.591403
-0.114478 0.0384674 0.670512
-0.0927067 0.0384102 0.676815
-0.16725 0.0383818 0.631775
-0.173397 0.0383255 0.624074
-0.0260674 0.0382976 0.689955
-0.19325 0.0382424 0.601667
-0.205115 0.0382321 0.586005
-0.110228 0.0381777 0.628704
-0.146472 0.0381509 0.60275
-0.146013 0.0381141 0.596301
-0.184342 0.0380878 0.569279
-0.173986 0.0380515 0.567755
-0.210707 0.0380257 0.541506
-0.148441 0.03799 0.565907
-0.359629 0.0379649 0.452387
-0.220306 0.0379298 0.51528
-0.0882788 0.0379196 0.571676
-0.120639 0.0378849 0.54872
-0.11031 0.0378607 0.5459
-0.129697 0.0378268 0.529384
-0.0765354 0.0378063 0.547579
-0.416026 0.0377829 0.369805
-0.132742 0.0377497 0.504585
-0.0674294 0.0377271 0.529154
-0.146742 0.0377067 0.481155
-0.130358 0.0376845 0.481235
-0.161314 0.0376525 0.458815
-0.233629 0.0376423 0.413141
-0.122285 0.0376108 0.461848
-0.283788 0.0376006 0.371597
-0.134468 0.0375696 0.439267
-0.27112 0.0375493 0.362673
-0.277389 0.0375288 0.351305
-0.217088 0.0374987 0.3744
0.0106621 0.0374886 0.478816
-0.169596 0.0374589 0.3816
-0.250311 0.0374481 0.331885
-0.318526 0.0374287 0.289481
-0.22385 0.0374085 0.328622
-0.155056 0.0373895 0.354685
-0.268504 0.0373609 0.290814
-0.246487 0.0373508 0.292417
-0.317756 0.0373228 0.249598
-0.191588 0.0373106 0.303556
-0.145005 0.0372927 0.318437
-0.463319 0.0372652 0.152063
-0.303365 0.0372552 0.222671
-0.0721754 0.0372352 0.330149
-0.182696 0.0372183 0.26639
-0.207669 0.0371983 0.245802
-0.186322 0.0371783 0.248387
-0.239435 0.0371683 0.212498
-0.333687 0.0371421 0.158087
-0.286328 0.0371283 0.172928
-0.250345 0.0371122 0.182384
-0.374453 0.0370866 0.113002
-0.163947 0.0370767 0.208955
-0.328942 0.0370568 0.118428
-0.232685 0.0370425 0.15784
-0.185086 0.037027 0.17306
-0.264352 0.0370022 0.126065
-0.0856969 0.0369923 0.206126
-0.145236 0.0369725 0.168369
-0.26406 0.0369528 0.10098
-0.361866 0.0369429 0.0428322
-0.233282 0.0369231 0.099166
-0.151356 0.0369132 0.130897
-0.136686 0.0368893 0.130835
-0.171288 0.0368696 0.105596
-0.301205 0.0368598 0.0314235
-0.246961 0.0368401 0.0506248
-0.185678 0.0368303 0.0720657
-0.195609 0.0368106 0.0591964
-0.288364 0.036791 0.00492492
-0.238573 0.0367812 0.0206399
-0.104115 0.0367616 0.0799912
-0.210914 0.0367518 0.0174234
-0.215309 0.0367322 0.00736456
-0.082188 0.0517089 0.673844
0.0114139 0.0515544 0.722435
0.00872039 0.0514255 0.720815
-0.18659 0.0513614 0.617526
-0.000146783 0.0512839 0.706267
-0.181893 0.0512208 0.609736
0.0293165 0.0511445 0.71082
-0.0258942 0.0511067 0.675484
-0.134052 0.0510317 0.616836
-0.184238 0.0509945 0.583994
-0.243924 0.0509438 0.54757
-0.0144149 0.0509072 0.654564
-0.123887 0.0508349 0.595135
-0.210583 0.0508072 0.543294
-0.0969749 0.05075 0.594159
-0.0333413 0.0507224 0.617511
-0.210919 0.0506667 0.522702
-0.175787 0.0506391 0.53183
-0.26382 0.0506049 0.479963
-0.107307 0.0505574 0.551546
-0.243542 0.050524 0.475539
-0.239211 0.0504773 0.470991
-0.0701243 0.0504448 0.5476
-0.0716388 0.050399 0.540084
-0.341813 0.0503853 0.395438
-0.251083 0.0503401 0.434032
-0.212471 0.0503264 0.443797
-0.0944422 0.0502817 0.496025
-0.20467 0.0502512 0.432883
-0.0805538 0.0502076 0.488096
-0.29052 0.0501939 0.373607
-0.182555 0.0501508 0.420724
-0.161918 0.0501236 0.422776
-0.120542 0.0500947 0.435352
-0.0685863 0.0500675 0.453085
-0.280769 0.0500393 0.338852
-0.226164 0.0500121 0.35793
-0.0338715 0.0499844 0.445903
-0.0576935 0.0499573 0.425787
-0.259185 0.0499301 0.316849
-0.393357 0.0499032 0.241562
-0.216865 0.049876 0.321635
-0.169967 0.0498497 0.336848
-0.249387 0.0498105 0.290102
-0.116898 0.049797 0.346954
-0.157353 0.04977 0.318589
-0.249502 0.049743 0.26439
-0.370417 0.049718 0.195624
-0.311055 0.0496911 0.217197
-0.287127 0.0496668 0.220811
-0.247242 0.0496399 0.232662
-0.215921 0.0496236 0.239251
-0.372249 0.0495895 0.153689
-0.118016 0.0495627 0.272741
-0.268886 0.0495493 0.187987
-0.243339 0.0495132 0.193595
-0.165708 0.0494998 0.223104
-0.270949 0.0494731 0.162454
-0.31437 0.0494463 0.132726
-0.264369 0.0494329 0.148444
-0.337316 0.0493978 0.104774
-0.296379 0.0493844 0.115971
-0.215534 0.0493578 0.148409
-0.0734753 0.0493311 0.211464
-0.247417 0.0493178 0.115244
-0.281972 0.0492837 0.0907348
-0.180214 0.0492704 0.132375
-0.244838 0.0492438 0.0921201
-0.264893 0.0492246 0.0734527
-0.139859 0.049204 0.127459
0.0589896 0.0491775 0.218968
-0.198237 0.0491643 0.0811508
-0.230046 0.0491378 0.0573493
-0.195619 0.0491182 0.0659961
-0.0711899 0.0490981 0.119706
-0.383858 0.0490654 -0.0438849
-0.145479 0.0490522 0.0661308
-0.175786 0.0490259 0.0431154
-0.2839 0.0490127 -0.0201032
-0.210216 0.0489865 0.00889328
0.129232 0.0645491 0.752233
-0.0738528 0.064356 0.652597
-0.0756956 0.0641949 0.651497
-0.212908 0.0641461 0.575207
-0.00981991 0.0640179 0.674438
-0.0233104 0.0639523 0.661195
-0.0664161 0.063874 0.634027
-0.123535 0.063809 0.598972
-0.14527 0.0637322 0.58244
-0.0165574 0.0636681 0.640288
-0.322677 0.0635931 0.48149
-0.251017 0.06353 0.510786
-0.18759 0.0634847 0.534764
-0.016623 0.0634224 0.613699
-0.150122 0.063378 0.539191
-0.124098 0.0633166 0.545633
-0.176757 0.063273 0.511517
-0.215759 0.0632125 0.485417
-0.176896 0.0631699 0.497027
-0.185564 0.0631105 0.486061
-0.165873 0.0630932 0.486336
-0.316395 0.0630344 0.404436
-0.141403 0.0629934 0.484055
-0.177153 0.0629357 0.459496
-0.280939 0.0629185 0.398071
-0.0718669 0.0628615 0.495911
-0.249285 0.062827 0.398916
-0.174877 0.0627879 0.42818
-0.0141599 0.0627493 0.50057
-0.0903887 0.062715 0.4542
-0.271259 0.06266 0.357007
-0.238628 0.0626428 0.363854
-0.229004 0.0625885 0.361886
-0.1781 0.062552 0.379286
-0.168925 0.0625178 0.375671
-0.190748 0.0625007 0.355324
-0.187439 0.0624479 0.35015
-0.183843 0.0624137 0.343778
-0.188968 0.0623788 0.333109
-0.134733 0.0623447 0.352076
-0.145446 0.0623106 0.338579
0.0963614 0.0622765 0.451351
-0.217834 0.0622432 0.286078
-0.102014 0.0622092 0.335874
-0.252312 0.0621912 0.25143
-0.262494 0.0621427 0.239324
-0.111504 0.0621088 0.306735
-0.194299 0.0620918 0.255996
-0.206902 0.0620434 0.24272
-0.218653 0.0620264 0.227516
-0.0906855 0.0619926 0.283454
-0.267975 0.0619587 0.186775
-0.174147 0.0619282 0.22541
-0.173113 0.0618944 0.217908
-0.201088 0.0618776 0.194629
-0.355819 0.0618312 0.110228
-0.183661 0.0618143 0.187028
-0.138677 0.0617806 0.201535
-0.120167 0.061747 0.202817
-0.506106 0.0617302 0.000590737
-0.175619 0.061685 0.158769
-0.115773 0.0616682 0.179448
-0.201852 0.0616347 0.128467
-0.323076 0.0616124 0.0590515
-0.241901 0.0615844 0.0912894
-0.392512 0.0615509 0.00807191
-0.178579 0.0615238 0.106639
-0.265832 0.0614904 0.0551115
-0.16878 0.0614737 0.0944395
-0.108957 0.0614404 0.116468
-0.19639 0.061407 0.064878
-0.207624 0.0613904 0.0500834
-0.24116 0.0613571 0.0254593
-0.270896 0.0613405 0.00142628
-0.198759 0.0613072 0.0296558
-0.119498 0.0612906 0.0601341
-0.242974 0.0612574 -0.00942662
-0.0368689 0.077257 0.647424
0.0198306 0.0771221 0.672361
-0.178363 0.0769665 0.571057
-0.169912 0.0768492 0.570954
-0.217083 0.0767536 0.541842
-0.218446 0.0766012 0.538888
-0.0636847 0.0765439 0.608625
-0.227073 0.0764302 0.522523
-0.165542 0.0764092 0.543609
-0.285804 0.0762969 0.479041
-0.0534323 0.0762414 0.58756
-0.00725095 0.0761652 0.604186
