ply
format ascii 1.0
comment Created by Open3D
element vertex 1672
property double x
property double y
property double z
end_header
-0.236742 -0.151495 0.502745
-0.139208 -0.151404 0.543358
-0.0416383 -0.151352 0.582872
-0.0438531 -0.1513 0.572514
-0.0663445 -0.15121 0.553125
-0.143279 -0.151157 0.505442
-0.194531 -0.151103 0.470623
-0.194673 -0.150987 0.463211
-0.0605913 -0.15096 0.520301
0.21672 -0.150906 0.649821
-0.0175136 -0.150851 0.523589
-0.300506 -0.150734 0.374804
-0.0675251 -0.150706 0.481393
-0.30717 -0.15065 0.352514
-0.075973 -0.150535 0.460851
-0.136914 -0.150478 0.421369
-0.0659091 -0.150449 0.447018
-0.157852 -0.150391 0.39207
-0.241668 -0.150276 0.34295
-0.33227 -0.150217 0.288718
-0.12181 -0.150188 0.384144
-0.310915 -0.150129 0.280696
-0.116444 -0.150069 0.369058
-0.333501 -0.149983 0.252472
-0.18115 -0.149923 0.319811
-0.00245445 -0.149863 0.400344
-0.376579 -0.149801 0.20449
-0.0713688 -0.14974 0.348325
-0.207272 -0.149709 0.270668
-0.0894866 -0.149593 0.322506
-0.236764 -0.14953 0.240158
-0.365212 -0.149499 0.166266
-0.0654613 -0.149436 0.307468
-0.0427482 -0.149372 0.310174
-0.126508 -0.149308 0.259667
-0.146709 -0.149223 0.24159
0.0594132 -0.149159 0.336061
-0.128952 -0.149094 0.233312
-0.330493 -0.149028 0.123998
-0.0809577 -0.148995 0.239199
0.0362178 -0.148929 0.28928
-0.10266 -0.148862 0.211358
-0.197868 -0.148829 0.154224
-0.341676 -0.148762 0.0738753
-0.193585 -0.148644 0.141102
-0.131812 -0.148576 0.16359
-0.226446 -0.148542 0.106796
-0.303297 -0.148473 0.0600104
-0.217469 -0.148404 0.0945879
-0.202396 -0.148334 0.0938124
-0.13098 -0.148299 0.120095
-0.0849614 -0.148229 0.13483
-0.244701 -0.148159 0.0467104
-0.0438272 -0.148123 0.137759
-0.138892 -0.148052 0.0820156
-0.0840114 -0.14798 0.101269
-0.179773 -0.147908 0.0452259
-0.23759 -0.147872 0.00698172
-0.163537 -0.147799 0.0358852
0.0182959 -0.147726 0.118703
-0.138889 -0.147689 0.0308131
-0.289131 -0.147615 -0.052367
-0.204831 -0.142126 0.85757
-0.200898 -0.141808 0.857568
-0.228242 -0.141641 0.837656
-0.00227353 -0.141458 0.944892
-0.252713 -0.141366 0.811311
-0.238722 -0.141184 0.812569
-0.209239 -0.141167 0.816849
-0.353358 -0.140986 0.739063
-0.223161 -0.140951 0.794246
-0.192009 -0.140789 0.803577
-0.259785 -0.140682 0.76188
0.0148542 -0.140664 0.888808
-0.337995 -0.140557 0.704601
-0.339859 -0.14045 0.695894
-0.192316 -0.140363 0.761342
-0.479505 -0.140325 0.607964
-0.320765 -0.140219 0.679587
0.0179046 -0.140132 0.840605
-0.152425 -0.140093 0.745713
-0.286764 -0.139988 0.67082
-0.0429648 -0.139948 0.783035
-0.127313 -0.139863 0.732559
-0.205328 -0.139758 0.685846
-0.109123 -0.139717 0.724321
0.0116893 -0.139697 0.774496
-0.10239 -0.139592 0.709788
-0.271868 -0.139488 0.617378
-0.0638851 -0.139446 0.711819
-0.23003 -0.139425 0.618564
-0.303267 -0.139321 0.57431
-0.307735 -0.139278 0.562579
-0.140184 -0.139196 0.638066
-0.179249 -0.139152 0.609072
-0.211795 -0.139049 0.585191
0.00813861 -0.139004 0.685738
-0.161599 -0.138982 0.590771
0.106675 -0.138879 0.717331
-0.237433 -0.138833 0.535913
-0.381876 -0.138788 0.454348
-0.23294 -0.138708 0.520546
-0.293461 -0.138661 0.480977
-0.202319 -0.138614 0.517261
-0.176235 -0.138535 0.522041
0.00493993 -0.138488 0.603375
-0.146721 -0.13844 0.518313
-0.137817 -0.138338 0.515279
-0.29365 -0.138314 0.427396
-0.165488 -0.138265 0.482301
-0.271337 -0.138163 0.421916
-0.217172 -0.138113 0.439868
-0.376042 -0.138088 0.350513
-0.222655 -0.138038 0.418109
-0.393856 -0.137936 0.325095
-0.38458 -0.137885 0.32068
-0.331611 -0.137859 0.337293
-0.2935 -0.137808 0.34733
-0.0596524 -0.137756 0.455258
-0.234634 -0.137654 0.360421
-0.28913 -0.137627 0.32335
-0.0591899 -0.137574 0.429382
-0.462334 -0.137521 0.218893
-0.178865 -0.137419 0.353326
-0.343907 -0.137392 0.261031
0.0554456 -0.137337 0.451849
0.0764401 -0.137283 0.45351
-0.0948018 -0.137227 0.359075
-0.203966 -0.1372 0.294767
-0.229641 -0.137098 0.274707
-0.270536 -0.137041 0.245505
-0.196639 -0.136985 0.273721
-0.149462 -0.136956 0.287634
-0.278745 -0.136899 0.214296
-0.308436 -0.136842 0.190778
0.100015 -0.136784 0.386353
-0.136113 -0.13671 0.260179
-0.173882 -0.136652 0.23268
-0.0382079 -0.136593 0.291927
-0.196602 -0.136533 0.204162
-0.0238626 -0.136504 0.280956
-0.275431 -0.136444 0.146641
-0.150609 -0.136383 0.200545
-0.130945 -0.136323 0.201893
-0.0549516 -0.136292 0.230364
-0.225189 -0.136188 0.138271
-0.145366 -0.136127 0.169759
-0.165832 -0.136065 0.151126
-0.137477 -0.136034 0.15583
-0.156481 -0.135971 0.137966
0.140781 -0.135908 0.278259
-0.184245 -0.135876 0.106309
-0.217343 -0.135813 0.0814598
-0.376481 -0.135749 -0.00638533
-0.111531 -0.135684 0.117837
-0.109418 -0.135652 0.109509
-0.39164 -0.135587 -0.039816
-0.184601 -0.135522 0.0555139
-0.0640378 -0.135456 0.10763
-0.33968 -0.135423 -0.0395237
-0.273524 -0.135357 -0.0145721
-0.329083 -0.13529 -0.0504536
-0.0249411 -0.135256 0.0923229
-0.145997 -0.135189 0.0237318
-0.147341 -0.129368 0.947559
-0.0791492 -0.12901 0.981631
-0.253688 -0.128859 0.888003
-0.028115 -0.128763 0.992776
-0.0726168 -0.128613 0.964175
0.0115648 -0.128517 0.998277
-0.105104 -0.128369 0.933579
-0.0176705 -0.128274 0.969321
-0.181538 -0.128194 0.878952
-0.0384675 -0.128099 0.942529
-0.166955 -0.128068 0.868306
-0.363451 -0.127989 0.76164
-0.0940415 -0.127894 0.88842
-0.304338 -0.1278 0.775353
-0.319536 -0.127721 0.759333
-0.25137 -0.127689 0.783529
-0.054457 -0.127596 0.874093
0.0213617 -0.127518 0.903586
-0.413983 -0.127486 0.676082
-0.246808 -0.127392 0.751798
-0.309296 -0.127375 0.710216
-0.0184318 -0.127282 0.847793
-0.0979209 -0.12719 0.800193
-0.42348 -0.127155 0.627679
-0.49177 -0.127081 0.585124
-0.118906 -0.127045 0.761855
-0.0739385 -0.126954 0.776516
-0.32521 -0.126936 0.640626
-0.0539689 -0.126844 0.768435
-0.24441 -0.126808 0.663589
-0.52526 -0.126735 0.514755
-0.348706 -0.126698 0.593439
-0.0997332 -0.126607 0.71014
-0.116639 -0.12657 0.692136
-0.359234 -0.126531 0.561309
-0.178934 -0.12646 0.643059
-0.171718 -0.126421 0.63717
-0.124747 -0.126331 0.652912
-0.205871 -0.126312 0.602224
-0.0384374 -0.126272 0.676499
-0.327637 -0.126182 0.524182
-0.0545653 -0.126142 0.651318
-0.20986 -0.126101 0.564291
-0.211103 -0.126032 0.555277
-0.269978 -0.125991 0.516494
-0.254007 -0.125949 0.515155
-0.419932 -0.125881 0.423804
-0.376335 -0.125839 0.436312
-0.0731578 -0.125796 0.578631
-0.413558 -0.125707 0.400793
-0.0826692 -0.125686 0.556253
-0.251275 -0.125642 0.462736
-0.178277 -0.125599 0.490042
-0.219707 -0.12551 0.461733
-0.244981 -0.125488 0.439158
-0.496485 -0.125443 0.304269
-0.134583 -0.125398 0.476104
-0.0732399 -0.125309 0.499224
-0.0717364 -0.125263 0.490904
-0.539633 -0.12524 0.247078
-0.160471 -0.125194 0.427621
-0.326451 -0.125147 0.335615
-0.411715 -0.125059 0.285495
-0.172001 -0.125035 0.395522
-0.512138 -0.124987 0.216494
-0.322945 -0.124939 0.302154
-0.216503 -0.124851 0.347926
-0.256674 -0.124827 0.318059
-0.15036 -0.124778 0.362336
-0.372431 -0.124729 0.242443
-0.368034 -0.124679 0.235806
-0.290541 -0.124654 0.264818
-0.372407 -0.124604 0.215086
-0.29478 -0.124515 0.246548
0.0305013 -0.124464 0.400434
-0.273922 -0.124439 0.238538
-0.433224 -0.124387 0.150168
-0.327023 -0.124336 0.194572
-0.172801 -0.124284 0.263009
-0.221147 -0.124257 0.2292
-0.396315 -0.124168 0.134362
0.216482 -0.124115 0.432145
-0.0891154 -0.124062 0.270755
-0.120457 -0.124035 0.245498
-0.200695 -0.123981 0.196824
0.001494 -0.123927 0.289386
-0.0972521 -0.123872 0.231504
-0.0966985 -0.123845 0.222245
-0.229454 -0.12379 0.147396
-0.18426 -0.1237 0.162879
-0.136277 -0.123644 0.178445
-0.0680927 -0.123616 0.203053
-0.115221 -0.12356 0.1711
-0.172778 -0.123503 0.133957
-0.245999 -0.123446 0.0890048
0.0158664 -0.123417 0.210504
-0.0482735 -0.12336 0.170131
-0.441515 -0.123302 -0.0347695
-0.175824 -0.123244 0.0898206
0.0916458 -0.123215 0.214173
-0.148053 -0.123156 0.0861067
-0.134383 -0.123097 0.0847481
-0.518293 -0.123067 -0.116552
-0.380937 -0.123007 -0.0560281
-0.00795961 -0.122947 0.12233
-0.231273 -0.122887 0.00256708
-0.0984825 -0.122857 0.0596702
-0.0825535 -0.122796 0.0595673
-0.218273 -0.116514 0.975598
-0.195706 -0.116243 0.984962
-0.187833 -0.116047 0.984503
0.000441623 -0.115974 1.0701
-0.169317 -0.115829 0.979144
-0.169987 -0.115756 0.970275
-0.2557 -0.115672 0.919304
-0.120886 -0.115588 0.978611
-0.0939875 -0.115517 0.983542
-0.414789 -0.115433 0.815057
-0.12731 -0.115363 0.950282
-0.176927 -0.115279 0.917401
-0.189294 -0.115197 0.903151
-0.292749 -0.115127 0.842907
-0.298044 -0.115101 0.830251
-0.387651 -0.115019 0.777408
-0.594443 -0.11495 0.6655
-0.364357 -0.114868 0.772503
-0.190429 -0.114841 0.849535
-0.267615 -0.114773 0.80243
-0.0246756 -0.114745 0.914
-0.140466 -0.114664 0.848102
-0.088808 -0.114636 0.864072
-0.0447839 -0.114569 0.877581
-0.070979 -0.114489 0.856492
-0.130985 -0.114459 0.816684
-0.10433 -0.114394 0.821499
-0.245975 -0.114364 0.740903
-0.471231 -0.114284 0.620313
-0.52935 -0.114253 0.581521
0.0111317 -0.114189 0.843248
-0.108003 -0.114158 0.773981
-0.1495 -0.114079 0.745293
-0.0362365 -0.114047 0.792267
-0.194845 -0.114031 0.702729
-0.137237 -0.113952 0.723621
-0.127744 -0.11392 0.718762
-0.257606 -0.113841 0.645931
-0.153058 -0.113825 0.688018
-0.12704 -0.113747 0.693131
-0.391464 -0.113713 0.551388
-0.375463 -0.113678 0.549877
-0.286912 -0.113618 0.585637
-0.207908 -0.113583 0.615661
0.166717 -0.113548 0.793516
0.0654983 -0.113471 0.735064
-0.104089 -0.113453 0.640176
-0.298657 -0.113417 0.533488
-0.174199 -0.11334 0.587895
-0.355453 -0.113303 0.487907
0.00639853 -0.113285 0.658783
-0.0852777 -0.113208 0.605144
-0.272169 -0.113171 0.50239
-0.241138 -0.113133 0.508619
-0.0587184 -0.113095 0.590563
-0.174972 -0.113037 0.523938
-0.193623 -0.112999 0.50538
-0.428706 -0.11296 0.378627
-0.442681 -0.112921 0.36245
-0.376743 -0.112864 0.386931
-0.270886 -0.112824 0.430703
-0.222494 -0.112784 0.445764
-0.189648 -0.112744 0.453073
-0.0328124 -0.112688 0.523011
-0.114026 -0.112647 0.473325
-0.19934 -0.112606 0.42161
-0.287838 -0.112565 0.368325
-0.302304 -0.112523 0.352077
-0.528634 -0.112467 0.230452
-0.183739 -0.112425 0.393919
-0.199269 -0.112383 0.377196
-0.420222 -0.11234 0.257783
-0.573981 -0.112318 0.171113
-0.175776 -0.112242 0.362649
-0.304082 -0.112198 0.289617
0.000309843 -0.112154 0.432955
-0.344502 -0.112132 0.250806
0.00164792 -0.112087 0.415059
-0.337865 -0.112042 0.236502
-0.0717398 -0.111966 0.362078
-0.364063 -0.111943 0.206222
-0.454639 -0.111898 0.152191
-0.122195 -0.111852 0.309693
-0.391161 -0.111805 0.166513
-0.150007 -0.111782 0.277444
-0.229575 -0.111735 0.228998
-0.256035 -0.111658 0.208374
-0.143422 -0.111611 0.256063
-0.371991 -0.111587 0.132183
-0.176412 -0.111539 0.221392
-0.300356 -0.111491 0.150863
-0.293507 -0.111443 0.145753
-0.340013 -0.111394 0.113989
-0.436814 -0.111369 0.056055
-0.37509 -0.11132 0.0784427
-0.172586 -0.11127 0.171244
-0.366781 -0.11122 0.0657184
-0.1672 -0.111168 0.157216
-0.36927 -0.111117 0.0477901
-0.0752662 -0.111066 0.186424
-0.13314 -0.111015 0.149142
-0.238973 -0.11099 0.0867943
-0.211167 -0.110938 0.0923902
-0.134619 -0.110887 0.122381
-0.320611 -0.110861 0.0199902
-0.368248 -0.110808 -0.0120734
-0.038801 -0.110756 0.144429
-0.0362801 -0.110703 0.137491
-0.319912 -0.110676 -0.0136672
-0.232983 -0.110623 0.0216379
-0.430581 -0.110569 -0.0852966
-0.439208 -0.110515 -0.097721
-0.133921 -0.110488 0.0456319
-0.218201 -0.110433 -0.00458053
-0.355442 -0.103722 0.967672
-0.165362 -0.103491 1.06023
-0.294338 -0.103317 0.991218
-0.320883 -0.103198 0.971365
-0.235268 -0.10307 1.00795
-0.206819 -0.103007 1.01356
-0.252295 -0.102934 0.982581
-0.211663 -0.102871 0.994293
-0.263201 -0.102798 0.960305
-0.325627 -0.102725 0.920883
-0.347148 -0.102663 0.901527
-0.0881486 -0.102591 1.02283
0.072856 -0.102519 1.09514
-0.35601 -0.102458 0.872114
-0.30411 -0.102387 0.889879
-0.327204 -0.102365 0.868246
-0.217289 -0.102305 0.914612
-0.312708 -0.102234 0.85874
-0.413044 -0.102175 0.799968
-0.395994 -0.102152 0.798473
-0.251532 -0.102082 0.862557
-0.166994 -0.102012 0.896679
-0.43167 -0.102 0.753913
-0.254902 -0.10193 0.834162
-0.327511 -0.101861 0.789719
-0.196705 -0.101849 0.844729
-0.268904 -0.10178 0.800501
-0.192538 -0.101755 0.82881
-0.316771 -0.101687 0.758581
-0.422601 -0.101674 0.695318
-0.00981705 -0.101606 0.893605
-0.0699224 -0.10158 0.85375
-0.203564 -0.101554 0.777146
-0.192166 -0.101499 0.774234
-0.211562 -0.101472 0.754784
-0.368333 -0.101404 0.668334
-0.249806 -0.101377 0.717886
-0.278884 -0.101324 0.694725
-0.304147 -0.101296 0.672415
-0.44486 -0.101229 0.594007
-0.172692 -0.101201 0.720452
-0.102287 -0.101186 0.74544
-0.250019 -0.10112 0.663545
0.0234217 -0.101091 0.790679
-0.368801 -0.101024 0.586546
-0.231587 -0.10101 0.644985
-0.330668 -0.10098 0.58591
-0.369873 -0.100914 0.558306
-0.253845 -0.100884 0.606827
-0.230184 -0.100853 0.609185
-0.223666 -0.100803 0.603809
-0.553668 -0.100772 0.429368
-0.435048 -0.10074 0.479258
-0.140384 -0.100709 0.61719
-0.227691 -0.100659 0.564913
-0.29006 -0.100627 0.524361
-0.244377 -0.100594 0.537856
-0.189115 -0.100529 0.557568
-0.1213 -0.100513 0.581454
-0.23874 -0.100479 0.513441
-0.312521 -0.100446 0.467279
-0.206485 -0.100381 0.512414
-0.342935 -0.100347 0.434959
-0.161324 -0.10033 0.5158
-0.302811 -0.100295 0.43586
-0.2718 -0.10023 0.443518
-0.431729 -0.100195 0.354399
-0.102082 -0.100178 0.509304
-0.237805 -0.100142 0.432322
-0.486728 -0.100077 0.300047
-0.216016 -0.100041 0.426325
-0.0233739 -0.100005 0.513589
-0.351129 -0.0999867 0.339852
-0.293966 -0.0999499 0.35941
-0.22701 -0.0998852 0.385131
0.0458872 -0.0998479 0.512599
-0.117142 -0.0998291 0.421272
-0.286262 -0.0997913 0.327767
-0.308881 -0.0997532 0.307534
-0.235173 -0.0996886 0.336683
-0.0379012 -0.0996693 0.425554
-0.259722 -0.0996305 0.305776
-0.314349 -0.0995914 0.269618
-0.110366 -0.0995521 0.362786
-0.250733 -0.0995124 0.283801
-0.208997 -0.0994925 0.294964
-0.301411 -0.0994275 0.241141
-0.193842 -0.0993872 0.286182
-0.307899 -0.0993466 0.220431
-0.159861 -0.0993262 0.284794
-0.530166 -0.0992851 0.0909553
-0.139684 -0.0992437 0.277533
-0.240462 -0.0992021 0.218503
-0.259904 -0.0991601 0.200163
-0.0588932 -0.0991158 0.292173
-0.212313 -0.0990735 0.20688
-0.310644 -0.0990309 0.149154
-0.0547682 -0.098988 0.268555
-0.0177793 -0.0989664 0.277505
-0.243989 -0.0989231 0.155899
-0.616865 -0.0988795 -0.0390163
-0.279365 -0.0988356 0.121279
-0.476898 -0.0988135 0.013018
-0.057129 -0.0987692 0.214485
-0.421379 -0.0987246 0.0239661
-0.213358 -0.0986797 0.119606
-0.206204 -0.0986572 0.113738
-0.0860412 -0.0985905 0.166523
-0.0717424 -0.098545 0.165361
-0.127783 -0.0984991 0.129053
-0.115832 -0.0984761 0.125636
-0.280941 -0.0984299 0.0348308
-0.30466 -0.0983834 0.0147451
-0.249597 -0.0983366 0.034074
-0.258594 -0.0983131 0.0202335
-0.119254 -0.0982659 0.0817392
-0.560227 -0.0982184 -0.146887
-0.340043 -0.0981706 -0.0449122
-0.351399 -0.0981466 -0.05988
-0.44587 -0.0980984 -0.115193
-0.180089 -0.0906893 1.11355
-0.25473 -0.0905367 1.07157
-0.233447 -0.090433 1.07553
0.00411513 -0.0903223 1.18794
-0.207983 -0.0902672 1.0732
-0.492704 -0.0901576 0.924482
-0.450636 -0.0901032 0.936832
0.0078542 -0.090041 1.15774
-0.250255 -0.0899871 1.02
-0.235615 -0.0899252 1.019
-0.276281 -0.0898636 0.990346
-0.229815 -0.0898105 1.0049
-0.378217 -0.0897493 0.922393
-0.131711 -0.0896884 1.03734
-0.226705 -0.0896364 0.981161
-0.283277 -0.0895761 0.94457
-0.147606 -0.0895582 1.00226
-0.323426 -0.0895071 0.905664
-0.368894 -0.0894472 0.874642
-0.205096 -0.0894287 0.946444
-0.182825 -0.0893784 0.948894
-0.228886 -0.0893191 0.917588
-0.138838 -0.0892999 0.952567
-0.550451 -0.0892506 0.738065
-0.296316 -0.089231 0.855119
-0.203165 -0.0891721 0.893446
-0.3728 -0.089152 0.798654
-0.262246 -0.0891036 0.845236
-0.130157 -0.0890455 0.903035
-0.0939465 -0.0890247 0.911217
-0.263017 -0.0889774 0.817969
0.0166111 -0.0889562 0.947891
-0.178102 -0.0888988 0.842307
-0.371488 -0.0888771 0.735761
-0.347955 -0.0888309 0.738805
-0.186024 -0.0888088 0.809949
-0.178146 -0.088752 0.805675
-0.279469 -0.0887294 0.745231
-0.222068 -0.0887065 0.764168
-0.410853 -0.0886614 0.661051
-0.0749105 -0.0886381 0.81929
-0.179914 -0.0885819 0.758605
-0.316863 -0.0885581 0.680439
-0.266651 -0.088546 0.695303
-0.40994 -0.0884901 0.615495
-0.124134 -0.0884656 0.748757
-0.274013 -0.08841 0.66566
-0.23181 -0.0883976 0.676564
-0.112862 -0.0883724 0.726448
-0.337111 -0.0883172 0.606184
-0.444224 -0.0882915 0.543078
-0.368165 -0.0882656 0.571578
-0.170678 -0.0882236 0.661573
-0.524164 -0.0881973 0.475332
-0.259753 -0.0881708 0.59806
-0.095229 -0.088116 0.672221
-0.220504 -0.0881025 0.599487
-0.196552 -0.0880754 0.602037
-0.031033 -0.0880479 0.675392
-0.340827 -0.0879933 0.512429
0.0150629 -0.0879653 0.681009
-0.172398 -0.0879512 0.577238
0.00612206 -0.087897 0.658445
-0.23019 -0.0878684 0.530977
-0.366029 -0.0878395 0.453767
-0.255768 -0.0878104 0.499628
-0.293453 -0.087771 0.472039
-0.321611 -0.0877415 0.448722
-0.14574 -0.0877117 0.527442
-0.0711803 -0.0876817 0.555526
-0.344566 -0.0876514 0.409658
-0.292101 -0.0876125 0.427159
-0.29647 -0.0875819 0.415833
-0.212977 -0.087551 0.448459
-0.196167 -0.0875198 0.447765
-0.223817 -0.0874816 0.425209
-0.304768 -0.0874501 0.375668
-0.237187 -0.0874183 0.400414
-0.273585 -0.0873863 0.373192
-0.452363 -0.087354 0.274801
-0.219447 -0.0873164 0.38254
-0.0359563 -0.0872837 0.465318
-0.355804 -0.0872508 0.296448
-0.278595 -0.0872177 0.326128
-0.200656 -0.087201 0.355321
-0.0601318 -0.0871675 0.416694
-0.1656 -0.0871135 0.356145
-0.288162 -0.0870795 0.286017
-0.0864596 -0.0870452 0.378043
-0.0474384 -0.087028 0.387839
-0.177196 -0.0869934 0.31417
-0.308695 -0.0869584 0.239653
-0.289591 -0.0869233 0.240459
-0.200635 -0.0868868 0.276272
-0.440091 -0.0868513 0.147833
-0.179264 -0.0868155 0.269557
-0.233789 -0.0867795 0.233629
-0.307936 -0.0867432 0.187911
-0.0809094 -0.086725 0.291819
-0.273252 -0.0866884 0.18704
-0.205302 -0.0866515 0.212429
-0.226924 -0.0866143 0.193056
-0.144761 -0.0865952 0.224603
-0.282832 -0.0865408 0.147963
-0.13141 -0.0865031 0.215169
-0.178221 -0.0864651 0.183282
-0.370936 -0.0864269 0.0784659
-0.120335 -0.0864077 0.194273
-0.342374 -0.0863691 0.0748316
-0.275331 -0.0863303 0.0999549
-0.0481994 -0.0862912 0.205145
-0.211977 -0.0862716 0.113813
-0.295288 -0.0862321 0.0638192
-0.386468 -0.0861924 0.00991477
0.0114347 -0.0861525 0.200575
0.0997557 -0.0861324 0.235343
-0.364094 -0.0860921 -0.00483571
-0.13846 -0.0860515 0.0997512
-0.190307 -0.0860107 0.0656219
-0.181915 -0.0859902 0.0604763
-0.436536 -0.085949 -0.0750026
-0.31685 -0.0859076 -0.0233038
-0.117601 -0.0858507 0.0690668
-0.22839 -0.0858298 0.00438243
-0.304311 -0.0857878 -0.0416621
-0.00265954 -0.0780438 1.2538
-0.012478 -0.0777523 1.2518
-0.218506 -0.0776635 1.142
-0.425824 -0.0775281 1.03384
-0.218008 -0.0774813 1.12898
-0.185533 -0.0773881 1.13872
-0.436066 -0.0773418 1.0047
-0.438693 -0.0772497 0.996885
-0.214955 -0.0772041 1.1
-0.4296 -0.0771524 0.984229
-0.262918 -0.0771072 1.05882
-0.417736 -0.0770559 0.972971
-0.322569 -0.0770047 1.01213
-0.275709 -0.0769604 1.0268
-0.343325 -0.0769098 0.984564
-0.244431 -0.0768961 1.02375
0.0121999 -0.0768524 1.14331
-0.217091 -0.0768021 1.02026
-0.095224 -0.0767878 1.07098
-0.340758 -0.0767448 0.939455
-0.315386 -0.0766949 0.943749
-0.268586 -0.0766454 0.958755
-0.326455 -0.0766378 0.919291
-0.418356 -0.0765885 0.864958
-0.43497 -0.0765395 0.848265
-0.184224 -0.0765238 0.963547
-0.177186 -0.0764829 0.958283
-0.330125 -0.0764346 0.87343
-0.248459 -0.0764184 0.904223
-0.152781 -0.0764019 0.942039
-0.490637 -0.0763619 0.764324
-0.326911 -0.076314 0.837822
-0.351752 -0.076297 0.81543
-0.341611 -0.076258 0.811691
-0.0685136 -0.0762406 0.938299
-0.0798074 -0.0761933 0.924301
-0.334889 -0.0761755 0.786857
-0.20429 -0.0761375 0.843333
-0.157382 -0.0761194 0.856915
-0.219203 -0.0760728 0.817663
-0.0780215 -0.0760541 0.878421
-0.385297 -0.0760353 0.714969
-0.29714 -0.0759983 0.750216
-0.270617 -0.0759791 0.753694
-0.275818 -0.075933 0.742777
-0.357712 -0.0759134 0.692086
-0.107925 -0.0759035 0.80671
-0.29691 -0.0758576 0.703919
-0.348986 -0.0758374 0.668186
-0.221485 -0.0757919 0.723641
-0.292022 -0.0757816 0.678147
-0.108886 -0.0757609 0.76007
-0.103767 -0.0757156 0.75435
-0.135381 -0.0756944 0.728938
-0.0479772 -0.075673 0.763054
-0.253262 -0.0756388 0.651548
-0.329364 -0.0756171 0.603943
-0.351994 -0.0755951 0.583094
-0.437346 -0.0755503 0.532172
-0.254772 -0.0755279 0.613965
-0.0235149 -0.0755166 0.719477
-0.39399 -0.0754939 0.524776
-0.064868 -0.0754492 0.681124
0.0151654 -0.0754261 0.711718
-0.223294 -0.0754026 0.583085
-0.02904 -0.0753701 0.671339
-0.204934 -0.0753464 0.574022
-0.373521 -0.0753224 0.480378
0.0052885 -0.0752982 0.660452
-0.132962 -0.0752662 0.582456
-0.281171 -0.0752417 0.499054
-0.418927 -0.075217 0.420898
-0.361001 -0.0751921 0.440604
-0.195976 -0.075148 0.514981
-0.402205 -0.0751354 0.401907
-0.223328 -0.0751099 0.482142
-0.0867445 -0.0750842 0.541251
-0.389788 -0.0750404 0.381622
-0.1557 -0.0750142 0.489524
-0.364274 -0.0750011 0.375335
-0.281132 -0.0749746 0.407798
-0.218604 -0.074948 0.429974
-0.195909 -0.0749042 0.433263
-0.146818 -0.0748771 0.448763
-0.0872048 -0.0748635 0.468725
-0.0603182 -0.074836 0.473157
-0.318866 -0.0748084 0.334893
-0.567599 -0.0747805 0.201558
-0.261444 -0.0747366 0.346644
-0.207834 -0.0747225 0.363663
-0.437796 -0.0746941 0.239769
-0.0356918 -0.0746655 0.431929
-0.129423 -0.0746367 0.376193
-0.253841 -0.0746076 0.305136
0.107137 -0.0745783 0.476802
-0.208735 -0.0745489 0.310052
-0.258066 -0.0745194 0.276594
-0.157281 -0.0744896 0.318216
-0.325088 -0.0744741 0.224663
-0.131803 -0.0744445 0.31254
-0.401005 -0.0744142 0.169226
-0.19092 -0.0743837 0.265578
-0.170817 -0.0743394 0.267807
-0.374372 -0.0743239 0.156412
-0.187732 -0.0742929 0.241097
-0.0471808 -0.0742616 0.302762
-0.0614904 -0.0742302 0.287018
-0.284369 -0.0741985 0.167012
-0.191637 -0.0741826 0.203822
0.138299 -0.0741506 0.36026
-0.214349 -0.0741183 0.175429
-0.342711 -0.0740859 0.102763
-0.240863 -0.0740696 0.14418
-0.157628 -0.0740369 0.17735
-0.0332343 -0.0739917 0.231903
-0.343633 -0.0739586 0.0682998
-0.1638 -0.0739373 0.149058
-0.365246 -0.0739085 0.0396696
-0.260703 -0.0738749 0.0835975
-0.216622 -0.073841 0.0973182
-0.253551 -0.0738069 0.0705571
-0.266646 -0.0737898 0.0546164
-0.221354 -0.0737554 0.0690032
-0.310807 -0.0737208 0.0160412
-0.0989322 -0.073686 0.113766
-0.25065 -0.0736685 0.0285654
0.00610026 -0.0736334 0.148766
-0.0222689 -0.0735981 0.126431
-0.264585 -0.0735626 -0.0028535
-0.268013 -0.0735447 -0.0138579
-0.134313 -0.0735089 0.0449036
-0.022582 -0.0649774 1.30275
-0.394685 -0.064834 1.11375
-0.0557884 -0.0647258 1.2783
-0.36096 -0.0646527 1.11884
-0.540266 -0.0646097 1.0206
-0.197757 -0.0645374 1.18498
-0.395468 -0.0644947 1.07757
-0.307907 -0.0644235 1.11445
-0.132247 -0.0643812 1.19373
-0.429095 -0.0643438 1.03649
-0.296895 -0.0643018 1.09405
-0.312221 -0.0642648 1.07757
-0.362119 -0.0642231 1.04409
-0.221307 -0.0641816 1.10597
0.0979618 -0.0641454 1.25677
-0.139061 -0.0641043 1.12974
-0.21395 -0.0640938 1.08197
-0.373714 -0.0640581 0.993261
-0.0393847 -0.0640173 1.15192
-0.459761 -0.0639768 0.933221
-0.387083 -0.0639422 0.960712
-0.19919 -0.0639309 1.04442
-0.0913127 -0.0638908 1.08986
-0.431846 -0.0638568 0.910732
-0.485136 -0.063845 0.873894
-0.661619 -0.0638054 0.77716
-0.203701 -0.0637932 0.995963
-0.342694 -0.06376 0.917606
-0.207615 -0.0637209 0.976654
-0.119939 -0.0637082 1.01039
-0.255724 -0.0636758 0.933614
0.138083 -0.0636629 1.12044
-0.0110199 -0.0636242 1.03741
-0.347246 -0.063586 0.860815
-0.148177 -0.0635793 0.949906
-0.0542347 -0.0635656 0.986868
-0.364984 -0.0635275 0.82303
-0.265386 -0.0634898 0.864352
-0.0337742 -0.0634756 0.970207
-0.454249 -0.0634684 0.749578
-0.106244 -0.0634309 0.915124
-0.0571208 -0.0634162 0.929782
-0.262321 -0.0633789 0.81873
-0.475757 -0.0633714 0.701663
-0.44923 -0.0633345 0.706473
-0.386778 -0.0633191 0.727864
-0.577016 -0.0632825 0.624294
-0.163786 -0.0632747 0.820603
-0.363754 -0.0632589 0.710832
-0.252304 -0.0632224 0.758122
-0.426494 -0.0632063 0.661279
-0.278638 -0.0631899 0.725478
-0.351034 -0.0631619 0.680321
-0.337325 -0.0631452 0.677478
-0.351592 -0.0631284 0.660665
-0.297977 -0.0630924 0.67907
-0.11845 -0.0630752 0.759194
-0.220658 -0.0630578 0.698468
-0.222187 -0.0630307 0.688734
-0.0303045 -0.063013 0.775085
-0.241644 -0.0629952 0.659845
-0.187138 -0.0629596 0.678726
-0.28261 -0.0629505 0.620843
-0.165156 -0.0629322 0.670051
0.197086 -0.0628968 0.842809
-0.162159 -0.0628782 0.653706
-0.174006 -0.0628593 0.638321
-0.180972 -0.0628403 0.625397
-0.203615 -0.0628146 0.605091
-0.0811485 -0.0627953 0.656915
-0.289032 -0.0627758 0.543584
-0.423512 -0.0627408 0.468025
-0.323192 -0.0627309 0.508149
-0.124138 -0.062711 0.598338
-0.116296 -0.0626908 0.592942
-0.289957 -0.062656 0.49782
-0.121411 -0.0626355 0.572816
-0.102254 -0.0626252 0.572413
-0.101259 -0.0626044 0.563666
-0.560264 -0.0625698 0.325898
-0.200119 -0.0625487 0.496767
-0.173163 -0.0625274 0.501062
-0.178349 -0.0625059 0.489306
-0.302126 -0.062495 0.417505
-0.435753 -0.0624605 0.342471
-0.1961 -0.0624385 0.453189
-0.27219 -0.0624164 0.406055
-0.313794 -0.0623941 0.376186
-0.31894 -0.0623829 0.363758
-0.171074 -0.0623483 0.429516
-0.0550368 -0.0623256 0.478521
-0.158356 -0.0623027 0.41787
-0.145292 -0.0622795 0.415431
-0.276278 -0.0622679 0.340141
-0.102919 -0.0622445 0.417884
-0.163547 -0.0622099 0.379459
0.167299 -0.0621862 0.535988
-0.316239 -0.0621732 0.284543
-0.0833062 -0.0621503 0.392074
-0.251763 -0.0621261 0.299007
-0.142723 -0.0621017 0.344711
0.0135825 -0.0620772 0.414069
-0.130573 -0.0620524 0.333219
-0.138508 -0.0620299 0.32032
-0.239885 -0.062005 0.260892
-0.247009 -0.0619798 0.248614
-0.182875 -0.0619545 0.271986
-0.193376 -0.0619389 0.257321
-0.229133 -0.0619162 0.230567
-0.272991 -0.0618904 0.200001
-0.39722 -0.0618644 0.129273
-0.38387 -0.0618293 0.12804
-0.153148 -0.0618161 0.233831
-0.300707 -0.0617898 0.151494
-0.0513218 -0.0617632 0.267652
-0.2331 -0.0617365 0.168251
-0.208374 -0.0617096 0.172124
-0.382756 -0.0616961 0.075426
-0.23364 -0.0616689 0.141531
-0.138424 -0.0616416 0.180709
-0.0241778 -0.0616141 0.229425
-0.155875 -0.0616002 0.154119
-0.0771128 -0.0615725 0.18513
-0.156674 -0.0615445 0.137002
-0.287076 -0.0615164 0.063477
-0.041149 -0.0614966 0.177476
-0.173466 -0.0614739 0.102588
-0.0638519 -0.0614453 0.149132
-0.251697 -0.0614089 0.0475738
-0.288003 -0.06138 0.0212024
-0.320267 -0.0613655 -0.00427299
-0.199429 -0.0613364 0.0479655
-0.238928 -0.0613071 0.0200582
-0.443434 -0.0612776 -0.0903284
-0.215894 -0.0612628 0.0141501
-0.282848 -0.0612331 -0.0274223
-0.182739 -0.0520661 1.2723
-0.35007 -0.0519517 1.18553
-0.217676 -0.0518403 1.24845
-0.314903 -0.0517515 1.19503
-0.0847867 -0.051721 1.3012
-0.326055 -0.0516603 1.17382
-0.28135 -0.0516033 1.18919
-0.295752 -0.0515734 1.1731
-0.000807399 -0.0515404 1.31192
-0.157877 -0.0515074 1.22474
-0.259396 -0.051478 1.1651
-0.391401 -0.0514198 1.0923
-0.16765 -0.0514162 1.19345
-0.245789 -0.0513838 1.14576
-0.173824 -0.0513515 1.17312
-0.29935 -0.0513231 1.10146
-0.322401 -0.0512912 1.08131
-0.043006 -0.0512595 1.21239
-0.0207088 -0.0512555 1.21288
-0.531935 -0.0512239 0.948657
-0.332429 -0.0511924 1.0398
-0.479678 -0.0511653 0.957255
-0.321165 -0.0511344 1.02789
-0.385257 -0.0511259 0.98556
-0.526711 -0.0510994 0.9059
-0.3478 -0.0510906 0.985101
-0.291812 -0.0510599 1.0045
-0.314935 -0.051034 0.983986
-0.142675 -0.0510249 1.05991
-0.182361 -0.0509947 1.03147
-0.293832 -0.0509647 0.967123
-0.214071 -0.0509551 0.996852
-0.404443 -0.0509302 0.892692
-0.514723 -0.0509204 0.82743
-0.37457 -0.0508908 0.888911
-0.119651 -0.0508807 1.00628
-0.319865 -0.0508565 0.897188
-0.229774 -0.0508461 0.932178
-0.147805 -0.050817 0.964573
-0.206639 -0.0508063 0.925137
-0.349693 -0.0507828 0.844601
-0.356888 -0.0507719 0.831013
-0.193391 -0.0507433 0.904176
-0.172308 -0.0507321 0.904765
-0.136865 -0.0507207 0.912552
-0.222471 -0.0506979 0.860727
-0.246413 -0.0506863 0.83885
-0.300356 -0.0506581 0.803311
-0.200358 -0.0506462 0.843443
-0.566447 -0.0506341 0.650549
-0.23136 -0.0506121 0.809052
-0.286386 -0.0505998 0.77172
-0.237543 -0.050572 0.787587
-0.40166 -0.0505594 0.695747
-0.30569 -0.0505531 0.73345
-0.344343 -0.0505255 0.705581
-0.38094 -0.0505125 0.67755
-0.350375 -0.0504852 0.684287
-0.247848 -0.0504719 0.725857
-0.229978 -0.0504652 0.724562
-0.232797 -0.0504381 0.714618
0.0448972 -0.0504245 0.84382
-0.288287 -0.0504107 0.667601
-0.206449 -0.0503838 0.700001
-0.296266 -0.0503768 0.644916
-0.338986 -0.0503626 0.61398
-0.384466 -0.0503359 0.582729
-0.376398 -0.0503215 0.577225
-0.048525 -0.0503069 0.731643
-0.159036 -0.0502922 0.666889
-0.378314 -0.0502729 0.54814
-0.171716 -0.050258 0.641971
-0.0568296 -0.0502429 0.689966
-0.413471 -0.0502165 0.503173
-0.11901 -0.0502011 0.640995
-0.21674 -0.0501933 0.582073
-0.0943861 -0.0501777 0.633873
-0.329776 -0.0501514 0.50773
-0.164916 -0.0501356 0.580822
-0.21207 -0.0501195 0.547928
-0.333543 -0.0501114 0.477189
-0.27776 -0.0500952 0.495795
0.132626 -0.0500689 0.692584
-0.283295 -0.0500524 0.475378
-0.325029 -0.0500357 0.445286
-0.0723793 -0.0500188 0.562407
-0.189004 -0.0500011 0.494971
-0.305684 -0.0499841 0.427458
-0.0252282 -0.0499669 0.558535
-0.12878 -0.0499496 0.497628
-0.199957 -0.0499321 0.452929
-0.0445748 -0.0499148 0.521501
-0.299459 -0.0498971 0.384981
-0.0451487 -0.0498792 0.503079
-0.239347 -0.0498613 0.396945
-0.538823 -0.0498431 0.238192
-0.347928 -0.0498332 0.32389
-0.154456 -0.0498079 0.412277
-0.120255 -0.0497894 0.420417
-0.20216 -0.0497708 0.370525
-0.142464 -0.049752 0.391455
-0.404113 -0.0497407 0.251034
-0.306154 -0.0497236 0.290963
-0.159671 -0.0496974 0.355989
-0.0233208 -0.0496781 0.415322
-0.25371 -0.0496587 0.291307
-0.171013 -0.0496461 0.323215
-0.505327 -0.0496293 0.147009
-0.228619 -0.0496096 0.2766
-0.244253 -0.0495897 0.260041
-0.225856 -0.0495696 0.26052
-0.508681 -0.0495494 0.11041
-0.233005 -0.049533 0.239201
-0.373501 -0.0495127 0.160289
-0.401908 -0.0494921 0.137444
-0.196855 -0.0494715 0.231352
-0.182102 -0.0494567 0.229555
-0.246768 -0.0494402 0.188229
-0.273553 -0.0494192 0.166275
-0.188582 -0.049398 0.200222
-0.141579 -0.0493767 0.215208
-0.247181 -0.049366 0.152886
-0.247756 -0.0493444 0.144119
-0.295385 -0.0493174 0.11236
-0.153397 -0.0492957 0.174918
-0.336466 -0.0492738 0.0749707
-0.153747 -0.0492627 0.156871
-0.14902 -0.0492406 0.150859
-0.104606 -0.0492184 0.164712
-0.279243 -0.049196 0.0690634
-0.204982 -0.0491847 0.0967849
-0.259343 -0.0491621 0.0613115
-0.251447 -0.0491393 0.0569893
-0.249237 -0.0491165 0.049848
-0.280804 -0.0490934 0.025841
-0.133559 -0.0490819 0.0901194
-0.17013 -0.0490586 0.0636483
-0.168699 -0.0490353 0.0562015
-0.228561 -0.0490118 0.0181321
-0.178211 -0.049 0.0340142
-0.236087 -0.0489763 -0.00302463
-0.230174 -0.0390056 1.29711
-0.0296614 -0.0389199 1.39416
0.00211723 -0.0388763 1.40301
-0.400042 -0.0388103 1.19698
-0.143607 -0.0387674 1.31815
-0.395009 -0.038745 1.18349
-0.417467 -0.0387006 1.16539
-0.479864 -0.0386786 1.12524
-0.254888 -0.0386545 1.22898
-0.203547 -0.0386304 1.24592
-0.332671 -0.0386088 1.17241
-0.213856 -0.0385849 1.2231
-0.154387 -0.0385636 1.24388
-0.511286 -0.0385399 1.05671
-0.0506792 -0.0385164 1.2783
-0.292241 -0.0384956 1.14855
-0.288662 -0.0384723 1.14162
-0.187959 -0.038467 1.18153
-0.172191 -0.0384465 1.18045
-0.239463 -0.0384235 1.13811
-0.280681 -0.0384007 1.10879
-0.190371 -0.0383809 1.14495
-0.15016 -0.0383751 1.15469
-0.220645 -0.0383525 1.11074
-0.325752 -0.0383331 1.04918
-0.243955 -0.0383271 1.07977
-0.129658 -0.0383048 1.12821
-0.14344 -0.0382859 1.1123
-0.121375 -0.0382796 1.11306
-0.408762 -0.0382577 0.96066
-0.150079 -0.038236 1.08129
-0.098833 -0.0382293 1.0967
-0.406338 -0.0382112 0.933891
-0.191622 -0.0382043 1.03106
-0.0611476 -0.0381829 1.08759
0.0317219 -0.0381758 1.12388
-0.463972 -0.0381582 0.866963
-0.678926 -0.0381509 0.749365
-0.373606 -0.0381299 0.893324
-0.558845 -0.0381224 0.790619
-0.198719 -0.0381053 0.961591
-0.208614 -0.0380977 0.946587
-0.251765 -0.038077 0.916311
-0.372621 -0.0380691 0.845864
-0.317439 -0.0380526 0.864337
-0.262106 -0.0380445 0.882013
-0.303641 -0.0380242 0.852542
-0.449466 -0.0380159 0.769675
-0.0373376 -0.0380075 0.965803
-0.304734 -0.0379916 0.822967
-0.29725 -0.037983 0.816802
-0.23198 -0.0379631 0.840745
-0.267868 -0.0379543 0.812931
-0.194 -0.0379453 0.840013
-0.204725 -0.03793 0.825489
0.0149376 -0.0379209 0.925498
-0.249686 -0.0379013 0.784502
-0.175991 -0.037892 0.811564
-0.184624 -0.0378826 0.79748
-0.28371 -0.0378679 0.738748
-0.157259 -0.0378583 0.792236
-0.257295 -0.0378486 0.7325
-0.136535 -0.0378293 0.784219
-0.19243 -0.0378193 0.74659
-0.362768 -0.0378093 0.651759
-0.426091 -0.0377952 0.610887
-0.412658 -0.037785 0.607971
-0.143068 -0.0377747 0.733153
-0.0871602 -0.0377557 0.752465
-0.462627 -0.0377451 0.555157
-0.433994 -0.0377345 0.559917
0.0272539 -0.0377291 0.780398
-0.313513 -0.0377102 0.601397
-0.242666 -0.0376993 0.627314
-0.232253 -0.0376882 0.623034
-0.423973 -0.0376695 0.518567
-0.264191 -0.0376638 0.588369
-0.338866 -0.0376525 0.541595
-0.484995 -0.0376411 0.459113
-0.262127 -0.0376224 0.561963
-0.302441 -0.0376108 0.532428
-0.201235 -0.037599 0.573674
-0.024491 -0.0375931 0.652021
-0.21904 -0.0375746 0.546184
-0.357442 -0.0375626 0.467676
-0.273466 -0.0375504 0.500378
-0.401174 -0.0375382 0.427258
-0.295297 -0.0375258 0.47095
-0.179975 -0.0375135 0.519365
-0.140158 -0.037501 0.530059
-0.173697 -0.0374884 0.504096
-0.424038 -0.0374756 0.369752
-0.366669 -0.0374572 0.389941
-0.239792 -0.0374498 0.44359
-0.138326 -0.0374377 0.48509
-0.175234 -0.0374246 0.457536
-0.456657 -0.0374114 0.307745
-0.394334 -0.037393 0.330451
-0.298421 -0.0373846 0.368766
-0.19447 -0.0373728 0.411511
-0.477792 -0.0373592 0.260845
-0.00725167 -0.0373455 0.487131
-0.1561 -0.0373317 0.403744
-0.435507 -0.0373133 0.255643
-0.279635 -0.0373063 0.323804
-0.445016 -0.0372922 0.232205
-0.287931 -0.0372781 0.301859
-0.246487 -0.0372638 0.313715
-0.281499 -0.0372494 0.287364
-0.22191 -0.0372392 0.307798
-0.157003 -0.0372276 0.331086
-0.0774205 -0.037209 0.362571
-0.190086 -0.0371942 0.29747
-0.502645 -0.0371794 0.132444
-0.0303726 -0.0371682 0.359379
-0.254786 -0.0371569 0.238005
-0.319915 -0.0371417 0.196751
-0.18745 -0.0371265 0.254317
-0.318252 -0.0371111 0.180271
0.0285387 -0.0370957 0.345044
-0.133173 -0.0370846 0.255019
-0.279599 -0.037069 0.173217
-0.165311 -0.0370533 0.221795
-0.275165 -0.0370375 0.158323
-0.267624 -0.0370248 0.153165
-0.398639 -0.0370136 0.078542
-0.171546 -0.0369975 0.183603
-0.236141 -0.0369814 0.142842
-0.255873 -0.0369651 0.124537
-0.199133 -0.0369569 0.143433
-0.0828734 -0.0369405 0.193159
-0.17559 -0.0369239 0.13842
-0.195242 -0.0369073 0.120236
-0.0499994 -0.0368905 0.184523
-0.0220665 -0.0368821 0.189079
-0.125807 -0.0368652 0.128911
-0.418292 -0.0368482 -0.0256062
-0.368626 -0.0368286 -0.00869742
-0.103897 -0.0368168 0.114731
-0.120295 -0.0368027 0.0978905
-0.168375 -0.0367854 0.0656574
-0.141239 -0.0367679 0.0710558
-0.268029 -0.0367504 -0.000485749
-0.258275 -0.0367416 -0.00490418
-0.259798 -0.0367239 -0.0137745
-0.0640093 -0.026069 1.42686
-0.191831 -0.0259713 1.36513
-0.480259 -0.0259285 1.21568
-0.312777 -0.0258997 1.29229
-0.456914 -0.0258837 1.21136
-0.170155 -0.0258416 1.34948
-0.143109 -0.025827 1.354
-0.190985 -0.0257979 1.32307
-0.232029 -0.0257953 1.29188
-0.274728 -0.0257678 1.26335
-0.176262 -0.0257522 1.30376
-0.281346 -0.0257381 1.24221
-0.300908 -0.0257226 1.22361
-0.199065 -0.0257087 1.26552
-0.255958 -0.0256934 1.22826
-0.0482116 -0.0256782 1.32332
-0.718106 -0.0256646 0.979345
-0.543482 -0.0256496 1.05784
-0.477322 -0.0256464 1.08042
-0.353709 -0.0256331 1.13319
-0.283838 -0.0256182 1.15932
-0.235812 -0.0256052 1.17428
-0.273321 -0.0255906 1.14671
-0.399798 -0.0255871 1.07305
-0.0344153 -0.0255725 1.24693
-0.391031 -0.02556 1.05954
-0.512173 -0.0255563 0.988598
-0.023839 -0.025542 1.22396
-0.352836 -0.0255381 1.04912
-0.31727 -0.0255258 1.05781
-0.372868 -0.0255117 1.0212
-0.289524 -0.0254978 1.05405
-0.23045 -0.0254958 1.07301
-0.201741 -0.025482 1.07854
-0.0717952 -0.0254777 1.13327
-0.192334 -0.025464 1.06418
-0.354073 -0.0254596 0.9731
-0.140223 -0.0254482 1.07088
-0.252154 -0.0254437 1.00473
-0.305003 -0.0254302 0.969489
-0.228018 -0.0254256 0.997833
-0.134777 -0.0254146 1.03528
-0.315029 -0.0254098 0.935033
-0.238384 -0.0253965 0.964543
-0.0436493 -0.0253916 1.05182
-0.37365 -0.025381 0.877624
-0.339154 -0.0253759 0.884814
-0.392256 -0.025363 0.849446
-0.235083 -0.0253578 0.918011
-0.312552 -0.0253449 0.870458
-0.394437 -0.0253423 0.819108
-0.0718219 -0.0253369 0.97044
-0.659048 -0.0253241 0.668018
-0.545805 -0.0253186 0.714701
-0.0942953 -0.025306 0.931644
-0.481625 -0.0253003 0.728077
-0.324819 -0.0252974 0.796132
-0.302277 -0.0252849 0.7986
-0.222854 -0.025279 0.828455
-0.134786 -0.0252667 0.863682
-0.357156 -0.0252606 0.742678
-0.329003 -0.0252576 0.746457
-0.147538 -0.0252453 0.828388
-0.486629 -0.0252391 0.649071
-0.395802 -0.0252328 0.68473
-0.586873 -0.0252207 0.580406
-0.367296 -0.0252142 0.680478
-0.341678 -0.025211 0.683051
-0.192201 -0.0251989 0.749005
-0.0211153 -0.0251923 0.824879
-0.116026 -0.0251856 0.767774
-0.303874 -0.0251737 0.665076
-0.167543 -0.0251702 0.723057
-0.407107 -0.0251634 0.593674
-0.298664 -0.0251564 0.638314
-0.262744 -0.0251445 0.647522
-0.344643 -0.0251374 0.597028
-0.167297 -0.0251302 0.676176
-0.0633189 -0.0251221 0.718807
-0.0540116 -0.0251148 0.713966
-0.0801253 -0.0251074 0.691434
-0.205013 -0.0251 0.619534
-0.421914 -0.0250883 0.502361
-0.203714 -0.0250807 0.602043
-0.414729 -0.0250769 0.486479
-0.22785 -0.0250692 0.570532
-0.192232 -0.0250575 0.579638
-0.150516 -0.0250497 0.591149
-0.282907 -0.0250418 0.515626
-0.117502 -0.0250338 0.589021
-0.116356 -0.0250257 0.580306
-0.388779 -0.0250182 0.434726
-0.299233 -0.02501 0.470242
-0.273759 -0.0250018 0.473743
0.0215383 -0.0249903 0.612733
-0.363676 -0.0249819 0.41093
-0.269976 -0.0249766 0.448048
-0.211997 -0.0249692 0.46768
-0.284707 -0.0249606 0.422182
-0.298578 -0.024952 0.406123
-0.286137 -0.0249405 0.403742
-0.211606 -0.0249317 0.431925
-0.165972 -0.0249256 0.445182
-0.238878 -0.0249184 0.399382
-0.135112 -0.0249094 0.442236
-0.59905 -0.0248979 0.201702
-0.28955 -0.0248888 0.347464
-0.0468894 -0.0248821 0.459388
-0.247723 -0.0248751 0.349622
-0.383428 -0.0248658 0.272837
-0.0565069 -0.0248564 0.427386
-0.333753 -0.024847 0.279872
-0.166884 -0.0248354 0.354817
-0.191806 -0.0248303 0.332697
-0.24147 -0.0248211 0.298957
-0.234603 -0.0248114 0.293576
-0.158459 -0.0248017 0.322855
-0.339847 -0.0247919 0.223389
-0.0796833 -0.024782 0.344721
-0.206335 -0.024777 0.271737
-0.257422 -0.0247653 0.237793
-0.134319 -0.0247553 0.290649
-0.137976 -0.0247452 0.280148
-0.145327 -0.024735 0.267822
-0.328957 -0.0247299 0.166408
-0.346822 -0.0247196 0.14886
-0.362362 -0.0247092 0.132498
-0.110209 -0.0246988 0.250003
-0.346236 -0.0246883 0.123442
-0.111442 -0.024683 0.231301
-0.147046 -0.0246724 0.204986
-0.00575031 -0.0246617 0.267144
-0.386068 -0.0246497 0.0687545
-0.420212 -0.0246389 0.0432357
-0.265566 -0.0246335 0.111082
-0.358447 -0.0246225 0.0562312
-0.202617 -0.0246116 0.125758
-0.356873 -0.0246005 0.0402654
-0.0478593 -0.0245894 0.18643
-0.232732 -0.0245838 0.0845812
-0.0785676 -0.0245726 0.153358
-0.2324 -0.0245613 0.0681598
-0.176659 -0.0245499 0.0877716
-0.30922 -0.0245442 0.0121282
-0.175947 -0.0245327 0.0705428
-0.42297 -0.0245212 -0.0611672
-0.162962 -0.0245096 0.060662
-0.43773 -0.0244979 -0.0848737
-0.340019 -0.0244921 -0.0453163
-0.0495424 -0.0244803 0.0918083
-0.448112 -0.0130316 1.28012
-0.432146 -0.0129827 1.29013
-0.447178 -0.0129614 1.27728
-0.580295 -0.012954 1.20165
-0.157415 -0.0129393 1.40602
-0.21236 -0.0129252 1.37133
-0.353315 -0.0129175 1.29194
-0.310134 -0.0129036 1.30629
-0.431627 -0.0128965 1.23648
-0.33199 -0.0128823 1.27918
-0.377531 -0.0128812 1.24573
-0.431188 -0.0128678 1.2116
-0.404485 -0.0128603 1.21605
-0.49786 -0.0128535 1.16028
-0.221852 -0.0128461 1.28938
-0.368834 -0.0128448 1.20528
-0.464805 -0.0128381 1.14822
-0.300272 -0.0128307 1.22159
-0.492232 -0.0128242 1.11652
-0.165056 -0.0128169 1.2712
-0.154979 -0.0128098 1.26734
-0.401335 -0.0128082 1.13365
-0.470457 -0.0128019 1.08998
-0.05303 -0.0127948 1.28979
-0.308799 -0.0127932 1.15144
-0.26937 -0.0127869 1.16203
-0.547985 -0.01278 1.01382
-0.256936 -0.0127731 1.15044
-0.19216 -0.0127713 1.17243
-0.377372 -0.0127654 1.07066
-0.468515 -0.0127586 1.01617
-0.585824 -0.0127567 0.947163
-0.354741 -0.012751 1.05352
-0.386541 -0.012749 1.02729
-0.355436 -0.0127424 1.03393
-0.174128 -0.0127358 1.11567
-0.350018 -0.0127348 1.01714
-0.451329 -0.0127282 0.957563
-0.110661 -0.0127262 1.11765
-0.274686 -0.0127197 1.02672
-0.230874 -0.0127175 1.03841
-0.429765 -0.0127122 0.929713
-0.57399 -0.01271 0.847416
-0.078393 -0.0127036 1.08629
-0.338413 -0.0127013 0.946131
-0.152149 -0.0126962 1.02998
-0.280435 -0.0126939 0.955715
-0.372416 -0.0126877 0.900794
-0.540098 -0.0126852 0.806866
-0.514288 -0.0126791 0.810838
-0.160275 -0.0126778 0.977401
-0.307282 -0.0126753 0.893856
-0.246923 -0.0126692 0.915112
-0.529249 -0.0126666 0.763942
-0.397579 -0.0126606 0.82085
-0.161267 -0.0126579 0.929035
-0.219204 -0.0126552 0.890113
-0.545258 -0.0126506 0.717734
-0.211428 -0.0126478 0.874723
-0.286735 -0.0126419 0.828144
-0.509106 -0.0126391 0.707069
-0.288009 -0.0126362 0.807746
-0.453713 -0.0126318 0.715509
-0.320076 -0.0126288 0.772484
-0.2055 -0.0126231 0.820844
-0.234196 -0.0126201 0.79669
-0.0588072 -0.012617 0.874596
-0.267624 -0.0126128 0.760765
-0.351105 -0.0126097 0.709265
0.0414122 -0.0126066 0.895782
-0.410527 -0.0126009 0.660897
-0.24101 -0.0125977 0.735951
-0.0746366 -0.0125944 0.809452
-0.308846 -0.0125911 0.682679
-0.38804 -0.0125872 0.63364
-0.307137 -0.0125838 0.664453
-0.373573 -0.0125804 0.621616
-0.416249 -0.0125748 0.591391
-0.231529 -0.0125714 0.674169
-0.220092 -0.0125679 0.670324
-0.374158 -0.0125641 0.583815
-0.377907 -0.0125606 0.572407
-0.0435521 -0.012557 0.73007
0.111481 -0.0125533 0.798092
-0.119317 -0.0125478 0.673832
-0.151778 -0.0125441 0.648144
-0.204361 -0.0125422 0.611801
-0.0780896 -0.0125385 0.665483
-0.214517 -0.0125331 0.588426
-0.342647 -0.0125292 0.514974
-0.31535 -0.0125254 0.519254
-0.0704017 -0.0125215 0.63238
-0.318341 -0.012518 0.498906
-0.463886 -0.0125141 0.416815
-0.149657 -0.0125101 0.564632
-0.250296 -0.012506 0.505035
-0.111212 -0.0125007 0.565773
-0.301653 -0.0124966 0.461314
-0.132665 -0.0124937 0.536137
-0.347717 -0.0124903 0.419127
-0.148266 -0.0124861 0.509666
-0.0567199 -0.0124808 0.546671
-0.373091 -0.0124765 0.379339
-0.0907778 -0.0124722 0.511369
-0.210711 -0.012469 0.441902
-0.148321 -0.0124657 0.463622
-0.407726 -0.0124603 0.325186
-0.210168 -0.0124559 0.414912
-0.135813 -0.0124515 0.443057
-0.21383 -0.012447 0.395037
-0.231256 -0.0124433 0.376999
-0.163264 -0.0124401 0.401527
-0.00567762 -0.0124356 0.471363
-0.396991 -0.0124302 0.267046
-0.415689 -0.0124255 0.248781
-0.162208 -0.0124208 0.366626
-0.292374 -0.0124185 0.291799
-0.2172 -0.0124137 0.320524
-0.0571447 -0.0124089 0.391712
0.0665256 -0.0124041 0.444729
-0.261193 -0.0123987 0.272284
-0.239138 -0.0123944 0.274325
-0.199007 -0.0123913 0.284926
-0.39595 -0.0123864 0.177712
-0.363373 -0.0123814 0.18528
-0.254114 -0.0123764 0.231211
-0.169002 -0.0123714 0.26509
0.0471296 -0.0123688 0.363542
-0.359846 -0.0123637 0.151413
-0.353069 -0.0123586 0.146182
-0.209562 -0.0123531 0.209475
-0.258167 -0.0123479 0.176595
-0.197037 -0.0123435 0.198285
-0.38425 -0.01234 0.0954584
-0.407491 -0.0123347 0.075319
-0.366637 -0.0123294 0.0872491
-0.288551 -0.0123241 0.117818
-0.193046 -0.012319 0.156996
-0.350768 -0.012316 0.068779
-0.13348 -0.0123105 0.169008
-0.497012 -0.012305 -0.0211508
-0.172629 -0.0122995 0.132671
-0.106996 -0.0122968 0.156058
-0.304465 -0.0122912 0.0489906
-0.406451 -0.0122856 -0.0103129
-0.222567 -0.01228 0.0733418
0.0622843 -0.0122743 0.207503
-0.0470405 -0.0122714 0.143476
-0.359625 -0.0122657 -0.0210437
-0.197235 -0.01226 0.0519474
-0.175745 -0.0122542 0.0545121
-0.097739 -0.0122484 0.0853577
-0.114927 -0.0122455 0.0674632
-0.303745 -0.0122396 -0.0350654
-0.0409201 0 1.52921
-0.180256 0 1.45956
-0.23436 0 1.42708
-0.450892 0 1.31153
-0.329998 0 1.36296
-0.29929 0 1.37285
-0.215398 0 1.40568
-0.319443 0 1.34645
-0.395965 0 1.29741
-0.435114 0 1.2705
-0.405391 0 1.27624
-0.373284 0 1.28331
-0.418614 0 1.25166
-0.520834 0 1.19142
-0.293989 0 1.29586
-0.428865 0 1.21929
-0.366143 0 1.24166
-0.284052 0 1.27372
-0.553251 0 1.12996
-0.388759 0 1.20321
-0.368712 0 1.20265
-0.230716 0 1.26248
-0.314 0 1.21184
-0.197769 0 1.26096
-0.453332 0 1.12266
-0.4152 0 1.13253
-0.461384 0 1.10044
-0.620364 0 1.01047
-0.391102 0 1.11588
-0.617978 0 0.993436
-0.255491 0 1.16425
-0.544571 0 1.01071
-0.469259 0 1.03772
-0.307909 0 1.10939
-0.224886 0 1.14189
-0.394965 0 1.0465
-0.541806 0 0.963793
-0.196293 0 1.12622
-0.350623 0 1.04005
-0.336098 0 1.03828
-0.660076 0 0.865719
-0.562231 0 0.905608
-0.552176 0 0.90039
-0.25243 0 1.04123
-0.243484 0 1.03549
-0.302256 0 0.995909
-0.533749 0 0.870808
-0.201571 0 1.02785
-0.716514 0 0.760232
-0.529908 0 0.843401
-0.599995 0 0.798968
-0.257391 0 0.960163
-0.267413 0 0.946114
-0.488427 0 0.825535
-0.370246 0 0.875583
-0.20952 0 0.945909
-0.346698 0 0.867299
-0.47627 0 0.793076
-0.368947 0 0.836744
-0.175965 0 0.924192
-0.426297 0 0.789069
-0.296843 0 0.843856
-0.359872 0 0.802869
-0.410803 0 0.767491
0.00704202 0 0.967367
-0.236869 0 0.835535
-0.285516 0 0.802155
0.0972984 0 0.983248
-0.286685 0 0.781426
-0.255879 0 0.787016
-0.37402 0 0.718909
-0.435509 0 0.678388
-0.453581 0 0.660305
-0.343835 0 0.705438
-0.145784 0 0.794219
-0.274231 0 0.720283
-0.477193 0 0.609774
-0.026692 0 0.82535
-0.377643 0 0.640218
-0.368014 0 0.63601
-0.168493 0 0.725586
-0.312562 0 0.643943
-0.419111 0 0.581645
-0.204601 0 0.679328
-0.250373 0 0.646889
-0.211296 0 0.656894
-0.390029 0 0.558012
-0.295716 0 0.595673
-0.220958 0 0.623466
-0.16321 0 0.642874
-0.159712 0 0.635638
-0.0962873 0 0.657923
-0.267256 0 0.56303
-0.427287 0 0.473625
-0.228355 0 0.563462
-0.305738 0 0.515412
-0.379545 0 0.469169
-0.396408 0 0.451418
-0.272077 0 0.504636
-0.220531 0 0.521128
-0.62555 0 0.309007
-0.301273 0 0.461535
-0.162189 0 0.521848
0.0872298 0 0.637643
-0.383506 0 0.393085
-0.414503 0 0.368417
-0.432888 0 0.349784
-0.138209 0 0.48752
-0.00729415 0 0.544096
-0.361673 0 0.357809
-0.219117 0 0.42001
-0.286451 0 0.377286
-0.224878 0 0.399037
-0.191282 0 0.406007
-0.0492155 0 0.468212
-0.2798 0 0.343936
-0.263603 0 0.343072
-0.219601 0 0.356132
-0.0993019 0 0.407361
-0.408535 0 0.242986
-0.155955 0 0.360499
-0.0626779 0 0.39827
0.0550081 0 0.448268
-0.195764 0 0.314057
-0.385222 0 0.210425
-0.109742 0 0.338577
-0.314995 0 0.227183
-0.18858 0 0.281644
-0.163756 0 0.285331
-0.150412 0 0.283337
-0.199998 0 0.249737
-0.17991 0 0.250288
-0.0425708 0 0.310309
-0.16006 0 0.242938
-0.260192 0 0.184268
-0.18816 0 0.211701
-0.20714 0 0.192656
-0.196323 0 0.189518
-0.14558 0 0.206365
-0.0585819 0 0.241363
-0.091574 0 0.216387
-0.146861 0 0.179249
0.022696 0 0.255585
-0.190953 0 0.14034
-0.229648 0 0.112595
-0.0755951 0 0.181246
-0.295155 0 0.0620345
-0.393354 0 0.00459941
-0.0979107 0 0.144008
-0.228476 0 0.0704354
-0.435858 0 -0.0415225
-0.277179 0 0.0284504
-0.145537 0 0.0860418
0.0535482 0 0.177378
-0.413654 0 -0.0644067
-0.286848 0 -0.00916398
-0.244525 0 0.00269569
-0.30688 0 -0.0366043
-0.375735 0.0130307 1.40563
-0.349114 0.0129887 1.41882
-0.259416 0.0129675 1.45814
-0.44743 0.0129534 1.35678
-0.197228 0.0129459 1.4728
-0.422779 0.0129252 1.35446
-0.402664 0.0129182 1.35535
-0.431662 0.0129042 1.33355
-0.245839 0.0128973 1.41729
-0.503296 0.0128901 1.2795
-0.465119 0.0128832 1.28942
-0.553673 0.012876 1.23608
-0.468683 0.0128689 1.26952
-0.295693 0.0128622 1.34684
-0.412368 0.0128551 1.27945
-0.448601 0.0128486 1.25215
-0.410413 0.0128416 1.26218
-0.357789 0.0128347 1.27944
-0.268141 0.0128283 1.31505
-0.426692 0.0128215 1.22671
-0.240335 0.0128204 1.30925
-0.483671 0.0128142 1.17836
-0.495491 0.0128075 1.16339
-0.303149 0.0128008 1.25049
-0.55754 0.0127948 1.11404
-0.539758 0.0127936 1.11236
