ply
format ascii 1.0
comment Created by Open3D
element vertex 1855
property double x
property double y
property double z
end_header
-0.595095 0.656007 1.74641
-0.985214 0.66281 2.34039
-1.01694 0.660158 2.32235
-1.03974 0.658165 2.30669
-1.04844 0.657209 2.2947
-1.0637 0.655771 2.28106
-1.06774 0.655159 2.27032
-1.07569 0.654261 2.25861
-1.07936 0.653677 2.248
-1.08667 0.652826 2.2365
-1.08988 0.652278 2.22605
-1.09044 0.651923 2.21627
-1.09322 0.651406 2.20595
-1.09337 0.651082 2.19629
-1.09566 0.650603 2.18613
-1.09222 0.650541 2.17737
-1.09411 0.650091 2.16732
-1.09342 0.64983 2.15791
-1.09246 0.649589 2.14857
-1.09087 0.649393 2.13939
-1.08949 0.649183 2.13016
-1.08545 0.649166 2.12157
-1.08365 0.648987 2.11246
-1.08154 0.64883 2.10342
-1.07717 0.648838 2.09492
-1.07273 0.648851 2.08643
-1.07001 0.648739 2.07754
-1.06536 0.648767 2.06911
-1.06011 0.648838 2.06081
-1.05658 0.648785 2.05211
-1.05155 0.64884 2.04376
-1.04555 0.648966 2.03562
-1.0403 0.649038 2.02732
-1.03497 0.649115 2.01903
-1.02835 0.649285 2.01102
-1.02279 0.649379 2.00278
-1.0157 0.649583 1.99487
-1.00989 0.649694 1.98667
-1.00053 0.650062 1.97925
-0.994497 0.650189 1.97109
-0.986644 0.650447 1.96333
-0.978456 0.65073 1.95563
-0.970422 0.651001 1.94788
-0.963398 0.651198 1.93992
-0.953534 0.651601 1.93255
-0.945969 0.651837 1.92469
-0.93597 0.652248 1.91733
-0.926328 0.652633 1.90988
-0.917723 0.652944 1.90221
-0.907594 0.653363 1.89484
-0.897475 0.653782 1.88746
-0.887106 0.654218 1.88012
-0.876394 0.654678 1.87284
-0.866045 0.655111 1.86547
-0.854875 0.655604 1.85826
-0.843369 0.656119 1.85109
-0.832792 0.656568 1.84373
-0.819611 0.657203 1.83687
-0.806167 0.657856 1.83005
-0.793629 0.658443 1.82303
-0.78279 0.658909 1.81566
-0.768734 0.659604 1.80891
-0.754441 0.660315 1.80218
-0.73992 0.661042 1.79547
-0.721399 0.662053 1.78952
-0.701349 0.663173 1.78383
-0.685969 0.663959 1.77722
-0.660842 0.665438 1.77243
-0.639562 0.666642 1.76688
-0.598093 0.669282 1.76508
-0.986013 0.675823 2.35003
-1.02464 0.672602 2.33016
-1.04486 0.670762 2.31514
-1.06044 0.669271 2.30136
-1.07146 0.668124 2.2888
-1.07964 0.66719 2.277
-1.0835 0.66658 2.26632
-1.09114 0.665688 2.2547
-1.09459 0.66511 2.24417
-1.10153 0.664272 2.23277
-1.10446 0.663733 2.2224
-1.10473 0.663394 2.21271
-1.1072 0.662891 2.20249
-1.10381 0.662825 2.19372
-1.10591 0.662351 2.18361
-1.10537 0.662073 2.17415
-1.10459 0.661813 2.16477
-1.10584 0.661403 2.1549
-1.10193 0.661377 2.14628
-1.10047 0.661169 2.13708
-1.09637 0.661156 2.12851
-1.09448 0.66098 2.11942
-1.09239 0.660819 2.11039
-1.08786 0.660839 2.10193
-1.08552 0.660697 2.09296
-1.08057 0.660748 2.0846
-1.07797 0.660625 2.07569
-1.07257 0.660709 2.06744
-1.06764 0.660759 2.05907
-1.06384 0.660725 2.05044
-1.05769 0.660864 2.04235
-1.05237 0.660943 2.03407
-1.04698 0.661026 2.02581
-1.04022 0.66121 2.01784
-1.03459 0.661311 2.00962
-1.02736 0.66153 2.00176
-1.01964 0.661784 1.99399
-1.01196 0.662036 1.98621
-1.00586 0.662171 1.97808
-0.997906 0.662442 1.97035
-0.989591 0.662739 1.96269
-0.981456 0.663023 1.95498
-0.972666 0.663355 1.9474
-0.964346 0.663652 1.93971
-0.955075 0.664018 1.93222
-0.946567 0.664328 1.92456
-0.93681 0.66473 1.91715
-0.926711 0.665156 1.9098
-0.916356 0.665601 1.90249
-0.907487 0.665936 1.89486
-0.897115 0.666381 1.88754
-0.886298 0.666858 1.88029
-0.873753 0.667461 1.87338
-0.862291 0.667984 1.86624
-0.851609 0.66845 1.85892
-0.839703 0.669005 1.85183
-0.826204 0.669675 1.84506
-0.812448 0.670364 1.83831
-0.798443 0.67107 1.83159
-0.784195 0.671793 1.8249
-0.769712 0.672533 1.81824
-0.755003 0.673288 1.8116
-0.740079 0.674059 1.80498
-0.721029 0.675129 1.79914
-0.700451 0.676309 1.79356
-0.6751 0.677834 1.78887
-0.649019 0.679412 1.78427
-1.03247 0.685025 2.33792
-1.05266 0.683152 2.32288
-1.06827 0.681631 2.30908
-1.08353 0.680138 2.29542
-1.08754 0.679505 2.28468
-1.09545 0.678574 2.27296
-1.09911 0.677968 2.26235
-1.10641 0.677086 2.25084
-1.10961 0.676516 2.24038
-1.1126 0.675963 2.22999
-1.11537 0.675427 2.21968
-1.11544 0.675097 2.21005
-1.11773 0.674599 2.19988
-1.11734 0.674304 2.19038
-1.11613 0.674073 2.1811
-1.11821 0.673591 2.17102
-1.11436 0.67356 2.16239
-1.11308 0.673334 2.15314
-1.11136 0.673141 2.14401
-1.10965 0.672948 2.13488
-1.10765 0.672778 2.12582
-1.10329 0.672785 2.11733
-1.10109 0.67263 2.10833
-1.09808 0.672536 2.09952
-1.09337 0.67257 2.09111
-1.08859 0.67261 2.08272
-1.08519 0.672545 2.07401
-1.08018 0.672601 2.06567
-1.07422 0.67273 2.05755
-1.069 0.672803 2.04926
-1.0646 0.672813 2.04078
-1.05914 0.672904 2.03253
-1.05224 0.673102 2.02461
-1.04655 0.67321 2.01642
-1.03918 0.673444 2.00859
-1.03136 0.673711 2.00087
-1.02354 0.673978 1.99313
-1.01738 0.67412 1.98502
-1.00907 0.674423 1.97737
-1.00088 0.674718 1.9697
-0.992647 0.675015 1.96202
-0.983735 0.675362 1.95448
-0.976178 0.675608 1.94664
-0.965927 0.676055 1.93937
-0.957836 0.67634 1.93163
-0.947451 0.676797 1.92437
-0.937241 0.67724 1.91706
-0.926752 0.677703 1.90979
-0.916272 0.678165 1.90251
-0.905493 0.678649 1.89528
-0.894378 0.679158 1.8881
-0.883675 0.679636 1.88083
-0.872113 0.680177 1.87372
-0.858855 0.680844 1.86694
-0.845335 0.681529 1.86019
-0.832859 0.682137 1.85322
-0.821779 0.68264 1.84595
-0.804493 0.683604 1.8399
-0.789952 0.684363 1.83328
-0.775183 0.685138 1.82669
-0.760195 0.685929 1.82011
-0.740048 0.687102 1.81453
-0.720497 0.688229 1.8088
-0.699419 0.689469 1.80333
-0.673504 0.691066 1.79876
-1.03338 0.697978 2.34749
-1.06059 0.695523 2.33059
-1.07622 0.693971 2.31677
-1.09152 0.692447 2.30307
-1.09966 0.691481 2.29127
-1.10349 0.690849 2.28059
-1.1111 0.689925 2.26897
-1.11454 0.689326 2.25843
-1.11778 0.688742 2.24796
-1.12441 0.687897 2.23665
-1.12712 0.687356 2.22635
-1.12711 0.687026 2.21675
-1.12934 0.686523 2.20659
-1.12823 0.686279 2.19728
-1.12763 0.685996 2.18785
-1.12678 0.685732 2.17848
-1.12806 0.685304 2.16861
-1.12667 0.685083 2.1594
-1.12257 0.68507 2.15084
-1.12078 0.684881 2.14174
-1.11879 0.684706 2.13268
-1.11654 0.684551 2.12369
-1.11398 0.684421 2.11478
-1.10934 0.684451 2.10637
-1.10632 0.684356 2.09758
-1.10147 0.684402 2.08921
-1.09655 0.684453 2.08086
-1.09288 0.684408 2.07222
-1.08677 0.684551 2.06415
-1.08148 0.68463 2.05588
-1.07494 0.684806 2.0479
-1.0701 0.684851 2.03952
-1.06442 0.684961 2.03133
-1.05865 0.685076 2.02316
-1.05115 0.685324 2.01538
-1.04515 0.685458 2.00726
-1.03528 0.685887 1.99999
-1.02905 0.686037 1.9919
-1.0209 0.686335 1.98424
-1.01233 0.686664 1.97666
-1.00522 0.686881 1.96875
-0.994958 0.687339 1.96152
-0.987321 0.687595 1.9537
-0.976934 0.688062 1.94648
-0.96709 0.688486 1.93913
-0.958248 0.688834 1.93154
-0.947927 0.689294 1.92427
-0.937305 0.689776 1.91704
-0.926535 0.69027 1.90984
-0.915808 0.690759 1.90261
-0.90459 0.691286 1.89547
-0.891575 0.691948 1.88869
-0.879728 0.692521 1.88165
-0.868701 0.693032 1.87442
-0.852321 0.693947 1.86827
-0.839578 0.694587 1.86136
-0.825217 0.695348 1.85476
-0.810619 0.696127 1.84819
-0.79455 0.697016 1.84189
-0.775907 0.698099 1.83608
-0.760532 0.698934 1.82959
-0.739846 0.70017 1.82412
-0.719822 0.701354 1.81849
-0.688369 0.703401 1.81506
-0.634854 0.707112 1.81585
-1.03439 0.710931 2.35703
-1.06865 0.707872 2.33825
-1.08429 0.706292 2.32441
-1.09963 0.704736 2.31069
-1.10778 0.70375 2.29887
-1.11565 0.702788 2.28715
-1.11928 0.702161 2.27654
-1.12917 0.701041 2.26435
-1.12976 0.700657 2.25456
-1.13275 0.700083 2.24417
-1.13553 0.699527 2.23385
-1.13807 0.69899 2.2236
-1.13785 0.698671 2.21406
-1.1399 0.698173 2.20396
-1.13921 0.697892 2.19456
-1.14071 0.697439 2.18462
-1.1368 0.697412 2.17602
-1.13787 0.696993 2.16621
-1.13624 0.696787 2.15707
-1.13433 0.696603 2.148
-1.12997 0.696611 2.13952
-1.12787 0.696442 2.1305
-1.12537 0.696305 2.12158
-1.12074 0.696335 2.11317
-1.11778 0.696234 2.10437
-1.11294 0.69628 2.09601
-1.10951 0.696216 2.08732
-1.10357 0.696348 2.07922
-1.09948 0.696336 2.07069
-1.09412 0.696423 2.06244
-1.08869 0.696515 2.05422
-1.08185 0.696717 2.04631
-1.07619 0.696827 2.03813
-1.0689 0.697065 2.03032
-1.06301 0.697192 2.02218
-1.05525 0.697466 2.01446
-1.04718 0.697763 2.0068
-1.04088 0.697922 1.99874
-1.03262 0.698233 1.99111
-1.02578 0.698434 1.98316
-1.01673 0.698806 1.97569
-1.00634 0.699283 1.9685
-0.998617 0.699551 1.96072
-0.988766 0.699985 1.95339
-0.979853 0.700345 1.94585
-0.969531 0.700815 1.9386
-0.958768 0.701318 1.93143
-0.948014 0.70182 1.92425
-0.937137 0.702331 1.91708
-0.92593 0.702867 1.90997
-0.912854 0.703547 1.90323
-0.901805 0.70407 1.89605
-0.88986 0.704662 1.88904
-0.87615 0.705389 1.88238
-0.862186 0.706136 1.87576
-0.847973 0.706901 1.86916
-0.831707 0.707823 1.86296
-0.815508 0.70874 1.85673
-0.800432 0.709569 1.85024
-0.781444 0.710699 1.84451
-0.760691 0.711964 1.83911
-0.735332 0.713583 1.83458
-0.713562 0.714924 1.8293
-0.676637 0.717429 1.82695
-1.0426 0.723315 2.36469
-1.07409 0.720422 2.3466
-1.09674 0.718247 2.3309
-1.10513 0.717223 2.31898
-1.11601 0.716 2.30644
-1.12391 0.715018 2.2947
-1.13414 0.713848 2.28239
-1.13755 0.71323 2.27186
-1.14445 0.712331 2.26045
-1.14119 0.71225 2.25165
-1.14402 0.711679 2.24132
-1.14997 0.710859 2.23021
-1.1522 0.710337 2.22006
-1.14856 0.710287 2.21138
-1.15042 0.709797 2.20135
-1.14951 0.709529 2.19201
-1.15081 0.709084 2.18213
-1.14936 0.708859 2.17294
-1.14762 0.708658 2.16383
-1.14575 0.708468 2.15475
-1.1436 0.708301 2.14575
-1.13911 0.70832 2.13731
-1.1369 0.708157 2.12833
-1.13414 0.708038 2.11949
-1.1288 0.708126 2.11126
-1.12616 0.707998 2.10239
-1.12173 0.708013 2.09394
-1.11653 0.708089 2.08568
-1.11126 0.70817 2.07742
-1.10592 0.708258 2.06919
-1.1014 0.708279 2.06076
-1.09442 0.708497 2.0529
-1.0887 0.708614 2.04474
-1.08127 0.708867 2.03697
-1.07531 0.709003 2.02886
-1.06742 0.709292 2.02118
-1.06123 0.709446 2.01311
-1.05286 0.709772 2.00553
-1.0445 0.710098 1.99793
-1.03757 0.710309 1.99001
-1.02839 0.710699 1.98258
-1.0197 0.71105 1.97504
-1.01006 0.711475 1.96769
-1.0001 0.711926 1.9604
-0.991089 0.712301 1.95289
-0.980655 0.712788 1.94568
-0.969892 0.713301 1.93852
-0.958888 0.713832 1.93141
-0.947894 0.714362 1.92428
-0.934976 0.715043 1.91754
-0.923367 0.71562 1.9105
-0.911436 0.716222 1.90352
-0.897669 0.716968 1.89691
-0.88365 0.717734 1.89033
-0.869382 0.718518 1.88378
-0.854872 0.71932 1.87726
-0.840125 0.720141 1.87076
-0.821751 0.721245 1.86499
-0.806401 0.722111 1.85857
-0.785796 0.723389 1.85318
-0.760693 0.725019 1.84866
-0.734745 0.726713 1.84427
-0.702387 0.728908 1.8411
-1.04386 0.736257 2.37418
-1.08237 0.732736 2.35419
-1.09801 0.731097 2.34031
-1.11342 0.729479 2.32653
-1.12435 0.72823 2.31397
-1.13227 0.727228 2.30221
-1.13989 0.726252 2.29057
-1.14602 0.725399 2.27933
-1.15299 0.724479 2.2679
-1.15596 0.723886 2.25752
-1.15609 0.723526 2.24787
-1.15864 0.722969 2.23762
-1.16094 0.722433 2.22744
-1.16299 0.721918 2.21735
-1.16223 0.721633 2.20797
-1.16374 0.721162 2.19803
-1.15977 0.72114 2.18947
-1.16085 0.720705 2.17965
-1.15917 0.720496 2.17053
-1.15722 0.720309 2.16148
-1.15522 0.720127 2.15245
-1.15281 0.719977 2.14352
-1.15011 0.719852 2.13466
-1.14535 0.719894 2.1263
-1.1422 0.719806 2.11756
-1.13723 0.719864 2.10925
-1.1336 0.719815 2.10062
-1.12842 0.719891 2.09236
-1.1243 0.719881 2.08385
-1.11889 0.719976 2.07564
-1.1121 0.720183 2.06775
-1.10714 0.72024 2.05943
-1.10135 0.720366 2.0513
-1.09378 0.720635 2.04357
-1.08776 0.720778 2.03549
-1.07973 0.721084 2.02785
-1.07348 0.721246 2.01981
-1.06498 0.721589 2.01227
-1.05652 0.721929 2.00471
-1.0495 0.722152 1.99682
-1.0402 0.722559 1.98943
-1.03142 0.722924 1.98191
-1.02166 0.723367 1.97461
-1.01269 0.723745 1.96711
-1.00247 0.724225 1.95988
-0.991928 0.72473 1.95271
-0.981057 0.725261 1.94559
-0.969925 0.725812 1.93852
-0.958802 0.726362 1.93143
-0.945743 0.727067 1.92473
-0.934033 0.727663 1.91774
-0.922004 0.728284 1.91079
-0.908103 0.729055 1.90422
-0.893952 0.729845 1.89769
-0.879556 0.730654 1.89118
-0.861835 0.731728 1.88534
-0.846803 0.732586 1.87891
-0.831549 0.733461 1.87252
-0.807412 0.735045 1.8679
-0.791487 0.735972 1.86158
-0.76598 0.737663 1.85717
-0.734061 0.739865 1.85399
-1.07935 0.745983 2.36477
-1.1064 0.743361 2.34785
-1.12183 0.741713 2.33405
-1.13002 0.74067 2.32219
-1.14074 0.739417 2.30969
-1.14839 0.738422 2.29803
-1.1584 0.73723 2.28578
-1.16162 0.736606 2.27531
-1.16464 0.735999 2.26491
-1.16745 0.73541 2.25458
-1.1674 0.73506 2.24499
-1.16977 0.734509 2.2348
-1.17189 0.733979 2.22469
-1.17117 0.733685 2.2153
-1.17277 0.7332 2.20534
-1.17154 0.732948 2.19609
-1.17257 0.732511 2.1863
-1.16836 0.732509 2.1778
-1.16893 0.732109 2.16814
-1.16673 0.73194 2.15916
-1.16219 0.731965 2.15075
-1.16 0.731795 2.14177
-1.15722 0.731675 2.13295
-1.15412 0.731581 2.1242
-1.1507 0.731513 2.11553
-1.1456 0.731584 2.10726
-1.14171 0.731556 2.0987
-1.13638 0.731646 2.09048
-1.12977 0.731842 2.08257
-1.12645 0.731766 2.07387
-1.11937 0.732 2.06606
-1.1136 0.732126 2.05793
-1.10821 0.732221 2.04972
-1.10036 0.732518 2.04206
-1.09419 0.732676 2.03402
-1.08587 0.733011 2.02646
-1.07744 0.733356 2.01891
-1.07069 0.733561 2.01098
-1.06158 0.73396 2.00357
-1.05283 0.73433 1.99608
-1.0452 0.734607 1.98832
-1.03435 0.735147 1.98127
-1.02434 0.735619 1.97402
-1.01401 0.736116 1.96682
-1.00335 0.73664 1.95969
-0.992369 0.737189 1.95261
-0.98111 0.737761 1.94558
-0.969861 0.738331 1.93853
-0.958343 0.738923 1.93152
-0.94485 0.739676 1.92492
-0.932724 0.740316 1.91801
-0.91869 0.741111 1.91149
-0.90165 0.742151 1.90557
-0.886959 0.742998 1.89914
-0.872033 0.743864 1.89274
-0.853555 0.745018 1.88704
-0.838029 0.745931 1.88072
-0.813451 0.74758 1.87621
-0.791967 0.748975 1.87104
-0.76587 0.750744 1.86676
-0.72301 0.753873 1.86581
-1.08075 0.758876 2.37419
-1.10781 0.756207 2.35723
-1.12332 0.754522 2.34338
-1.13854 0.752864 2.32965
-1.14931 0.751586 2.31714
-1.15699 0.75057 2.30546
-1.16709 0.749351 2.29318
-1.17034 0.748713 2.2827
-1.1734 0.748092 2.27228
-1.17975 0.747194 2.26104
-1.17891 0.746904 2.25166
-1.17867 0.746565 2.24213
-1.18398 0.745756 2.2312
-1.18578 0.745244 2.22119
-1.18186 0.745217 2.21262
-1.18325 0.744741 2.20272
-1.18181 0.744505 2.19354
-1.18262 0.744078 2.18381
-1.17828 0.744087 2.17536
-1.17863 0.7437 2.16575
-1.17619 0.743549 2.15685
-1.17345 0.743423 2.14801
-1.16864 0.743471 2.13968
-1.16617 0.743323 2.13079
-1.16282 0.743249 2.12211
-1.15772 0.743321 2.11385
-1.1539 0.743287 2.10528
-1.14745 0.743473 2.09734
-1.14428 0.743383 2.08862
-1.13817 0.743541 2.08059
-1.13241 0.743669 2.07248
-1.12657 0.743803 2.06438
-1.11891 0.74409 2.0567
-1.11309 0.744223 2.04859
-1.10686 0.744389 2.04057
-1.09845 0.744738 2.03304
-1.09195 0.744927 2.02508
-1.08303 0.745318 2.01765
-1.07431 0.745692 2.01017
-1.06695 0.745952 2.00237
-1.05724 0.746408 1.99509
-1.04626 0.746969 1.98808
-1.03613 0.747459 1.98087
-1.02756 0.747818 1.97331
-1.01676 0.748363 1.96622
-1.00545 0.74895 1.95923
-0.992442 0.749678 1.95259
-0.980929 0.75028 1.94562
-0.969447 0.75088 1.93862
-0.955258 0.751704 1.93218
-0.943593 0.752317 1.92519
-0.928462 0.753218 1.91892
-0.91385 0.754074 1.91251
-0.897434 0.75508 1.90646
-0.879212 0.756234 1.90076
-0.863784 0.757156 1.89445
-0.844592 0.758388 1.88889
-0.823411 0.759784 1.88372
-0.797764 0.761549 1.87942
-0.765658 0.763846 1.87638
-1.08225 0.771767 2.38359
-1.10928 0.769055 2.36659
-1.13192 0.766725 2.35083
-1.14717 0.765036 2.33708
-1.15798 0.763732 2.32454
-1.16569 0.762698 2.31285
-1.16923 0.762023 2.30226
-1.17915 0.760799 2.29004
-1.18587 0.759853 2.27868
-1.18868 0.759244 2.26835
-1.19127 0.758655 2.25809
-1.19093 0.758318 2.24859
-1.19307 0.757769 2.23847
-1.19494 0.757243 2.22843
-1.19654 0.75674 2.21847
-1.1925 0.756723 2.20995
-1.19369 0.756257 2.20011
-1.19206 0.756033 2.19099
-1.19261 0.755623 2.18133
-1.19036 0.755452 2.17238
-1.18577 0.755483 2.164
-1.18558 0.755137 2.15455
-1.18259 0.755031 2.14579
-1.17765 0.755092 2.1375
-1.17506 0.754951 2.12864
-1.17045 0.754984 2.12028
-1.16515 0.755075 2.11207
-1.16213 0.754972 2.10332
-1.15634 0.755105 2.09524
-1.15067 0.755228 2.08712
-1.14492 0.755357 2.07901
-1.13969 0.755443 2.07078
-1.13371 0.755592 2.06272
-1.12576 0.755908 2.05512
-1.11752 0.75625 2.04757
-1.11116 0.75643 2.03958
-1.10457 0.75663 2.03165
-1.09587 0.757009 2.02418
-1.08876 0.757253 2.01635
-1.07925 0.757701 2.00905
-1.06942 0.758175 2.00182
-1.06028 0.75859 1.99441
-1.05001 0.759101 1.98725
-1.03942 0.759638 1.98015
-1.02851 0.760202 1.9731
-1.01707 0.76081 1.96615
-1.00574 0.761408 1.95917
-0.994213 0.762023 1.95221
-0.980697 0.762805 1.94567
-0.968661 0.763461 1.93879
-0.953876 0.764349 1.93248
-0.939377 0.765212 1.92609
-0.924638 0.766094 1.91972
-0.906644 0.76725 1.91402
-0.889712 0.768316 1.90807
-0.870761 0.76955 1.90252
-0.851238 0.770832 1.89705
-0.829705 0.772282 1.89197
-0.798122 0.774576 1.88891
-0.755101 0.777831 1.88813
-1.11799 0.781276 2.37403
-1.13354 0.77953 2.36014
-1.15591 0.777187 2.34447
-1.1639 0.776108 2.33267
-1.17449 0.774803 2.3202
-1.17806 0.774116 2.30961
-1.18525 0.77311 2.29809
-1.19484 0.771897 2.28597
-1.19769 0.771274 2.27562
-1.20034 0.77067 2.26535
-1.20276 0.770086 2.25514
-1.20223 0.769761 2.2457
-1.20417 0.76922 2.23565
-1.20585 0.768703 2.22567
-1.20461 0.768441 2.21644
-1.20574 0.767972 2.20662
-1.20407 0.767748 2.19752
-1.20216 0.767546 2.18848
-1.20027 0.767341 2.17943
-1.20005 0.766993 2.16999
-1.19532 0.767036 2.16166
-1.19304 0.766866 2.15272
-1.18997 0.766766 2.14399
-1.18658 0.766693 2.13533
-1.18288 0.766647 2.12676
-1.17887 0.766629 2.11825
-1.17343 0.766734 2.11009
-1.16893 0.766758 2.10171
-1.16328 0.766882 2.09359
-1.15828 0.766949 2.08532
-1.1524 0.767092 2.07725
-1.145 0.767367 2.06954
-1.13881 0.767537 2.06154
-1.13254 0.767713 2.05355
-1.12401 0.768085 2.04608
-1.11751 0.768281 2.03813
-1.10853 0.768692 2.03074
-1.0997 0.769089 2.02331
-1.09028 0.769536 2.01601
-1.08258 0.769834 2.0083
-1.07251 0.770337 2.00112
-1.06212 0.770867 1.994
-1.05272 0.771312 1.98665
-1.04188 0.771879 1.9796
-1.03073 0.772473 1.97261
-1.01927 0.773093 1.96567
-1.00575 0.77389 1.95917
-0.993894 0.774542 1.95228
-0.979957 0.775373 1.94583
-0.965064 0.776286 1.93956
-0.950437 0.777174 1.93321
-0.935573 0.778083 1.9269
-0.920477 0.77901 1.9206
-0.901972 0.780229 1.91501
-0.881292 0.781633 1.90984
-0.861656 0.782946 1.90442
-0.830652 0.785231 1.90132
-0.804053 0.787138 1.89726
-0.73798 0.79242 1.90125
-1.10824 0.795134 2.38642
-1.14235 0.7917 2.36752
-1.15771 0.789944 2.3537
-1.17276 0.788218 2.34001
-1.1834 0.786886 2.32752
-1.18698 0.786186 2.31692
-1.19422 0.785161 2.30538
-1.20389 0.783919 2.29323
-1.20679 0.783281 2.28287
-1.20949 0.782663 2.27257
-1.21197 0.782065 2.26235
-1.21421 0.781488 2.25221
-1.21348 0.781176 2.24283
-1.21523 0.780644 2.23284
-1.21671 0.780136 2.22292
-1.21525 0.77989 2.21376
-1.21617 0.779434 2.20401
-1.2144 0.779215 2.19494
-1.21225 0.779031 2.18597
-1.21025 0.778834 2.17696
-1.20967 0.778512 2.16762
-1.20481 0.778567 2.15933
-1.20242 0.778406 2.15043
-1.19909 0.778327 2.14177
-1.19545 0.778275 2.13319
-1.19149 0.778252 2.12468
-1.18607 0.778358 2.11652
-1.18164 0.778376 2.10813
-1.17687 0.778424 2.09982
-1.17108 0.778563 2.09174
-1.16351 0.778858 2.08409
-1.15979 0.778813 2.07552
-1.15175 0.779149 2.06796
-1.14342 0.77951 2.06046
-1.13925 0.779506 2.05199
-1.13043 0.779909 2.04459
-1.12163 0.780311 2.03718
-1.11453 0.780563 2.02937
-1.10495 0.781032 2.02212
-1.09507 0.781528 2.01492
-1.08583 0.781966 2.00757
-1.07551 0.782499 2.00045
-1.06687 0.782884 1.99294
-1.0559 0.783474 1.98594
-1.04461 0.78409 1.979
-1.0311 0.7849 1.97253
-1.01929 0.78556 1.96567
-1.00547 0.786396 1.95923
-0.993209 0.787095 1.95243
-0.97886 0.787975 1.94606
-0.963394 0.788952 1.93992
-0.946652 0.79004 1.93402
-0.928402 0.791258 1.92842
-0.912807 0.792243 1.92223
-0.890109 0.793847 1.91751
-0.868539 0.79535 1.91251
-0.841046 0.797368 1.90871
-0.804342 0.800186 1.90677
-1.09866 0.809018 2.39879
-1.14411 0.804497 2.37679
-1.15953 0.802706 2.36293
-1.17471 0.80094 2.34918
-1.1855 0.799573 2.33663
-1.196 0.798234 2.32419
-1.20327 0.797188 2.31264
-1.20651 0.79651 2.30216
-1.21598 0.795267 2.29008
-1.21873 0.794635 2.27977
-1.22126 0.794022 2.26953
-1.22356 0.79343 2.25937
-1.22286 0.793111 2.24999
-1.22469 0.792564 2.23997
-1.22624 0.792041 2.23004
-1.22752 0.791544 2.22018
-1.22583 0.791315 2.21109
-1.22654 0.790871 2.2014
-1.22202 0.790897 2.19303
-1.22228 0.790494 2.18347
-1.21961 0.790354 2.17465
-1.21735 0.790178 2.16572
-1.21423 0.790079 2.15701
-1.21081 0.790007 2.14838
-1.20813 0.789868 2.13957
-1.20424 0.78984 2.13106
-1.19883 0.789946 2.12291
-1.19447 0.78996 2.11451
-1.18977 0.790002 2.10619
-1.184 0.790142 2.09812
-1.17881 0.790228 2.08991
-1.17095 0.790554 2.08233
-1.1651 0.7907 2.07427
-1.1588 0.790887 2.06631
-1.15018 0.791279 2.05889
-1.14365 0.791485 2.05097
-1.13679 0.791721 2.04313
-1.12739 0.792182 2.03586
-1.11831 0.792615 2.02851
-1.11061 0.792925 2.02083
-1.10045 0.793453 2.01371
-1.08998 0.794009 2.00664
-1.0792 0.794591 1.99962
-1.06811 0.7952 1.99267
-1.05672 0.795837 1.98576
-1.04502 0.796499 1.97891
-1.03306 0.797184 1.9721
-1.01906 0.79805 1.96572
-1.00482 0.798936 1.95937
-0.990343 0.799843 1.95305
-0.974776 0.800845 1.94695
-0.959632 0.801809 1.94073
-0.941222 0.803061 1.93518
-0.922214 0.804366 1.92974
-0.904453 0.805558 1.92399
-0.879257 0.807408 1.91979
-0.847599 0.809828 1.91689
-0.804561 0.813252 1.91631
-1.13875 0.817958 2.38799
-1.16855 0.814812 2.37023
-1.18374 0.813016 2.35646
-1.19457 0.811624 2.34389
-1.20219 0.810529 2.33221
-1.21243 0.809194 2.31986
-1.21569 0.808502 2.30937
-1.21878 0.807826 2.29895
-1.22805 0.806584 2.28693
-1.23063 0.805957 2.27668
-1.23299 0.805351 2.2665
-1.23512 0.804767 2.25639
-1.23421 0.804462 2.24708
-1.23584 0.803924 2.23712
-1.2372 0.803412 2.22725
-1.23827 0.802926 2.21746
-1.23636 0.802715 2.20844
-1.23684 0.802285 2.19882
-1.23221 0.802323 2.19049
-1.23223 0.801935 2.181
-1.22932 0.801815 2.17224
-1.22694 0.801648 2.16336
-1.22358 0.80157 2.15472
-1.21991 0.80152 2.14616
-1.21592 0.801499 2.13767
-1.21046 0.801613 2.12955
-1.20741 0.801507 2.12084
-1.20278 0.801545 2.11251
-1.19541 0.801833 2.10484
-1.19191 0.801767 2.09624
-1.18454 0.802055 2.08856
-1.17832 0.802236 2.08059
-1.17204 0.802424 2.07264
-1.16576 0.802611 2.06469
-1.15686 0.803036 2.05734
-1.15019 0.803258 2.04946
-1.14085 0.803723 2.04219
-1.1334 0.804016 2.03448
-1.12342 0.804537 2.02734
-1.11406 0.805002 2.02005
-1.10365 0.805561 2.01298
-1.09294 0.806147 2.00597
-1.08192 0.80676 1.99901
-1.0706 0.807401 1.99211
-1.05897 0.808068 1.98526
-1.04704 0.808762 1.97846
-1.03301 0.809644 1.97211
-1.01847 0.810573 1.96585
-1.00383 0.811509 1.95958
-0.98895 0.812466 1.95335
-0.972834 0.813533 1.94736
-0.952496 0.81498 1.94226
-0.93664 0.816022 1.93616
-0.911979 0.817855 1.93191
-0.886376 0.819771 1.92782
-0.854258 0.822272 1.92505
-0.804734 0.826333 1.92587
-1.13646 0.83116 2.39837
-1.16332 0.828239 2.38136
-1.18578 0.825733 2.36561
-1.19673 0.824308 2.35299
-1.21137 0.822538 2.33942
-1.22167 0.821176 2.32704
-1.22496 0.820471 2.31655
-1.22809 0.819782 2.30611
-1.23456 0.818781 2.29482
-1.24008 0.817869 2.28379
-1.2425 0.817249 2.2736
-1.24468 0.81665 2.26348
-1.24381 0.816337 2.25416
-1.24551 0.815785 2.24418
-1.24695 0.815258 2.23429
-1.2481 0.814757 2.22448
-1.24646 0.814517 2.21539
-1.24682 0.814092 2.2058
-1.24488 0.81388 2.1968
-1.24232 0.813727 2.18796
-1.24015 0.813537 2.17903
-1.23896 0.813256 2.16985
-1.23387 0.813338 2.16165
-1.23285 0.813042 2.15244
-1.22892 0.813016 2.14395
-1.22468 0.813019 2.13554
-1.21908 0.813147 2.12746
-1.21591 0.813051 2.11879
-1.20933 0.81327 2.11094
-1.20337 0.813432 2.10294
-1.19784 0.813554 2.09483
-1.19165 0.813737 2.08687
-1.18561 0.813905 2.07887
-1.17919 0.814109 2.07096
-1.17034 0.814537 2.06362
-1.16348 0.814781 2.0558
-1.15441 0.815228 2.04848
-1.14705 0.815517 2.04077
-1.13713 0.816042 2.03363
-1.12908 0.816393 2.02605
-1.11852 0.816975 2.01903
-1.10767 0.817585 2.01207
-1.09651 0.818221 2.00517
-1.08505 0.818885 1.99831
-1.07329 0.819575 1.99151
-1.06114 0.8203 1.98478
-1.04701 0.821207 1.97847
-1.03264 0.822134 1.97219
-1.01752 0.82313 1.96605
-1.00249 0.824116 1.95988
-0.98723 0.825123 1.95372
-0.968769 0.826421 1.94824
-0.946439 0.828072 1.94356
-0.928348 0.829334 1.93793
-0.902829 0.831274 1.93386
-0.870798 0.833806 1.93111
-0.804886 0.839429 1.93544
-1.11588 0.846123 2.41374
-1.16113 0.841405 2.39169
-1.18785 0.838454 2.37475
-1.19889 0.836998 2.36209
-1.21371 0.835183 2.34845
-1.22419 0.833783 2.33601
-1.23433 0.832416 2.32369
-1.23748 0.831714 2.31324
-1.24401 0.830692 2.30193
-1.24671 0.830035 2.29164
-1.24919 0.829398 2.28142
-1.25433 0.828511 2.27053
-1.25348 0.828191 2.2612
-1.25525 0.827623 2.25121
-1.25676 0.827081 2.2413
-1.258 0.826565 2.23147
-1.25894 0.826077 2.22172
-1.25685 0.825877 2.21276
-1.25721 0.825446 2.20319
-1.25517 0.825241 2.19422
-1.25236 0.825109 2.18545
-1.25008 0.824927 2.17656
-1.24852 0.824677 2.16749
-1.2433 0.824773 2.15932
-1.24061 0.82463 2.15054
-1.2366 0.824612 2.14208
-1.23227 0.824623 2.1337
-1.22762 0.824665 2.12539
-1.22265 0.824737 2.11716
-1.21735 0.82484 2.10901
-1.21125 0.825018 2.10105
-1.20545 0.825166 2.09301
-1.19912 0.825365 2.0851
-1.19046 0.825783 2.07773
-1.18627 0.825781 2.0693
-1.17714 0.826242 2.06203
-1.17001 0.826514 2.05428
-1.16026 0.827032 2.04713
-1.15092 0.827511 2.03987
-1.14298 0.827859 2.03229
-1.13248 0.828445 2.02527
-1.12169 0.829058 2.01831
-1.11273 0.8295 2.01093
-1.10131 0.830171 2.00409
-1.08751 0.831062 1.99776
-1.07552 0.831785 1.99101
-1.06123 0.832721 1.98476
-1.04669 0.83368 1.97854
-1.03192 0.834658 1.97235
-1.01624 0.835721 1.96633
-1.00083 0.836757 1.96024
-0.982211 0.838091 1.95481
-0.961189 0.839647 1.94988
-0.93619 0.84157 1.94576
-0.914016 0.84323 1.94099
-0.877798 0.846191 1.93918
-1.1632 0.854178 2.40088
-1.18582 0.851577 2.38501
-1.2082 0.849003 2.36927
-1.21604 0.847835 2.35749
-1.23358 0.845731 2.34314
-1.237 0.844992 2.3326
-1.24697 0.843622 2.32034
-1.24999 0.842923 2.30994
-1.25629 0.841908 2.2987
-1.25882 0.841257 2.28847
-1.26114 0.840628 2.2783
-1.26322 0.840021 2.26822
-1.26506 0.839438 2.25821
-1.26665 0.838881 2.24828
-1.26796 0.838351 2.23843
-1.26899 0.837848 2.22866
-1.26729 0.837607 2.2196
-1.26739 0.837193 2.21009
-1.2654 0.836981 2.20112
-1.26333 0.836777 2.19217
-1.26233 0.83647 2.18296
-1.25899 0.836386 2.17434
-1.25644 0.836229 2.16552
-1.25265 0.836189 2.15702
-1.24984 0.836056 2.14827
-1.24557 0.836063 2.13988
-1.24099 0.836099 2.13157
-1.23608 0.836166 2.12334
-1.23015 0.836331 2.11536
-1.22476 0.836444 2.10723
-1.21904 0.836588 2.09919
-1.21273 0.836789 2.09128
-1.20652 0.83698 2.08335
-1.19759 0.83743 2.07605
-1.1909 0.837666 2.06821
-1.18386 0.837935 2.06046
-1.17416 0.838456 2.05331
-1.16645 0.838788 2.04569
-1.15696 0.839289 2.03848
-1.14652 0.839879 2.03147
-1.138 0.840287 2.02401
-1.12694 0.840935 2.01712
-1.11558 0.84161 2.01028
-1.10393 0.842313 2.0035
-1.08989 0.843241 1.99723
-1.07563 0.844189 1.99099
-1.06314 0.844969 1.98433
-1.04838 0.845963 1.97817
-1.03086 0.847216 1.97258
-1.01464 0.848345 1.96668
-0.996966 0.849611 1.96108
-0.977865 0.85101 1.95575
-0.952955 0.852955 1.95165
-0.927123 0.854986 1.9477
-0.894732 0.857632 1.94511
-1.1427 0.869172 2.41623
-1.18799 0.864308 2.39415
-1.21046 0.861685 2.37835
-1.22143 0.860192 2.3657
-1.23612 0.858336 2.3521
-1.24651 0.856903 2.33968
-1.24981 0.856165 2.32919
-1.25959 0.854794 2.31699
-1.26247 0.854099 2.30665
-1.26853 0.853093 2.29548
-1.2709 0.852449 2.2853
-1.27304 0.851828 2.2752
-1.27495 0.851231 2.26517
-1.2766 0.850659 2.25523
-1.27798 0.850113 2.24536
-1.27909 0.849595 2.23557
-1.27991 0.849105 2.22588
-1.2781 0.848872 2.21686
-1.27569 0.848698 2.20799
-1.27576 0.848282 2.19851
-1.27278 0.848163 2.1898
-1.27222 0.84781 2.18049
-1.26702 0.847907 2.17234
-1.26596 0.847602 2.16317
-1.26192 0.847587 2.15473
-1.25756 0.847603 2.14638
-1.25187 0.847747 2.13834
-1.24869 0.847648 2.1297
-1.2437 0.847725 2.1215
-1.23839 0.847833 2.11337
-1.23274 0.847973 2.10532
-1.22645 0.848175 2.09742
-1.22031 0.848362 2.08948
-1.21141 0.848816 2.08219
-1.20475 0.849053 2.07436
-1.1978 0.849318 2.06659
-1.1905 0.849617 2.0589
-1.18053 0.850172 2.05183
-1.17103 0.850682 2.04463
-1.16198 0.851148 2.03732
-1.15222 0.851681 2.03016
-1.14122 0.852334 2.02328
-1.12993 0.853014 2.01644
-1.11834 0.853721 2.00966
-1.10465 0.854631 2.00333
-1.09231 0.855409 1.99669
-1.07769 0.856406 1.99053
-1.06269 0.857438 1.98444
-1.04754 0.858484 1.97835
-1.02947 0.859808 1.97289
-1.0108 0.861189 1.96753
-0.991545 0.862624 1.96226
-0.969872 0.86429 1.95749
-0.944123 0.866344 1.95356
-0.906078 0.869571 1.95222
-1.17884 0.878171 2.40637
-1.20554 0.875087 2.38938
-1.22381 0.872846 2.37473
-1.23865 0.870947 2.36106
-1.2492 0.869477 2.34859
-1.25943 0.868039 2.33623
-1.2626 0.867303 2.32578
-1.27219 0.865932 2.31365
-1.27492 0.865242 2.30336
-1.28074 0.864247 2.29227
-1.28293 0.863611 2.28215
-1.2849 0.862999 2.27211
-1.28661 0.862412 2.26214
-1.28807 0.861852 2.25226
-1.28926 0.861319 2.24246
-1.29016 0.860814 2.23274
-1.29076 0.860339 2.22311
-1.28603 0.860391 2.21484
-1.2862 0.85996 2.20533
-1.28605 0.859561 2.19592
-1.28282 0.859465 2.18728
-1.28037 0.859294 2.17845
-1.2767 0.859242 2.16993
-1.274 0.859095 2.16118
-1.2711 0.858967 2.15247
-1.26542 0.859113 2.14445
-1.2623 0.859008 2.1358
-1.25737 0.859081 2.12759
-1.25212 0.859185 2.11946
-1.24654 0.85932 2.1114
-1.24027 0.859524 2.10351
-1.2342 0.859707 2.09556
-1.22535 0.860163 2.08828
-1.21871 0.860403 2.08046
-1.21184 0.860665 2.07269
-1.20462 0.860959 2.06499
-1.1947 0.861519 2.05792
-1.18683 0.861878 2.05036
-1.1763 0.862496 2.04341
-1.16653 0.863038 2.03627
-1.15662 0.863595 2.02916
-1.14518 0.8643 2.02237
-1.13346 0.865032 2.01564
-1.12145 0.865792 2.00896
-1.10915 0.866578 2.00232
-1.09445 0.867598 1.99621
-1.07952 0.868639 1.99012
-1.06394 0.869743 1.98416
-1.04637 0.871039 1.97861
-1.02777 0.872435 1.97326
-1.00859 0.873885 1.96801
-0.986938 0.875574 1.96326
-0.961272 0.877651 1.95935
-0.929063 0.880361 1.95681
-1.15854 0.8932 2.42168
-1.20375 0.888201 2.39958
-1.22621 0.885503 2.38376
-1.24117 0.883564 2.37004
-1.25186 0.882057 2.3575
-1.26227 0.880581 2.34508
-1.27233 0.87914 2.33278
-1.27538 0.878407 2.32238
-1.28173 0.877342 2.31112
-1.28733 0.876354 2.30008
-1.2897 0.875693 2.28992
-1.29492 0.874744 2.27901
-1.2967 0.874142 2.26903
-1.29823 0.873567 2.25913
-1.29949 0.873019 2.24931
-1.29791 0.872755 2.24023
-1.29875 0.87225 2.23054
-1.29929 0.871775 2.22093
-1.29669 0.871615 2.21213
-1.29664 0.871201 2.20269
-1.29439 0.871006 2.19382
-1.29108 0.870918 2.18521
-1.28859 0.870747 2.1764
-1.28629 0.870558 2.16755
-1.28207 0.870562 2.15918
-1.27909 0.870441 2.1505
-1.27439 0.870492 2.14224
-1.26937 0.870574 2.13407
-1.26404 0.870688 2.12596
-1.25787 0.870886 2.11806
-1.25419 0.870835 2.10956
-1.2482 0.871014 2.10161
-1.23944 0.871468 2.09431
-1.23276 0.871715 2.08652
-1.22597 0.871973 2.07874
-1.21884 0.872264 2.07104
-1.21137 0.872589 2.06341
-1.20118 0.873184 2.05641
-1.1907 0.873806 2.04946
-1.18225 0.874227 2.04203
-1.17117 0.874908 2.0352
-1.1598 0.875617 2.02843
-1.14814 0.876355 2.0217
-1.1384 0.876901 2.01452
-1.12395 0.877912 2.00839
-1.11143 0.878732 2.00181
-1.09637 0.879803 1.99578
-1.07894 0.881106 1.99025
-1.06342 0.882219 1.98427
-1.04489 0.883629 1.97894
-1.02577 0.885095 1.9737
-1.00415 0.886806 1.96898
-0.978569 0.888906 1.96509
-0.942607 0.892027 1.9634
-0.880649 0.897703 1.96725
-1.19477 0.902069 2.41176
-1.22865 0.898162 2.39278
-1.2437 0.896185 2.37901
-1.25451 0.894644 2.36643
-1.26507 0.893129 2.35394
-1.27533 0.891648 2.34157
-1.28522 0.890205 2.32934
-1.28813 0.889477 2.31899
-1.29426 0.888421 2.3078
-1.29971 0.887434 2.29681
-1.3019 0.886782 2.28671
-1.30387 0.886153 2.27667
-1.30558 0.885549 2.26672
-1.30705 0.884973 2.25684
-1.30824 0.884424 2.24704
-1.30916 0.883904 2.23733
-1.30978 0.883414 2.22771
-1.30789 0.88318 2.21873
-1.30728 0.882816 2.20944
-1.30699 0.88242 2.20007
-1.30183 0.882519 2.19194
-1.30107 0.882171 2.1827
-1.29847 0.88201 2.17393
-1.2958 0.881856 2.16518
-1.29016 0.882004 2.15717
-1.28714 0.881886 2.14851
-1.28327 0.881854 2.14007
-1.27799 0.881964 2.13196
-1.27184 0.882163 2.12407
-1.26821 0.882107 2.11556
-1.26229 0.882282 2.1076
-1.25362 0.882734 2.1003
-1.24694 0.882985 2.09252
-1.24269 0.882991 2.08415
-1.23314 0.883531 2.07704
-1.22576 0.883853 2.06941
-1.21562 0.884452 2.06241
-1.20757 0.884838 2.05491
-1.19683 0.885496 2.04804
-1.18814 0.885948 2.04067
-1.17679 0.886666 2.03391
-1.16516 0.887411 2.02719
-1.15325 0.888184 2.02053
-1.14105 0.888985 2.01391
-1.12653 0.890019 2.00781
-1.11361 0.890891 2.00132
-1.09614 0.892217 1.99583
-1.08062 0.893347 1.98987
-1.06215 0.894772 1.98455
-1.04311 0.896253 1.97933
-1.01827 0.898311 1.97535
-0.992514 0.90046 1.97153
-0.960201 0.903262 1.96909
-0.904515 0.908395 1.97166
-1.16745 0.917881 2.42901
-1.21978 0.912 2.4049
-1.24223 0.909227 2.38908
-1.25716 0.907235 2.37535
-1.27488 0.904956 2.36091
-1.27829 0.904164 2.35038
-1.28838 0.90268 2.33807
-1.29809 0.901237 2.3259
-1.30085 0.900514 2.3156
-1.30674 0.899468 2.30449
-1.31205 0.898484 2.29356
-1.31406 0.897841 2.28351
-1.31584 0.897223 2.27354
-1.31737 0.896632 2.26364
-1.31864 0.896068 2.25383
-1.31963 0.895533 2.2441
-1.32033 0.895028 2.23446
-1.31848 0.894787 2.22548
-1.31585 0.894626 2.2167
-1.31582 0.894198 2.20727
-1.31547 0.893803 2.19793
-1.31198 0.893732 2.18938
-1.31099 0.893404 2.18022
-1.3055 0.893538 2.17218
-1.30401 0.893262 2.16314
-1.29944 0.893301 2.15487
-1.29631 0.893193 2.14625
-1.29127 0.893282 2.1381
-1.28591 0.893402 2.13002
-1.28023 0.893556 2.12202
-1.27423 0.893742 2.1141
-1.2679 0.893962 2.10625
-1.26124 0.894215 2.09847
-1.25705 0.894215 2.0901
-1.24754 0.894759 2.083
-1.24024 0.895078 2.07536
-1.23259 0.89543 2.06779
-1.22218 0.896065 2.06087
-1.21389 0.896483 2.05344
-1.20289 0.897177 2.04663
-1.19282 0.897775 2.03959
-1.18235 0.898414 2.03263
-1.17047 0.899196 2.02598
-1.1583 0.900006 2.01938
-1.14362 0.901071 2.01333
-1.12879 0.90215 2.00729
-1.11566 0.903056 2.00085
-1.09797 0.904424 1.99542
-1.07956 0.905863 1.99011
-1.06058 0.907359 1.9849
-1.03787 0.909232 1.98049
-1.01216 0.911408 1.97669
-0.979894 0.914245 1.97429
-0.928479 0.919021 1.976
-1.21096 0.925872 2.41704
-1.2448 0.921858 2.39805
-1.25983 0.919829 2.38428
-1.27773 0.917499 2.36976
-1.2882 0.915953 2.35731
-1.29149 0.915163 2.34682
-1.30141 0.913676 2.33457
-1.30781 0.912562 2.3233
-1.31354 0.911519 2.31222
-1.31595 0.910824 2.30205
-1.32433 0.909505 2.29031
-1.32617 0.908872 2.28033
-1.32776 0.908266 2.27042
-1.32909 0.907687 2.26059
-1.33016 0.907137 2.25084
-1.33094 0.906617 2.24118
-1.33143 0.906128 2.2316
-1.32656 0.9062 2.22341
-1.32662 0.905757 2.21395
-1.32636 0.905347 2.20459
-1.32402 0.905155 2.19576
-1.32044 0.905093 2.18725
-1.31938 0.904768 2.17811
-1.31519 0.904769 2.16976
-1.31228 0.904637 2.16108
-1.30864 0.904581 2.1526
-1.30267 0.904767 2.14468
-1.30009 0.904601 2.13594
-1.29447 0.904751 2.12793
-1.28853 0.904934 2.12
-1.28204 0.905173 2.11221
-1.27809 0.90515 2.10379
-1.26892 0.905667 2.09663
-1.26203 0.905948 2.08891
-1.2548 0.906264 2.08127
-1.24724 0.906613 2.0737
-1.23752 0.907186 2.06663
-1.2295 0.907583 2.05915
-1.21871 0.908265 2.05231
-1.20887 0.908849 2.04524
-1.19866 0.90947 2.03823
-1.1855 0.910396 2.0319
-1.17571 0.910973 2.02478
-1.1633 0.911819 2.01823
-1.14628 0.91314 2.01272
-1.13319 0.914055 2.0063
-1.11546 0.915447 2.0009
-1.09926 0.916679 1.99513
-1.0782 0.918412 1.99042
-1.05872 0.91998 1.98532
-1.03335 0.922152 1.98149
-1.00148 0.92499 1.97904
-0.962493 0.928557 1.9781
-1.23609 0.935701 2.41013
-1.25851 0.932853 2.3943
-1.27342 0.93081 2.38057
-1.29118 0.928464 2.36611
-1.30151 0.926913 2.35371
-1.30468 0.926125 2.34327
-1.31442 0.924639 2.33108
-1.31718 0.923897 2.32079
-1.32619 0.922491 2.30886
-1.32844 0.921805 2.29874
-1.33047 0.921143 2.28869
-1.33226 0.920507 2.27872
-1.33685 0.919574 2.26804
-1.33812 0.918995 2.25823
-1.33912 0.918445 2.24851
-1.33984 0.917925 2.23887
-1.338 0.917677 2.22991
-1.33746 0.917292 2.22061
-1.33729 0.916867 2.21123
-1.33681 0.916476 2.20193
-1.33149 0.916597 2.19387
-1.33053 0.916257 2.18471
-1.32923 0.915954 2.17564
-1.32479 0.915981 2.16736
-1.32176 0.915861 2.15872
-1.31686 0.915938 2.15056
-1.31357 0.915844 2.14199
-1.30819 0.915972 2.13395
-1.30249 0.916133 2.12597
-1.29647 0.916327 2.11807
-1.29012 0.916556 2.11025
-1.28345 0.916818 2.1025
-1.27661 0.917098 2.09478
-1.26946 0.91741 2.08714
-1.2624 0.917713 2.07946
-1.25476 0.918076 2.07192
-1.24679 0.918473 2.06444
-1.23603 0.919163 2.05762
-1.22742 0.919627 2.05028
-1.21606 0.920377 2.04356
-1.20443 0.921156 2.0369
-1.19091 0.922132 2.03065
-1.17856 0.922985 2.02412
-1.16594 0.923865 2.01763
-1.15086 0.925001 2.01168
-1.13531 0.926185 2.00582
-1.11736 0.927619 2.00047
-1.09872 0.929123 1.99525
-1.07654 0.930996 1.99079
-1.0545 0.932852 1.98625
-1.02508 0.935475 1.98331
-0.986469 0.939054 1.98234
-1.22013 0.950366 2.42424
-1.25394 0.946246 2.40522
-1.27621 0.943377 2.38945
-1.29414 0.94098 2.37492
-1.30463 0.939391 2.36246
-1.3148 0.937836 2.35011
-1.31785 0.937052 2.33972
-1.3274 0.935567 2.3276
-1.33001 0.934832 2.31736
-1.33879 0.933433 2.3055
-1.34087 0.932757 2.29544
-1.34272 0.932106 2.28546
-1.34433 0.931481 2.27555
-1.34569 0.930885 2.26572
-1.34981 0.929992 2.25519
-1.35061 0.929457 2.24553
-1.34813 0.929274 2.23673
-1.34619 0.929034 2.2278
-1.34627 0.928577 2.21835
-1.34604 0.928154 2.209
-1.34548 0.927766 2.19973
-1.34172 0.927722 2.19128
-1.34053 0.927403 2.18219
-1.33772 0.927258 2.17351
-1.33319 0.927296 2.16526
-1.33013 0.927177 2.15664
-1.32599 0.927174 2.1483
-1.31984 0.927386 2.14045
-1.31635 0.927313 2.13194
-1.31098 0.927441 2.1239
-1.30471 0.927666 2.11607
-1.2981 0.927925 2.10831
-1.29128 0.928207 2.10061
-1.28439 0.928497 2.09291
-1.27716 0.928822 2.08529
-1.26961 0.929182 2.07775
-1.26172 0.929577 2.07027
-1.251 0.930272 2.06345
-1.24247 0.930734 2.05611
-1.23117 0.931489 2.0494
-1.22201 0.932017 2.04218
-1.21013 0.932833 2.03558
-1.19625 0.933861 2.02942
-1.18366 0.93475 2.02295
-1.1685 0.935911 2.01705
-1.1554 0.936853 2.01065
-1.13737 0.938317 2.00535
-1.11876 0.93984 2.00016
-1.09742 0.94165 1.99554
-1.07461 0.943614 1.99122
-1.04873 0.9459 1.98753
-1.01051 0.949488 1.98654
-0.931533 0.957375 1.99443
-1.24534 0.960106 2.41728
-1.27505 0.956383 2.39942
-1.28993 0.954287 2.38569
-1.30772 0.951875 2.37121
-1.31806 0.95028 2.35881
-1.32122 0.949473 2.34837
-1.331 0.947944 2.33618
-1.34034 0.946463 2.32413
-1.3428 0.945735 2.31394
-1.34506 0.94503 2.30383
-1.35023 0.944008 2.29296
-1.35202 0.943356 2.283
-1.35357 0.942731 2.27312
-1.35486 0.942134 2.26332
-1.35589 0.941566 2.2536
-1.35664 0.94103 2.24396
-1.3571 0.940525 2.23441
-1.35726 0.940053 2.22495
-1.35712 0.939615 2.21557
-1.35666 0.939213 2.20628
-1.35422 0.939024 2.19751
-1.35037 0.93899 2.18909
-1.34911 0.938675 2.18003
-1.34627 0.938531 2.17136
-1.34273 0.938463 2.16288
-1.33674 0.938661 2.155
-1.3343 0.938474 2.14624
-1.32874 0.938625 2.13825
-1.32513 0.938564 2.12979
-1.31909 0.938767 2.12191
-1.31273 0.939005 2.11412
-1.30605 0.939276 2.10639
-1.29918 0.939568 2.0987
-1.29202 0.939891 2.09108
-1.28454 0.940248 2.08353
-1.27673 0.94064 2.07605
-1.26605 0.941341 2.06924
-1.25761 0.9418 2.06189
-1.24884 0.942295 2.05461
-1.23728 0.943088 2.04797
-1.22789 0.943649 2.04081
-1.21576 0.944502 2.03427
-1.20099 0.94564 2.02833
-1.18871 0.946508 2.02179
-1.1733 0.947711 2.01595
-1.1576 0.948944 2.01015
-1.13901 0.950486 2.00498
-1.11987 0.952087 1.99991
-1.09801 0.953977 1.99541
-1.07242 0.956263 1.9917
-1.04032 0.959246 1.9894
-0.99511 0.963629 1.98994
-1.22555 0.975248 2.43247
-1.26327 0.970583 2.41233
-1.2889 0.967265 2.39561
-1.30365 0.965157 2.38193
-1.3213 0.962731 2.36751
-1.33149 0.961133 2.35516
-1.33453 0.96033 2.34477
-1.34411 0.958802 2.33264
-1.34672 0.958048 2.32241
-1.35555 0.956607 2.31054
-1.35764 0.955912 2.30048
-1.36264 0.954896 2.28967
-1.36425 0.954256 2.27978
-1.36561 0.953644 2.26996
-1.3667 0.953062 2.26022
-1.36753 0.952511 2.25057
-1.36806 0.951991 2.241
-1.36831 0.951504 2.23151
-1.36624 0.951273 2.22264
-1.36602 0.950838 2.21329
-1.36549 0.950438 2.20403
-1.36302 0.950251 2.19527
-1.36054 0.950066 2.18652
-1.35904 0.949774 2.17752
-1.35321 0.949957 2.16962
-1.35122 0.949719 2.16076
-1.348 0.949615 2.1522
-1.34336 0.949668 2.144
-1.33703 0.949906 2.13621
-1.33339 0.949849 2.12776
-1.32752 0.950036 2.11985
-1.3209 0.950305 2.11213
-1.31405 0.950599 2.10445
-1.30696 0.950918 2.09683
-1.29955 0.951273 2.08927
-1.29234 0.951607 2.08167
-1.28445 0.952013 2.07421
-1.27624 0.952454 2.06683
-1.26517 0.953207 2.06011
-1.25382 0.953988 2.05344
-1.24332 0.954678 2.04656
-1.23124 0.955538 2.04003
-1.22132 0.956163 2.03299
-1.20629 0.957343 2.02711
-1.19369 0.958258 2.02065
-1.17572 0.959755 2.0154
-1.15973 0.961037 2.00967
-1.14086 0.96263 2.00456
-1.11921 0.964523 2.00005
-1.09397 0.966804 1.99631
-1.06785 0.969179 1.99272
-1.02553 0.973308 1.99269
-1.25081 0.984908 2.42547
-1.28453 0.980634 2.40646
-1.30277 0.978106 2.3918
-1.31739 0.975987 2.37817
-1.32785 0.974337 2.36572
-1.33801 0.972723 2.35339
-1.34781 0.971151 2.34118
-1.35379 0.970009 2.33003
-1.35965 0.968881 2.31894
-1.3651 0.9678 2.30798
-1.36714 0.967103 2.29796
-1.36894 0.966433 2.288
-1.37641 0.965129 2.27657
-1.37494 0.964827 2.26751
-1.37597 0.964245 2.2578
-1.37673 0.963694 2.24817
-1.3772 0.963176 2.23863
-1.37737 0.962691 2.22917
-1.37725 0.96224 2.2198
-1.37681 0.961825 2.21052
-1.37605 0.961446 2.20134
-1.37052 0.961599 2.19337
-1.36928 0.961273 2.18431
-1.36771 0.960985 2.17534
-1.36292 0.961056 2.16718
-1.36068 0.960843 2.15839
-1.35451 0.961066 2.15058
-1.35176 0.96091 2.14192
-1.34586 0.961104 2.13403
-1.3421 0.96106 2.12562
-1.33572 0.961306 2.11785
-1.32902 0.961588 2.11015
-1.32212 0.961892 2.1025
-1.31495 0.962225 2.0949
-1.30746 0.962594 2.08738
-1.29965 0.962998 2.07992
-1.29151 0.963437 2.07253
-1.28305 0.963911 2.06522
-1.27172 0.964702 2.05856
-1.26265 0.965244 2.05137
-1.25076 0.966096 2.04482
-1.23696 0.967157 2.0387
-1.22438 0.968084 2.03228
-1.21154 0.969038 2.0259
-1.19625 0.970261 2.02006
-1.18032 0.971553 2.01435
-1.16179 0.973131 2.0092
-1.14208 0.974837 2.00429
-1.11907 0.976904 2.00008
-1.09186 0.979431 1.99679
-1.05948 0.982525 1.99459
-0.987491 0.989965 2.00113
-1.27617 0.994484 2.41844
-1.29851 0.991455 2.4026
-1.31665 0.988906 2.38798
-1.33112 0.986778 2.37441
-1.34144 0.985124 2.36201
-1.35144 0.983509 2.34974
-1.36105 0.981939 2.3376
-1.36691 0.980797 2.3265
-1.36931 0.980048 2.31635
-1.37783 0.978606 2.30458
-1.37969 0.977921 2.29462
-1.38131 0.977264 2.28472
-1.38584 0.976278 2.27408
-1.38693 0.975681 2.26435
-1.38776 0.975115 2.25471
-1.38831 0.974582 2.24515
-1.38857 0.974082 2.23568
-1.3865 0.973845 2.22681
-1.38631 0.973397 2.21747
-1.3858 0.972985 2.20822
-1.38334 0.972792 2.19947
-1.38085 0.972605 2.19074
-1.37938 0.972302 2.18175
-1.37644 0.972165 2.17314
-1.37156 0.972247 2.16502
-1.36925 0.97204 2.15625
-1.36374 0.972192 2.14828
-1.36021 0.972123 2.13982
-1.35423 0.972328 2.13197
-1.35044 0.972288 2.12357
-1.34397 0.972548 2.11583
-1.33719 0.972843 2.10816
-1.33009 0.973173 2.10057
-1.32267 0.973539 2.09304
-1.31492 0.973941 2.08558
-1.30686 0.974379 2.07819
-1.29848 0.974851 2.07087
-1.2882 0.975536 2.06399
-1.2782 0.976189 2.05704
-1.26888 0.976765 2.04991
-1.25675 0.977655 2.04342
-1.24435 0.978574 2.03698
-1.22979 0.979734 2.03103
-1.21672 0.980726 2.0247
-1.20111 0.982001 2.01895
-1.18267 0.98359 2.01381
-1.16571 0.985012 2.00831
-1.14145 0.987246 2.00443
-1.11816 0.989372 2.00029
-1.08606 0.992474 1.99809
-1.04088 0.997031 1.99874
-1.24926 1.01051 2.43561
-1.29024 1.00529 2.41454
-1.31251 1.00223 2.39874
-1.33055 0.999665 2.38416
-1.34485 0.997531 2.37065
-1.35502 0.995874 2.35831
-1.36484 0.994259 2.3461
-1.37087 0.993083 2.33494
-1.37998 0.991553 2.32298
-1.38222 0.990814 2.31289
-1.38426 0.9901 2.30286
-1.38928 0.989043 2.29206
-1.39084 0.988385 2.2822
-1.39215 0.987756 2.27241
-1.39635 0.986796 2.26187
-1.39712 0.986232 2.25226
-1.3976 0.9857 2.24273
-1.39778 0.985202 2.23328
-1.39767 0.984739 2.22392
-1.39725 0.984312 2.21465
-1.39651 0.983922 2.20547
-1.39095 0.984083 2.19753
-1.38974 0.983747 2.18848
-1.3882 0.983449 2.17952
-1.38523 0.983315 2.17093
-1.38026 0.983408 2.16283
-1.37788 0.983206 2.15409
-1.37228 0.983371 2.14616
-1.36922 0.983248 2.13759
-1.36298 0.983486 2.12981
-1.35627 0.983777 2.12214
-1.35235 0.983752 2.11379
-1.34542 0.984068 2.10616
-1.33823 0.984412 2.09859
-1.33073 0.984792 2.09109
-1.32292 0.985208 2.08366
-1.31478 0.98566 2.0763
-1.30632 0.986148 2.06901
-1.29755 0.986671 2.06178
-1.28588 0.987521 2.05523
-1.27395 0.9884 2.04872
-1.26267 0.989206 2.04204
-1.25003 0.990163 2.03566
-1.23514 0.991376 2.02979
-1.22184 0.992406 2.02352
-1.20591 0.993733 2.01784
-1.18701 0.995394 2.01282
-1.16758 0.997113 2.00788
-1.14305 0.999407 2.00407
-1.11718 1.00185 2.00051
-1.08119 1.00543 1.99918
-1.27464 1.02002 2.42854
-1.3083 1.01559 2.40953
-1.32652 1.01297 2.39487
-1.34445 1.01038 2.38033
-1.35487 1.00868 2.3679
-1.36499 1.00701 2.35559
-1.37476 1.00538 2.3434
-1.38411 1.0038 2.33136
-1.38651 1.00303 2.32122
-1.39198 1.00191 2.31027
-1.39396 1.0012 2.30027
-1.4018 0.999798 2.28873
-1.40317 0.999154 2.27893
-1.40429 0.998541 2.26921
-1.40514 0.997959 2.25956
-1.40885 0.997046 2.24919
-1.40694 0.996785 2.24029
-1.40706 0.996289 2.23087
-1.40688 0.995829 2.22154
-1.40639 0.995406 2.2123
-1.40395 0.995208 2.20357
-1.40144 0.995018 2.19485
-1.39869 0.994857 2.18621
-1.39707 0.994564 2.17727
-1.39407 0.994432 2.1687
-1.38991 0.994435 2.16041
-1.38656 0.994342 2.15192
-1.38088 0.994519 2.14402
-1.37775 0.994403 2.13548
-1.37143 0.994654 2.12773
-1.36748 0.994631 2.11939
-1.36068 0.994937 2.11175
-1.35356 0.995279 2.10418
-1.34613 0.995657 2.09668
-1.33886 0.996016 2.08913
-1.33096 0.996446 2.08173
-1.32275 0.996913 2.0744
-1.31323 0.997529 2.06737
-1.30161 0.998386 2.06082
-1.2923 0.998976 2.05371
-1.28269 0.999601 2.04666
-1.27023 1.00055 2.04027
-1.25564 1.00174 2.03435
-1.24252 1.00277 2.02808
-1.2269 1.00408 2.02236
-1.20826 1.00573 2.01731
-1.19146 1.00717 2.0118
-1.16705 1.00948 2.008
-1.14377 1.01166 2.00391
-1.11164 1.01485 2.00176
-1.06642 1.01953 2.00249
-1.29618 1.02991 2.42255
-1.32242 1.02631 2.40562
-1.34779 1.02281 2.38899
-1.35834 1.02106 2.37651
-1.36862 1.01935 2.36414
-1.37858 1.01768 2.35188
-1.38816 1.01606 2.33976
-1.39071 1.01526 2.32957
-1.39637 1.0141 2.31856
-1.40487 1.01261 2.30681
-1.40667 1.01191 2.29687
-1.40825 1.01123 2.28701
-1.41279 1.01021 2.27638
-1.41384 1.0096 2.26668
-1.41463 1.00901 2.25707
-1.41513 1.00847 2.24754
-1.41535 1.00795 2.2381
-1.41528 1.00748 2.22874
-1.41305 1.00725 2.21995
-1.41251 1.00683 2.21073
-1.41166 1.00644 2.20159
-1.41047 1.00609 2.19255
-1.40896 1.00579 2.1836
-1.40601 1.00565 2.17501
-1.40297 1.00552 2.16645
-1.39868 1.00554 2.15821
-1.39598 1.00537 2.14957
-1.39005 1.00558 2.14174
-1.38633 1.00553 2.13335
-1.37993 1.00579 2.12563
-1.37595 1.00577 2.11731
-1.36906 1.00609 2.1097
-1.36187 1.00645 2.10216
-1.35435 1.00684 2.09469
-1.34652 1.00727 2.08728
-1.33838 1.00774 2.07995
-1.32992 1.00824 2.07268
-1.32115 1.00877 2.06548
-1.31206 1.00935 2.05834
-1.30007 1.01026 2.05188
-1.28781 1.0112 2.04546
-1.2761 1.01207 2.0389
-1.26316 1.01309 2.03261
-1.24784 1.01438 2.02685
-1.23191 1.01574 2.0212
-1.21295 1.01745 2.01623
-1.19348 1.01922 2.01134
-1.17049 1.0214 2.00722
-1.14195 1.02421 2.00432
-1.10691 1.02777 2.00282
-1.31434 1.04015 2.41749
-1.33656 1.03698 2.4017
-1.35459 1.03432 2.38712
-1.37222 1.03171 2.37269
-1.38236 1.02999 2.36037
-1.38529 1.02914 2.35005
-1.39483 1.0275 2.33795
-1.40067 1.02631 2.32688
-1.40944 1.02476 2.31504
-1.41143 1.02403 2.30505
-1.41646 1.02293 2.29426
-1.41797 1.02226 2.28443
-1.41923 1.02161 2.27467
-1.42345 1.02062 2.26415
-1.42417 1.02004 2.25456
-1.42461 1.01949 2.24506
-1.42476 1.01898 2.23565
-1.42461 1.0185 2.22632
-1.42416 1.01807 2.21708
-1.42174 1.01786 2.20835
-1.42082 1.01748 2.19924
-1.41956 1.01714 2.19023
-1.41798 1.01684 2.1813
-1.41606 1.01657 2.17247
-1.40992 1.01681 2.1647
-1.40751 1.01661 2.156
-1.40474 1.01644 2.14738
-1.39872 1.01667 2.13958
-1.39497 1.01662 2.13121
