ply
format ascii 1.0
comment Created by Open3D
element vertex 1717
property double x
property double y
property double z
end_header
3.51092 -0.0953528 3.69249
3.62334 -0.095839 3.71672
-0.164649 -0.0648686 0.761289
-0.113686 -0.0647089 0.785946
-0.00911519 -0.0645817 0.835363
-0.133697 -0.0645343 0.765104
-0.13431 -0.0644397 0.759893
-0.134801 -0.0643459 0.754728
-0.0958091 -0.0642993 0.766263
-0.206045 -0.0642068 0.706195
0.0100795 -0.064161 0.806287
-0.160868 -0.0640702 0.715808
-0.276825 -0.0640093 0.650891
-0.216639 -0.0639647 0.672987
-0.2545 -0.0639044 0.64711
-0.193321 -0.0638606 0.669687
-0.064078 -0.0638011 0.727349
-0.17859 -0.0637421 0.663126
-0.260144 -0.0636995 0.614303
-0.288155 -0.0636414 0.593308
-0.115243 -0.0636254 0.669966
-0.0331528 -0.0635677 0.704023
-0.195334 -0.0635105 0.615931
-0.103363 -0.0634698 0.653817
-0.197092 -0.0634378 0.598281
-0.215553 -0.0633976 0.580941
-0.217046 -0.063342 0.573154
-0.305461 -0.0632869 0.521887
-0.24056 -0.0632709 0.544622
-0.310537 -0.0632164 0.502565
-0.0914137 -0.0631844 0.603533
-0.165566 -0.0631465 0.558274
-0.0539027 -0.0630932 0.607003
-0.28964 -0.0630772 0.479465
-0.205801 -0.0630246 0.514269
0.00622356 -0.0629925 0.611747
-0.187534 -0.0629565 0.506618
-0.317179 -0.0629245 0.433285
-0.155241 -0.0628892 0.505981
-0.269852 -0.0628571 0.440188
-0.218608 -0.0628065 0.458643
-0.272833 -0.0627904 0.421933
-0.0718622 -0.0627405 0.515231
-0.266835 -0.0627084 0.409304
-0.230944 -0.0626924 0.417679
-0.154656 -0.0626432 0.448624
-0.225488 -0.0626271 0.403654
-0.0837486 -0.0625787 0.4673
-0.0868878 -0.0625466 0.457346
-0.187743 -0.0625305 0.397389
-0.243631 -0.0624829 0.362207
-0.324822 -0.0624508 0.313261
-0.269012 -0.0624199 0.332736
-0.117832 -0.0623878 0.399996
-0.237707 -0.0623557 0.331742
-0.197758 -0.0623257 0.343258
-0.168877 -0.0622936 0.349402
-0.275156 -0.0622753 0.286963
-0.204509 -0.0622454 0.313847
-0.100064 -0.0622002 0.358771
-0.0968865 -0.0621841 0.35092
-0.327977 -0.062152 0.227132
-0.253249 -0.0621076 0.257174
-0.290632 -0.0620916 0.229066
-0.179033 -0.0620595 0.276655
-0.39685 -0.0620273 0.159548
-0.213381 -0.062 0.242738
-0.266581 -0.0619678 0.207958
-0.211095 -0.0619469 0.226694
-0.22633 -0.0619197 0.210547
-0.276499 -0.0618875 0.177317
-0.205041 -0.0618663 0.204082
-0.241306 -0.061829 0.178213
-0.27717 -0.0617969 0.152166
-0.254621 -0.0617808 0.154109
-0.264445 -0.0617486 0.141102
-0.185852 -0.0617165 0.172316
-0.273748 -0.0617004 0.11906
-0.127108 -0.061659 0.185025
-0.122537 -0.0616269 0.179256
-0.225551 -0.0616108 0.118463
-0.193703 -0.0615787 0.126355
-0.267809 -0.0615554 0.0805906
-0.102082 -0.0615304 0.154881
-0.221457 -0.0614982 0.087193
-0.208708 -0.0614821 0.0843193
-0.25451 -0.0614499 0.0534383
-0.300856 -0.0614177 0.0222969
-0.0898062 -0.0614016 0.118596
-0.33049 -0.0613617 -0.00908254
-0.322301 -0.0613295 -0.0129298
-0.360599 -0.0613134 -0.0412834
-0.298707 -0.0612813 -0.0182593
-0.226119 -0.0612652 0.00884408
-0.37451 -0.0612331 -0.0732534
3.46989 -0.0774193 4.12238
3.36503 -0.0769695 4.06869
3.25008 -0.0766979 4.00406
3.31307 -0.0764883 4.02638
3.14008 -0.0763401 3.92868
3.24721 -0.0761735 3.97174
3.22792 -0.0760311 3.95081
3.11011 -0.0759478 3.8786
3.19997 -0.0758119 3.91213
3.17179 -0.075734 3.88462
3.22927 -0.0756586 3.8999
3.20796 -0.0755859 3.87571
3.16942 -0.075516 3.84283
3.15872 -0.0754704 3.82302
3.26457 -0.0754346 3.86114
3.3661 -0.0753942 3.89728
3.19512 -0.0753787 3.79627
3.05543 -0.0753448 3.71159
3.34256 -0.075336 3.83939
3.22746 -0.0753321 3.7659
3.16163 -0.0753509 3.71618
3.31493 -0.0753507 3.77675
3.07577 -0.0753742 3.64017
3.30452 -0.0754039 3.7373
3.19123 -0.0754578 3.66245
3.25144 -0.0754933 3.67505
3.33267 -0.0755543 3.69715
3.35846 -0.0756484 3.69019
3.53034 -0.0757485 3.75599
3.32501 -0.0759094 3.63072
3.37102 -0.0761136 3.62932
3.5668 -0.0764023 3.6993
-0.0724696 -0.0521117 0.834528
-0.0239995 -0.0519074 0.863864
-0.0555272 -0.0518309 0.843112
-0.0655957 -0.0517419 0.834114
-0.100598 -0.0516661 0.811635
-0.0405495 -0.0516035 0.835653
-0.153082 -0.0515288 0.774381
-0.0140754 -0.0514548 0.838853
-0.266248 -0.0514421 0.702806
-0.141183 -0.0513689 0.760289
0.0114055 -0.05132 0.829594
-0.101043 -0.051284 0.765343
-0.187522 -0.0512129 0.716968
-0.33064 -0.0512002 0.635514
-0.169019 -0.0511302 0.711139
-0.147356 -0.051083 0.714941
-0.103385 -0.0510489 0.728837
-0.318508 -0.0510024 0.614226
-0.166226 -0.0509897 0.680531
-0.309111 -0.0509436 0.602041
-0.157544 -0.0508978 0.670764
-0.0488179 -0.0508652 0.716988
-0.0731624 -0.0508203 0.697724
-0.292136 -0.0508075 0.578454
-0.183305 -0.050763 0.625773
-0.0948494 -0.0507189 0.662886
-0.230341 -0.0507062 0.585388
-0.0576905 -0.0506626 0.664591
-0.0392204 -0.0506322 0.665597
-0.248798 -0.0506067 0.55217
-0.19188 -0.050564 0.573475
-0.194625 -0.0505346 0.563831
-0.22132 -0.0505091 0.541882
-0.209937 -0.0504675 0.540381
-0.206007 -0.0504547 0.532669
-0.168615 -0.0504136 0.544156
-0.232762 -0.0504008 0.502423
-0.315755 -0.0503602 0.453699
-0.18988 -0.0503202 0.50938
-0.275925 -0.0503075 0.456725
-0.0239303 -0.050268 0.575445
-0.121694 -0.0502425 0.518069
-0.268411 -0.0502297 0.435105
-0.233956 -0.0501908 0.445043
-0.0933018 -0.0501781 0.505781
-0.328487 -0.0501398 0.380875
-0.170382 -0.0501143 0.45149
-0.262687 -0.0500893 0.396862
-0.228986 -0.0500638 0.405295
-0.00640971 -0.0500267 0.509217
-0.195481 -0.050014 0.405143
-0.229647 -0.0499885 0.379676
-0.132104 -0.049963 0.420078
-0.179458 -0.0499393 0.387871
-0.120467 -0.0499138 0.409017
-0.214726 -0.0498883 0.353551
-0.243572 -0.0498653 0.330568
-0.190514 -0.0498398 0.34878
-0.148868 -0.0498243 0.360376
-0.246922 -0.0497919 0.30368
-0.13756 -0.0497664 0.350076
-0.151704 -0.0497502 0.333866
-0.434749 -0.0497193 0.184583
-0.270169 -0.0496937 0.258619
-0.237331 -0.049681 0.265611
-0.197142 -0.0496554 0.277474
-0.351839 -0.0496218 0.192658
-0.226293 -0.049609 0.246027
-0.233153 -0.0495835 0.234396
-0.0597615 -0.0495579 0.312903
-0.156926 -0.0495452 0.25494
-0.262311 -0.0495123 0.194766
-0.421216 -0.0494868 0.107155
-0.269046 -0.049474 0.173882
-0.110968 -0.0494484 0.244783
-0.307359 -0.0494229 0.138463
-0.27616 -0.0494036 0.145344
-0.353178 -0.0493781 0.0987262
-0.258841 -0.0493589 0.137192
-0.261888 -0.0493398 0.126962
-0.267207 -0.0493142 0.116227
-0.278543 -0.0493014 0.101261
-0.160834 -0.0492758 0.152061
-0.149174 -0.0492502 0.149848
-0.261691 -0.049232 0.0848464
-0.271379 -0.0492064 0.0719751
-0.248369 -0.0491809 0.0754643
-0.211557 -0.0491681 0.0846164
-0.133135 -0.0491425 0.115832
-0.291561 -0.049117 0.0286354
-0.288894 -0.0491042 0.0207373
-0.182506 -0.0490786 0.0659673
-0.219631 -0.049053 0.0394529
-0.200724 -0.0490402 0.0396972
-0.0112744 -0.0490146 0.12649
-0.239825 -0.0490018 0.00301916
-0.358487 -0.0489763 -0.0642248
3.47331 -0.0580619 4.12421
3.2495 -0.05769 4.01261
3.30269 -0.0574569 4.0334
3.38364 -0.0572992 4.06474
3.26697 -0.0571439 3.99725
3.0774 -0.0570347 3.89126
3.16418 -0.0569542 3.92216
3.25968 -0.0568492 3.95863
3.04569 -0.0567723 3.83908
3.15944 -0.0567131 3.88261
3.10782 -0.0566557 3.84339
3.07991 -0.0566003 3.81597
3.13043 -0.056547 3.82769
3.22035 -0.0565119 3.85826
3.14055 -0.0564791 3.80387
3.08546 -0.0564486 3.76175
3.0252 -0.0564205 3.71694
3.14699 -0.056414 3.76209
3.15425 -0.0564063 3.75004
3.08528 -0.0564012 3.69974
3.06451 -0.0563993 3.6734
3.18071 -0.0564149 3.71464
3.20628 -0.0564323 3.71046
3.16699 -0.0564525 3.67371
3.16523 -0.0564753 3.65557
3.15047 -0.0565173 3.62992
3.21489 -0.0565665 3.64346
3.09654 -0.0566368 3.56447
3.33583 -0.0567116 3.66402
3.33859 -0.0568074 3.64415
3.31036 -0.056942 3.60665
3.59442 -0.0571458 3.7215
0.134039 -0.0390068 0.968135
-0.0938806 -0.0389111 0.853153
-0.0848358 -0.038835 0.854633
0.00231861 -0.0388066 0.890157
-0.102727 -0.0387315 0.834558
-0.187972 -0.0386757 0.786846
-0.0787012 -0.0386481 0.833423
-0.176647 -0.0386111 0.777405
-0.170082 -0.0385742 0.773647
-0.0559665 -0.0385295 0.824531
-0.166581 -0.0384933 0.762166
-0.174131 -0.0384667 0.750306
-0.275022 -0.0384309 0.692794
-0.221384 -0.0383952 0.712544
-0.136994 -0.0383694 0.746628
-0.0834964 -0.0383183 0.768029
-0.089468 -0.0383089 0.75517
-0.0775663 -0.0382743 0.754013
-0.131959 -0.03824 0.719697
-0.0474201 -0.0382155 0.753787
-0.153026 -0.0381818 0.693834
-0.0652547 -0.0381723 0.7279
-0.0761563 -0.0381389 0.715296
-0.0891984 -0.0381058 0.701604
-0.22387 -0.0380826 0.626018
-0.103564 -0.0380502 0.678959
-0.268322 -0.0380407 0.586811
-0.228465 -0.0380087 0.599518
-0.251442 -0.037977 0.580785
-0.255138 -0.0379676 0.569197
-0.235649 -0.0379363 0.571684
-0.0534623 -0.0379173 0.654136
-0.225679 -0.0378959 0.559674
-0.156874 -0.0378654 0.586777
-0.273047 -0.0378559 0.518996
-0.346671 -0.0378258 0.474867
-0.180029 -0.0378068 0.549605
-0.218766 -0.0377866 0.521804
-0.18052 -0.0377676 0.532367
-0.244181 -0.0377479 0.492078
-0.255261 -0.0377289 0.477999
-0.228711 -0.0377001 0.483895
-0.0908322 -0.0376906 0.54321
-0.248983 -0.0376622 0.456731
-0.165252 -0.0376432 0.490104
-0.20509 -0.0376248 0.461638
-0.134187 -0.0376058 0.488619
-0.163123 -0.0375868 0.465694
-0.129473 -0.0375688 0.473946
-0.248828 -0.0375498 0.405832
-0.267113 -0.0375308 0.388266
-0.285479 -0.0375134 0.370482
-0.136161 -0.0374944 0.436738
-0.180066 -0.0374753 0.406396
-0.0151907 -0.0374584 0.480202
-0.24584 -0.0374324 0.357348
-0.252776 -0.0374203 0.344682
-0.349629 -0.0374039 0.287592
-0.240466 -0.0373849 0.333836
-0.249353 -0.0373689 0.320689
-0.268074 -0.0373499 0.30301
-0.0667685 -0.0373309 0.395356
-0.236076 -0.0373155 0.301964
-0.109516 -0.0372965 0.356956
-0.181507 -0.0372774 0.312685
-0.143483 -0.0372641 0.322724
-0.299309 -0.0372435 0.236751
-0.345698 -0.0372245 0.205313
-0.200452 -0.037215 0.268519
-0.147152 -0.037196 0.286946
-0.282046 -0.0371722 0.211882
-0.252333 -0.0371627 0.217344
-0.348603 -0.0371436 0.161016
-0.0849641 -0.0371246 0.284654
-0.291096 -0.0371151 0.172218
-0.357785 -0.0370919 0.131236
-0.435199 -0.0370729 0.0843768
-0.0767586 -0.0370633 0.254248
-0.222952 -0.0370443 0.17302
-0.022584 -0.0370252 0.265086
-0.0683065 -0.0370157 0.232899
-0.263792 -0.0369932 0.127503
-0.304918 -0.0369742 0.0988482
-0.126982 -0.0369646 0.178512
-0.333301 -0.0369456 0.067282
-0.171671 -0.0369266 0.140038
-0.298387 -0.036917 0.0673991
-0.172952 -0.036898 0.122079
-0.313754 -0.0368789 0.043651
-0.129579 -0.0368694 0.12648
-0.170616 -0.0368503 0.0979549
-0.385365 -0.0368312 -0.0174142
-0.156148 -0.0368217 0.0879582
-0.215828 -0.0368 0.0504784
-0.205863 -0.0367905 0.0462365
-0.306307 -0.0367715 -0.0119468
-0.334416 -0.0367524 -0.0339505
-0.164862 -0.0367429 0.0416239
-0.102552 -0.0367239 0.0648488
3.39371 -0.0387429 4.08205
3.38759 -0.0384159 4.08465
3.39254 -0.0382602 4.08136
3.25189 -0.0381547 4.00194
3.20938 -0.0380507 3.97158
3.1606 -0.0379775 3.93604
3.12497 -0.037895 3.90778
3.1859 -0.0378422 3.92578
3.21709 -0.0377842 3.92933
2.97636 -0.0377446 3.79564
3.13907 -0.0376955 3.86439
3.1149 -0.0376585 3.83888
3.02309 -0.0376335 3.77871
2.94164 -0.0375992 3.72441
3.10809 -0.0375772 3.79319
2.92368 -0.0375706 3.68542
3.08277 -0.0375512 3.75036
3.00281 -0.0375442 3.69486
3.2176 -0.037539 3.78661
3.13568 -0.0375354 3.72989
3.14359 -0.0375336 3.71794
3.12317 -0.0375334 3.69172
3.07133 -0.0375449 3.64888
3.31129 -0.0375582 3.7518
3.21572 -0.0375842 3.68595
3.14646 -0.0376011 3.63394
3.10365 -0.0376307 3.59415
3.15748 -0.0376766 3.60136
3.24697 -0.0377256 3.62612
3.17621 -0.0377886 3.56959
3.45706 -0.0378601 3.68813
3.33287 -0.0379937 3.59908
-0.0389343 -0.0261125 0.909238
0.047601 -0.0260231 0.95533
-0.0207641 -0.0259594 0.920024
0.0276827 -0.0259277 0.938139
-0.0457077 -0.02589 0.896319
0.0332164 -0.0258525 0.930648
-0.0699486 -0.0258216 0.872921
-0.144285 -0.0257968 0.828651
-0.191746 -0.0257722 0.797825
-0.0897522 -0.0257421 0.84262
-0.117585 -0.0257062 0.823454
-0.124895 -0.0257 0.809826
-0.117908 -0.0256646 0.80803
-0.0808701 -0.0256472 0.818403
-0.22239 -0.0256236 0.740501
-0.216936 -0.0256003 0.736079
-0.0726411 -0.0255833 0.800048
-0.103332 -0.0255603 0.777534
-0.279779 -0.0255437 0.681104
-0.29157 -0.025521 0.668014
-0.0012001 -0.0254986 0.805991
-0.0971662 -0.0254923 0.748151
-0.220224 -0.0254701 0.679411
-0.154739 -0.0254543 0.703886
-0.0554297 -0.0254325 0.746293
-0.120305 -0.0254109 0.706589
-0.271094 -0.0254046 0.621388
-0.0818121 -0.0253832 0.708754
-0.188024 -0.0253684 0.647297
-0.300248 -0.0253558 0.582462
-0.280482 -0.025335 0.585035
-0.227088 -0.0253206 0.603336
-0.285692 -0.0253081 0.565348
-0.379991 -0.0252877 0.510849
-0.0713587 -0.0252814 0.655435
-0.103632 -0.0252613 0.631932
-0.289523 -0.0252478 0.530515
-0.104162 -0.0252352 0.614569
-0.385901 -0.0252157 0.466284
-0.148903 -0.0252094 0.575097
-0.349469 -0.0251901 0.467377
-0.0733804 -0.0251712 0.597951
-0.221509 -0.0251649 0.514227
-0.287843 -0.0251523 0.472503
-0.245727 -0.0251336 0.486078
-0.337797 -0.0251274 0.430409
-0.159727 -0.025109 0.511934
-0.123784 -0.0250964 0.521395
-0.261501 -0.0250846 0.443891
-0.263334 -0.0250721 0.434484
-0.315852 -0.0250595 0.399748
-0.201705 -0.025048 0.448149
-0.100821 -0.0250354 0.490134
-0.152316 -0.0250228 0.455943
-0.264418 -0.0250117 0.39119
-0.199184 -0.0249947 0.416188
-0.212934 -0.0249865 0.400098
-0.233802 -0.0249758 0.380929
-0.245227 -0.024959 0.367573
-0.385915 -0.0249527 0.287707
-0.231741 -0.0249401 0.356422
-0.24083 -0.0249237 0.344208
-0.411484 -0.0249175 0.249382
-0.190599 -0.0249049 0.351484
-0.248926 -0.0248888 0.314621
-0.251085 -0.0248825 0.304067
-0.259689 -0.0248699 0.291455
-0.237259 -0.0248573 0.294373
-0.306723 -0.024848 0.250755
-0.279578 -0.0248354 0.256048
-0.317069 -0.0248228 0.229036
-0.133369 -0.0248131 0.312081
-0.119358 -0.0248012 0.310715
-0.27086 -0.0247886 0.226728
-0.0619526 -0.0247823 0.321774
-0.395124 -0.0247697 0.146973
-0.154074 -0.0247548 0.259723
-0.0403298 -0.0247469 0.3075
-0.244917 -0.0247359 0.196729
-0.126312 -0.0247233 0.247856
-0.238924 -0.0247169 0.182189
-0.298624 -0.0247043 0.144185
-0.261873 -0.0246899 0.154768
-0.339678 -0.0246811 0.10699
-0.234154 -0.024671 0.15116
-0.155127 -0.0246584 0.18256
-0.298692 -0.024652 0.101459
-0.370119 -0.0246394 0.0576526
-0.33037 -0.0246268 0.0694453
-0.323944 -0.0246158 0.0642729
-0.409011 -0.0246065 0.0130273
-0.207275 -0.0245939 0.10584
-0.208021 -0.0245841 0.0968743
-0.33091 -0.024575 0.026712
-0.234336 -0.0245624 0.0669752
-0.1708 -0.0245561 0.089491
-0.0142069 -0.0245434 0.159784
-0.224823 -0.0245308 0.0464832
-0.368821 -0.0245245 -0.0347461
-0.153348 -0.0245119 0.0650174
-0.338096 -0.0244993 -0.035318
-0.18678 -0.0244929 0.031132
-0.251303 -0.0244803 -0.00907194
3.32555 -0.0191954 4.05533
3.31534 -0.0191078 4.0458
3.15658 -0.0190455 3.95867
3.23064 -0.0190028 3.98535
3.08114 -0.0189568 3.90075
3.15892 -0.0189244 3.92799
3.20078 -0.0188891 3.93773
2.98285 -0.0188632 3.81631
3.02846 -0.0188402 3.82628
3.21667 -0.0188156 3.90781
3.15256 -0.018797 3.86237
3.01669 -0.0187791 3.78098
3.20967 -0.0187693 3.86285
3.19834 -0.018758 3.84282
3.10434 -0.0187474 3.78136
2.88171 -0.018743 3.65467
3.12338 -0.0187341 3.76084
3.1722 -0.0187322 3.76953
3.2051 -0.01873 3.7703
3.14941 -0.0187291 3.72659
2.99163 -0.0187338 3.63098
3.07501 -0.0187394 3.65581
3.07884 -0.0187456 3.64075
3.22965 -0.0187528 3.69903
3.20232 -0.0187608 3.66808
3.14952 -0.0187821 3.6223
3.20978 -0.0187978 3.63392
3.38551 -0.0188218 3.70191
3.22465 -0.0188473 3.60132
3.29648 -0.0188881 3.61458
3.36623 -0.0189486 3.62355
3.34414 -0.0190617 3.57796
0.0828998 -0.0130367 0.998528
-0.0271384 -0.0130048 0.942291
0.00145735 -0.0129795 0.953385
-0.122572 -0.0129637 0.885207
-0.103613 -0.012945 0.889486
-0.0782957 -0.0129264 0.896928
-0.0691515 -0.0129172 0.893365
-0.262817 -0.0128989 0.791281
-0.105609 -0.0128867 0.862726
-0.124432 -0.0128719 0.847018
-0.123115 -0.0128599 0.8405
-0.124241 -0.0128511 0.831763
0.000168761 -0.0128392 0.886783
-0.185751 -0.0128275 0.786634
-0.0262074 -0.0128189 0.858206
-0.110638 -0.012802 0.810489
-0.107388 -0.0127989 0.802186
-0.234329 -0.0127875 0.731488
-0.314237 -0.0127762 0.684295
-0.184198 -0.0127681 0.741045
-0.228737 -0.0127569 0.711507
-0.14178 -0.012749 0.746678
-0.0830536 -0.0127381 0.768737
-0.200792 -0.0127319 0.701042
-0.127951 -0.0127242 0.729123
-0.196743 -0.0127135 0.687397
-0.3764 -0.0127061 0.589181
-0.111174 -0.0126956 0.714418
-0.142561 -0.0126894 0.689962
-0.175498 -0.0126822 0.665063
-0.19491 -0.012672 0.647943
-0.09714 -0.0126658 0.688102
-0.155825 -0.0126588 0.65028
-0.272706 -0.0126489 0.584382
0.0143297 -0.0126458 0.718151
-0.153806 -0.012636 0.626608
-0.239081 -0.0126298 0.575303
-0.210644 -0.0126233 0.580961
-0.391039 -0.012617 0.482118
-0.135009 -0.0126106 0.601546
-0.0763632 -0.0126044 0.622245
-0.296369 -0.012595 0.504703
-0.0412218 -0.0125888 0.623679
-0.213822 -0.0125827 0.528733
-0.324639 -0.0125736 0.465725
0.0337128 -0.0125702 0.635362
-0.193547 -0.0125643 0.513061
-0.212178 -0.0125554 0.496129
-0.295695 -0.0125517 0.444917
-0.242398 -0.0125435 0.463743
-0.125124 -0.0125372 0.513869
-0.228857 -0.0125318 0.453223
-0.209002 -0.0125255 0.454659
-0.207825 -0.0125193 0.44677
-0.252418 -0.012514 0.415661
-0.0812207 -0.0125077 0.492802
-0.04759 -0.0125015 0.501173
-0.219748 -0.0124964 0.406249
-0.192919 -0.0124901 0.411237
-0.149789 -0.012482 0.425043
-0.291911 -0.0124789 0.344448
-0.300018 -0.0124727 0.332001
-0.055007 -0.0124648 0.446719
-0.257986 -0.0124616 0.335719
-0.294122 -0.0124554 0.309288
-0.321987 -0.0124476 0.287538
-0.271552 -0.0124445 0.303268
-0.237869 -0.0124383 0.311777
-0.336434 -0.0124307 0.254645
-0.218161 -0.0124271 0.304489
-0.171498 -0.0124213 0.319345
-0.196722 -0.0124151 0.298444
-0.124667 -0.01241 0.325742
-0.24693 -0.0124046 0.256028
-0.34892 -0.0123983 0.196773
-0.229525 -0.0123931 0.247835
-0.26751 -0.012388 0.220152
-0.211999 -0.0123818 0.239676
-0.353726 -0.0123764 0.160271
-0.353509 -0.0123724 0.151312
-0.0341355 -0.0123661 0.302801
-0.132316 -0.0123599 0.245525
-0.180625 -0.0123561 0.212256
-0.30895 -0.0123498 0.139923
-0.331171 -0.0123435 0.120654
-0.26715 -0.0123404 0.143318
-0.310435 -0.0123341 0.113538
-0.190832 -0.0123279 0.165214
-0.320958 -0.0123243 0.0909971
-0.249566 -0.012318 0.118582
-0.463417 -0.0123118 0.00355709
-0.22032 -0.0123086 0.115802
-0.364006 -0.0123024 0.0358801
-0.264351 -0.0122961 0.0776404
-0.199869 -0.012293 0.100601
-0.132923 -0.0122867 0.126026
-0.126618 -0.0122804 0.121143
-0.296095 -0.0122773 0.027146
-0.134274 -0.012271 0.10004
-0.178821 -0.0122647 0.0697614
-0.209468 -0.0122616 0.0452021
-0.20171 -0.0122553 0.0410958
-0.160217 -0.012249 0.0538677
-0.28256 -0.0122459 -0.0165179
0.0306589 -0.0122396 0.132137
3.06848 0 3.92909
3.39905 0 4.0907
3.2764 0 4.0224
3.24221 0 3.99629
3.19361 0 3.96092
3.12825 0 3.91789
3.29187 0 3.9878
3.26166 0 3.96027
3.09942 0 3.86669
3.13492 0 3.87117
3.05035 0 3.81556
3.13408 0 3.84404
3.01442 0 3.76997
3.25621 0 3.87653
3.0188 0 3.7434
3.02339 0 3.73117
3.03123 0 3.71948
3.03291 0 3.7048
3.09041 0 3.71791
3.18035 0 3.74711
3.10488 0 3.69344
3.05805 0 3.65324
3.08296 0 3.64877
3.03768 0 3.60904
3.20894 0 3.67658
3.14757 0 3.62763
3.13364 0 3.60112
3.14393 0 3.58643
3.20658 0 3.59764
3.16746 0 3.55547
3.17574 0 3.53659
3.33669 0 3.58678
-0.112821 0 0.929314
-0.0425259 0 0.960215
-0.170044 0 0.893179
-0.0315727 0 0.959126
-0.0540279 0 0.940689
-0.139216 0 0.893797
-0.129551 0 0.893322
-0.181778 0 0.859025
-0.10565 0 0.891736
-0.111943 0 0.881364
-0.102413 0 0.877925
-0.146757 0 0.850311
-0.0361274 0 0.896604
-0.122206 0 0.847088
-0.264002 0 0.768922
-0.236613 0 0.774349
-0.0856269 0 0.842554
-0.15789 0 0.798126
-0.265409 0 0.737053
-0.154856 0 0.783408
-0.107027 0 0.800569
-0.231208 0 0.731118
-0.15179 0 0.760935
-0.23665 0 0.711139
-0.235018 0 0.704569
-0.300928 0 0.663191
-0.296259 0 0.658095
-0.22459 0 0.684088
-0.0491416 0 0.764371
-0.274095 0 0.644429
-0.133907 0 0.70471
-0.187867 0 0.67025
-0.137648 0 0.686603
-0.180164 0 0.65681
-0.198191 0 0.640272
-0.18871 0 0.636292
-0.198458 0 0.622827
-0.210415 0 0.609275
-0.190192 0 0.609645
-0.308686 0 0.542801
-0.285369 0 0.545796
-0.200225 0 0.579687
-0.0828397 0 0.630725
-0.0216135 0 0.652707
-0.221 0 0.544265
-0.195813 0 0.548248
-0.225181 0 0.524967
-0.345702 0 0.455931
-0.199514 0 0.521289
-0.339457 0 0.441916
-0.103742 0 0.55097
-0.233791 0 0.478188
0.0218452 0 0.596693
-0.0664505 0 0.544443
-0.204783 0 0.466765
-0.185149 0 0.468083
-0.271643 0 0.41592
-0.251197 0 0.417663
-0.209324 0 0.430133
-0.257933 0 0.396878
-0.288735 0 0.373592
-0.298616 0 0.359655
-0.0697884 0 0.46508
-0.221759 0 0.38118
-0.263979 0 0.351166
-0.192671 0 0.377794
0.0259193 0 0.479143
-0.137627 0 0.388559
-0.187024 0 0.354793
-0.205976 0 0.337338
-0.135754 0 0.364102
-0.238432 0 0.303285
-0.174681 0 0.326834
-0.112792 0 0.349772
-0.151947 0 0.321236
-0.175759 0 0.300535
-0.031769 0 0.364247
-0.140363 0 0.301392
-0.257656 0 0.23384
-0.267423 0 0.220701
-0.147494 0 0.272202
-0.300391 0 0.18657
-0.268736 0 0.194334
-0.290082 0 0.175447
-0.156839 0 0.232684
-0.225342 0 0.190239
-0.160936 0 0.21426
-0.0607916 0 0.254972
-0.29659 0 0.128985
-0.231155 0 0.153547
-0.264287 0 0.128658
-0.0972288 0 0.203034
-0.318058 0 0.0844958
-0.253827 0 0.108453
-0.340999 0 0.0556044
-0.150021 0 0.143002
-0.280636 0 0.0696139
-0.31275 0 0.0442706
-0.223361 0 0.0809048
-0.0141306 0 0.177471
-0.158211 0 0.0961664
-0.069109 0 0.132688
-0.199496 0 0.0594786
-0.123798 0 0.0880883
-0.170753 0 0.056619
-0.133444 0 0.0672927
-0.194805 0 0.0273946
-0.170266 0 0.0317026
3.30867 0.0191659 4.0509
3.24729 0.0190578 4.01861
3.22843 0.0189952 4.00151
3.29793 0.0189428 4.02729
3.3135 0.0188965 4.02533
3.10312 0.0188639 3.90857
3.09602 0.0188283 3.89392
3.08266 0.0187988 3.87534
3.14324 0.0187733 3.8932
3.02567 0.0187538 3.82119
3.19516 0.0187349 3.89264
3.20373 0.0187166 3.88357
2.98566 0.018699 3.76112
3.1079 0.0186875 3.80795
2.93332 0.0186839 3.70523
3.05194 0.0186737 3.75009
3.08155 0.0186643 3.75035
2.96975 0.0186612 3.67898
3.02407 0.0186589 3.69054
2.99232 0.0186583 3.65881
3.09697 0.0186625 3.69456
3.15949 0.0186624 3.70989
3.09976 0.0186682 3.66319
3.2136 0.0186804 3.70226
3.25422 0.0186944 3.70442
3.12026 0.0187087 3.61922
3.12441 0.0187239 3.60291
3.28987 0.0187474 3.66591
3.1036 0.0187723 3.55277
3.11546 0.0188125 3.53621
3.21025 0.0188548 3.56071
3.34315 0.018932 3.59852
-0.0184641 0.0130835 1.00039
-0.126426 0.0130452 0.946955
-0.127583 0.0130134 0.944977
-0.160054 0.013004 0.920524
-0.00099324 0.012979 0.996671
-0.173286 0.0129604 0.905179
-0.170561 0.0129512 0.898329
-0.158394 0.0129329 0.899037
-0.207264 0.0129207 0.867338
-0.266063 0.0129058 0.831554
-0.17638 0.0128939 0.869117
-0.119141 0.0128851 0.889492
-0.193062 0.0128677 0.847009
-0.35871 0.0128591 0.755906
-0.0359909 0.0128475 0.909947
-0.188612 0.012836 0.826311
-0.147235 0.0128277 0.838686
-0.120307 0.0128164 0.844803
-0.156465 0.0128083 0.818381
-0.0196167 0.0127972 0.87943
-0.291775 0.0127862 0.735962
-0.133818 0.0127783 0.806545
-0.196714 0.0127676 0.767673
-0.337294 0.0127614 0.688473
-0.165203 0.0127538 0.76609
-0.158026 0.0127432 0.762229
0.0267709 0.0127359 0.846151
-0.163726 0.0127256 0.743408
-0.209423 0.0127194 0.711712
-0.220662 0.0127123 0.697573
-0.109977 0.0127022 0.745385
-0.359762 0.0126953 0.611915
-0.13389 0.0126892 0.71605
-0.235999 0.0126794 0.657421
-0.211949 0.0126728 0.660817
-0.274469 0.0126666 0.62079
-0.36146 0.0126602 0.56864
-0.0861545 0.0126508 0.698637
-0.117167 0.0126446 0.6744
-0.122075 0.0126385 0.663229
-0.0672092 0.0126323 0.681953
-0.265258 0.0126232 0.575229
-0.155049 0.01262 0.620657
-0.131632 0.0126112 0.624583
-0.222697 0.012605 0.570388
-0.317578 0.0125993 0.51414
-0.355332 0.0125907 0.487474
-0.168255 0.0125845 0.572382
-0.20624 0.0125791 0.544508
-0.151414 0.012573 0.56331
-0.0758901 0.0125668 0.592476
-0.127312 0.0125616 0.557853
-0.0492279 0.0125534 0.589015
-0.342456 0.0125492 0.433142
-0.3348 0.0125442 0.428026
-0.243665 0.0125362 0.46569
-0.249393 0.01253 0.454292
-0.00560485 0.0125253 0.567159
-0.209254 0.0125191 0.45682
-0.11234 0.0125129 0.496775
-0.354136 0.0125083 0.366816
-0.119544 0.0125022 0.475626
-0.270463 0.012496 0.391697
-0.293861 0.0124916 0.370896
-0.119524 0.0124855 0.449613
-0.340759 0.0124781 0.330962
-0.0222226 0.0124751 0.480684
-0.195552 0.0124689 0.385598
-0.358182 0.0124618 0.296217
-0.35571 0.0124565 0.288717
-0.288737 0.0124525 0.313025
-0.334969 0.0124456 0.281809
-0.282422 0.0124401 0.29944
-0.282398 0.0124363 0.29023
-0.292561 0.0124295 0.277012
-0.198352 0.0124234 0.315775
-0.292127 0.0124203 0.259416
-0.217583 0.0124141 0.288369
-0.142192 0.0124076 0.317896
-0.228097 0.0124022 0.266323
-0.313354 0.0123983 0.214573
-0.284111 0.0123921 0.220916
-0.104151 0.0123859 0.302628
-0.118788 0.0123827 0.285955
-0.0706973 0.0123765 0.301748
-0.261051 0.0123703 0.198332
-0.239976 0.0123672 0.199471
-0.324923 0.012361 0.148779
-0.194452 0.0123548 0.205808
-0.106472 0.0123487 0.241575
-0.279147 0.0123455 0.1459
-0.215308 0.0123393 0.169646
-0.325467 0.0123331 0.106404
-0.0916631 0.01233 0.213962
-0.228777 0.0123238 0.137264
-0.33946 0.0123176 0.0737925
-0.248988 0.0123145 0.109708
-0.193759 0.0123083 0.129212
-0.328371 0.0123021 0.053808
-0.124367 0.012299 0.146511
-0.130359 0.012293 0.135353
-0.192089 0.0122868 0.0964146
-0.256915 0.0122805 0.0559393
-0.170331 0.0122774 0.0899605
-0.250486 0.0122712 0.0418399
-0.192413 0.012265 0.0628454
-0.16993 0.0122619 0.0648372
-0.392455 0.0122557 -0.0544372
-0.156286 0.0122495 0.0556463
-0.300785 0.0122464 -0.0258309
-0.295879 0.0122402 -0.0313602
3.22515 0.0383171 4.01014
3.20101 0.0380708 3.99853
3.03159 0.037937 3.90676
3.05643 0.0378107 3.91172
3.1571 0.0377365 3.95107
2.94724 0.0376528 3.83588
3.08575 0.0375813 3.89409
3.14582 0.0375396 3.91103
2.93867 0.0374881 3.79509
2.93985 0.037432 3.7837
3.25157 0.037394 3.92631
2.99546 0.0373573 3.78495
3.06345 0.0373329 3.80477
2.97092 0.0373137 3.74397
3.06133 0.0372916 3.77486
3.04898 0.0372711 3.75429
3.09303 0.037263 3.76099
3.0841 0.0372566 3.74109
2.97215 0.0372533 3.66946
3.00978 0.0372497 3.67263
2.9689 0.0372489 3.63634
3.10943 0.0372585 3.68995
3.16761 0.03727 3.70224
2.8756 0.0372833 3.53928
3.12232 0.0373094 3.64467
2.91217 0.0373373 3.52147
3.13558 0.0373698 3.61466
3.16598 0.0374165 3.61018
3.24808 0.0374774 3.63038
3.27175 0.0375412 3.62108
3.37062 0.0376248 3.64774
3.50615 0.0377483 3.68941
-0.0666264 0.0262803 0.992715
-0.0937279 0.0261529 0.987271
-0.095779 0.0260891 0.984764
-0.0588745 0.0260386 0.999782
-0.0528687 0.0260071 0.99647
-0.178159 0.0259699 0.928432
-0.130986 0.0259329 0.946608
-0.124389 0.0259146 0.941657
0.0298284 0.0258782 1.01332
-0.0765518 0.0258541 0.952816
-0.262012 0.0258245 0.853639
-0.22797 0.0257894 0.865104
-0.144607 0.0257721 0.89848
-0.29213 0.0257488 0.817359
-0.0842231 0.0257318 0.912989
-0.069479 0.0257088 0.912985
-0.316073 0.025686 0.782305
-0.0832481 0.0256696 0.890358
-0.239291 0.0256472 0.80493
-0.0612494 0.0256311 0.885559
-0.186985 0.0256091 0.815257
-0.343594 0.0255873 0.729502
-0.148141 0.0255718 0.818782
0.00658693 0.0255505 0.88866
-0.0755961 0.0255355 0.839079
-0.250199 0.0255146 0.74425
-0.0851436 0.0255024 0.817861
-0.207924 0.0254879 0.747942
-0.215403 0.0254675 0.736643
-0.172619 0.0254534 0.749453
-0.11644 0.0254412 0.768673
-0.0960425 0.0254213 0.771274
-0.197716 0.0254078 0.711806
-0.160076 0.0253885 0.722972
-0.257519 0.0253763 0.66543
-0.207083 0.0253633 0.681963
-0.0926466 0.0253445 0.731478
-0.207871 0.0253384 0.66406
-0.236736 0.0253199 0.641903
-0.243919 0.0253017 0.630555
-0.123214 0.0252954 0.681154
-0.220172 0.0252776 0.624868
-0.198418 0.0252654 0.627016
-0.134508 0.0252539 0.65013
-0.161787 0.0252416 0.627783
-0.259259 0.0252243 0.571216
-0.15973 0.0252171 0.611438
-0.216217 0.0252012 0.575148
-0.231813 0.025189 0.558688
-0.147323 0.0251784 0.591992
-0.148065 0.025162 0.583692
-0.143786 0.0251498 0.5772
-0.252931 0.0251416 0.513304
-0.268111 0.0251276 0.497405
-0.335522 0.0251154 0.455102
-0.197576 0.0251058 0.515022
-0.219028 0.0250935 0.495716
-0.0788935 0.0250813 0.557218
-0.31778 0.025069 0.429223
-0.189507 0.025057 0.484768
-0.297424 0.0250447 0.422272
-0.346601 0.0250352 0.388678
-0.0991406 0.0250239 0.503719
-0.143565 0.0250116 0.473001
-0.116497 0.0250017 0.477621
-0.288349 0.0249912 0.382906
-0.233614 0.0249772 0.402111
-0.33988 0.0249666 0.340204
-0.147502 0.0249588 0.427141
-0.202835 0.0249451 0.391279
-0.276397 0.0249342 0.345818
-0.307583 0.0249268 0.320932
-0.265719 0.0249135 0.333633
-0.205936 0.0249012 0.355117
-0.190519 0.0248899 0.354258
-0.149855 0.0248828 0.365256
-0.293205 0.0248699 0.285322
-0.377413 0.0248582 0.234746
-0.0727071 0.0248515 0.377719
-0.203639 0.024839 0.303954
-0.158874 0.0248267 0.317999
-0.276549 0.0248206 0.249697
-0.334026 0.0248083 0.212642
-0.317684 0.024796 0.212509
-0.119468 0.0247837 0.303327
-0.251286 0.0247776 0.227984
-0.302036 0.0247653 0.194339
-0.349353 0.024753 0.162423
-0.230637 0.0247468 0.212371
-0.0572156 0.0247345 0.290845
-0.114935 0.0247221 0.25376
-0.240155 0.0247102 0.182864
-0.285706 0.024704 0.150707
-0.154061 0.0246917 0.208331
-0.016111 0.0246793 0.269119
-0.072811 0.0246732 0.23141
-0.0145338 0.0246608 0.252383
-0.284872 0.0246485 0.109059
-0.225948 0.024637 0.13021
-0.276281 0.0246308 0.0957119
-0.169685 0.0246185 0.140881
-0.140471 0.0246061 0.147369
-0.199153 0.0246 0.108719
-0.323864 0.0245876 0.0382653
-0.221959 0.0245753 0.0811308
-0.0728301 0.0245691 0.146408
-0.245878 0.0245568 0.0518168
-0.151535 0.0245444 0.0909319
-0.303931 0.024532 0.00668843
-0.345307 0.0245259 -0.0232565
-0.117243 0.0245135 0.0827495
-0.223202 0.0245011 0.021755
-0.333028 0.0244949 -0.0423929
-0.280742 0.0244826 -0.024246
3.25452 0.0574725 4.02496
3.10756 0.0570388 3.95488
3.08755 0.0568055 3.93933
2.98316 0.0566476 3.87824
2.96563 0.056492 3.86057
3.1172 0.0563825 3.92538
2.90915 0.0563018 3.80909
2.91363 0.0561963 3.80029
2.95916 0.0561351 3.80996
2.9299 0.0560593 3.78297
2.98387 0.0560016 3.79677
3.06837 0.0559457 3.82577
3.02188 0.0559081 3.78843
2.92041 0.0558726 3.72351
3.05392 0.0558393 3.77599
2.91243 0.0558083 3.69089
2.93844 0.055796 3.68861
3.0226 0.0557727 3.71597
2.84767 0.0557645 3.61303
2.93363 0.0557624 3.64024
3.1052 0.0557723 3.70964
2.94838 0.0557883 3.61453
2.98437 0.0558054 3.61575
3.10043 0.0558251 3.65687
3.04851 0.0558474 3.61385
3.12686 0.055889 3.63494
3.10758 0.0559332 3.60706
3.09829 0.0560019 3.58285
3.17 0.0560919 3.59796
3.02214 0.0561694 3.50391
3.16453 0.0562932 3.55244
3.33963 0.0564934 3.61313
-0.0448949 0.0393612 1.03198
-0.0188398 0.0392269 1.04729
-0.188909 0.0391316 0.960699
-0.241466 0.0390562 0.930901
-0.223958 0.0390282 0.93137
-0.0865993 0.0389725 0.994593
-0.25769 0.0389174 0.903572
-0.127855 0.0388719 0.962056
-0.093028 0.038818 0.973923
-0.187554 0.0387914 0.918346
-0.241832 0.0387559 0.883822
-0.11442 0.0387036 0.941894
-0.175664 0.0386778 0.902924
-0.148653 0.0386432 0.909013
-0.0189061 0.0386179 0.965518
0.0608563 0.0385838 0.997967
-0.167943 0.03855 0.876126
-0.150452 0.0385255 0.876464
-0.209238 0.0384774 0.841163
-0.065294 0.0384684 0.903137
-0.117045 0.0384357 0.869766
-0.0424289 0.0384034 0.899563
-0.0527922 0.0383805 0.885884
-0.286251 0.0383488 0.761606
-0.326076 0.0383266 0.733152
-0.24105 0.0382956 0.768073
-0.196746 0.0382775 0.781278
-0.184394 0.038256 0.778872
-0.135319 0.0382258 0.795784
-0.1843 0.038205 0.762658
-0.157571 0.0381756 0.768345
-0.189194 0.0381574 0.743646
-0.121693 0.0381375 0.76871
-0.189501 0.0381088 0.727085
-0.144591 0.0380906 0.740689
-0.118111 0.0380715 0.745187
-0.158396 0.0380437 0.717273
-0.120899 0.0380255 0.727206
-0.10992 0.0380073 0.723893
-0.332138 0.0379804 0.604958
-0.149607 0.0379708 0.686476
-0.149514 0.0379448 0.67862
-0.134676 0.0379265 0.677279
-0.300525 0.0379083 0.585608
-0.268572 0.0378841 0.593518
-0.128362 0.0378659 0.654895
-0.234198 0.0378499 0.593005
-0.194812 0.0378316 0.603991
-0.0936873 0.0378134 0.64586
-0.0879445 0.0377951 0.640052
-0.34354 0.0377738 0.503932
-0.176805 0.0377555 0.578637
-0.205312 0.037741 0.555303
-0.217413 0.0377178 0.541177
-0.157018 0.0376996 0.562741
-0.229106 0.0376862 0.517516
-0.0494275 0.0376678 0.598758
-0.198233 0.0376496 0.515754
-0.265491 0.0376356 0.473036
-0.228951 0.0376183 0.482613
-0.233913 0.0375966 0.471959
-0.268146 0.0375817 0.445891
-0.0835705 0.0375664 0.529286
-0.237258 0.0375481 0.4439
-0.234163 0.0375326 0.436588
-0.128096 0.0375184 0.480627
-0.123441 0.0375001 0.474443
-0.179744 0.0374819 0.437793
-0.264517 0.0374709 0.38604
-0.217594 0.0374527 0.401021
-0.170104 0.0374331 0.416449
-0.230521 0.037424 0.37668
-0.411046 0.0374057 0.277966
-0.252178 0.0373867 0.349046
-0.382976 0.0373691 0.275136
-0.256914 0.0373593 0.328717
-0.143377 0.0373409 0.377095
-0.0581917 0.0373226 0.411285
-0.208734 0.0373044 0.327617
-0.0706902 0.0372952 0.387145
-0.255222 0.0372769 0.286513
-0.434532 0.0372586 0.1885
-0.132978 0.0372494 0.329799
-0.262696 0.037231 0.256606
-0.220808 0.0372127 0.269228
-0.233456 0.0372035 0.25345
-0.113079 0.0371858 0.305252
-0.294838 0.0371674 0.206077
-0.293443 0.0371491 0.198492
-0.1245 0.0371399 0.273539
-0.302086 0.0371228 0.176321
-0.123094 0.0371044 0.257561
-0.190524 0.0370861 0.215602
-0.207715 0.0370769 0.197609
-0.358521 0.0370585 0.113982
-0.152954 0.0370401 0.208554
-0.177633 0.0370309 0.186841
-0.163088 0.0370145 0.185664
-0.215407 0.0369961 0.151318
-0.236481 0.0369777 0.132606
-0.309717 0.0369686 0.0866412
-0.211093 0.0369502 0.127798
-0.230364 0.0369318 0.110019
-0.2878 0.0369134 0.0731689
0.031372 0.0369041 0.223438
-0.186007 0.0368885 0.106275
-0.136876 0.0368701 0.122732
-0.267064 0.0368609 0.0483392
-0.268401 0.0368426 0.0395817
-0.0735683 0.0368242 0.12892
-0.265031 0.0368058 0.0251224
-0.192074 0.0367966 0.0523318
-0.204915 0.0367782 0.0378636
-0.211707 0.0367598 0.0264307
-0.172478 0.0367506 0.036798
-0.162308 0.0367322 0.033865
3.15366 0.0759616 3.98101
3.12438 0.0756501 3.96086
3.14786 0.0754013 3.96505
2.9681 0.0752306 3.86501
2.89814 0.0750622 3.81986
3.04095 0.0749181 3.88031
3.02821 0.0747988 3.86217
3.06406 0.0746954 3.8678
3.23456 0.0746158 3.93996
3.01717 0.0745386 3.81811
2.9346 0.0744639 3.76362
2.90914 0.0743917 3.73762
2.86758 0.0743441 3.7027
2.91259 0.0742994 3.71098
2.88984 0.0742796 3.68447
2.90522 0.0742462 3.67754
3.05559 0.0742318 3.73742
3.06017 0.0742206 3.72428
3.03605 0.0742127 3.69666
2.85822 0.0742304 3.59122
3.04164 0.0742296 3.66711
3.07433 0.0742515 3.66675
2.99926 0.0742762 3.6124
3.0591 0.0743267 3.62448
3.1623 0.0743847 3.65793
3.03029 0.0744434 3.57372
3.13482 0.0745346 3.60646
3.15809 0.0746238 3.59861
3.00843 0.0747573 3.50248
3.09804 0.0749219 3.52468
3.1959 0.0751527 3.54824
3.32424 0.0756049 3.57791
0.0543349 0.0525675 1.10882
0.000638775 0.0523886 1.08411
0.0466239 0.0522991 1.10263
-0.159845 0.052198 0.995821
-0.260667 0.0520978 0.941818
-0.072541 0.0520607 1.02756
-0.147822 0.0519622 0.986272
-0.120887 0.0519137 0.992327
-0.0144596 0.0518534 1.03905
-0.32303 0.0517821 0.879143
-0.0722107 0.0517468 0.996198
-0.19378 0.0516998 0.927976
-0.163882 0.0516531 0.935486
-0.151689 0.0515966 0.934915
-0.148077 0.0515508 0.929249
-0.203362 0.0515175 0.893193
-0.10695 0.0514724 0.933908
-0.116655 0.0514277 0.921555
-0.253442 0.0513954 0.844708
-0.278884 0.0513321 0.825988
-0.166388 0.0513201 0.87222
-0.20939 0.051277 0.843162
-0.23993 0.0512344 0.820318
-0.239286 0.0512042 0.812093
-0.366697 0.0511625 0.740775
-0.126401 0.0511333 0.852329
-0.13349 0.0510925 0.841129
-0.248823 0.0510684 0.774484
-0.169314 0.0510402 0.805604
-0.261045 0.0510004 0.752048
-0.198703 0.0509732 0.774528
-0.143775 0.0509345 0.794248
-0.178154 0.0509104 0.76814
-0.291793 0.0508843 0.702579
-0.199838 0.0508467 0.740767
-0.326101 0.0508225 0.668754
-0.149448 0.0507975 0.748282
-0.254702 0.050761 0.687815
-0.23182 0.0507369 0.690409
-0.311174 0.0507131 0.641871
-0.183465 0.0506777 0.697831
-0.16527 0.050655 0.697995
-0.107027 0.0506309 0.71831
-0.299475 0.0506068 0.613295
-0.224934 0.0505826 0.641787
-0.166768 0.0505512 0.662707
-0.268007 0.0505271 0.603328
-0.238739 0.0505029 0.609216
-0.164418 0.050474 0.63804
-0.239267 0.0504498 0.591887
-0.121719 0.0504303 0.641552
-0.0861301 0.0504061 0.650638
-0.297894 0.050382 0.536061
-0.208426 0.0503577 0.572115
-0.30157 0.0503328 0.516936
-0.26821 0.0503086 0.524951
-0.376144 0.050291 0.461759
-0.253947 0.0502669 0.514211
-0.239917 0.0502379 0.51301
-0.169138 0.0502185 0.539364
-0.325834 0.0501975 0.452121
-0.265908 0.0501733 0.473478
-0.0610766 0.0501531 0.566951
-0.191186 0.0501336 0.492902
-0.152476 0.0501067 0.503927
-0.191237 0.0500852 0.475742
-0.0249513 0.0500704 0.549499
-0.113075 0.0500442 0.497074
-0.196122 0.05002 0.447015
-0.206054 0.0499977 0.433357
-0.223085 0.0499824 0.415534
-0.115065 0.0499582 0.461039
-0.277366 0.049934 0.371396
-0.275736 0.0499213 0.36269
-0.124296 0.0498971 0.429934
-0.0952957 0.0498729 0.435971
-0.117211 0.0498607 0.415462
-0.159474 0.0498365 0.38589
-0.201004 0.0498122 0.356697
-0.200323 0.0497882 0.348588
-0.287094 0.0497761 0.295681
-0.287749 0.0497518 0.286954
-0.0299928 0.0497274 0.407445
-0.189701 0.0497043 0.319109
-0.175405 0.0496921 0.316764
0.0167153 0.0496678 0.404465
-0.351163 0.0496435 0.212179
-0.298019 0.0496332 0.229102
-0.277612 0.0496089 0.230973
-0.271694 0.0495846 0.225612
-0.154016 0.0495603 0.276143
-0.123485 0.0495508 0.281711
-0.163573 0.0495265 0.253374
-0.159532 0.0495022 0.247112
-0.195987 0.0494778 0.220615
-0.321306 0.0494657 0.148543
-0.244881 0.0494449 0.178165
-0.263471 0.0494206 0.160626
-0.128519 0.0493962 0.219869
-0.166892 0.0493841 0.191297
-0.210773 0.0493597 0.161144
-0.176793 0.0493354 0.169934
-0.22437 0.049311 0.137956
-0.380053 0.0493033 0.0503218
-0.315465 0.049279 0.0744391
-0.185031 0.0492547 0.131491
-0.224678 0.0492425 0.102331
-0.268227 0.0492181 0.072411
-0.377136 0.0491938 0.00982247
-0.262764 0.0491694 0.0588854
-0.110642 0.0491572 0.125639
-0.399222 0.0491328 -0.0267542
-0.243824 0.0491085 0.0428522
-0.140315 0.0490963 0.0853215
-0.155189 0.0490719 0.0698109
-0.289914 0.0490475 -0.00561439
-0.058492 0.0490231 0.102044
-0.0409688 0.0490109 0.10155
-0.288449 0.0489865 -0.0302229
2.97039 0.094839 3.89247
3.01442 0.0944014 3.91031
3.08572 0.0941104 3.93789
3.10584 0.0938498 3.93913
2.9875 0.093666 3.86907
3.14282 0.0934856 3.93581
2.94963 0.0933529 3.82701
3.06847 0.0931796 3.87542
2.85366 0.0930799 3.75496
2.9751 0.092983 3.80257
2.85114 0.0928893 3.72743
3.01577 0.092826 3.79572
2.98958 0.0927662 3.76852
2.89635 0.09271 3.70772
3.03597 0.0926655 3.76301
3.13832 0.092643 3.79902
3.07198 0.092597 3.7514
3.07633 0.0925826 3.7382
2.97509 0.092603 3.67114
2.76514 0.0925956 3.55057
2.76402 0.0926202 3.53343
2.95246 0.0926479 3.61097
2.97401 0.0926784 3.60497
2.99689 0.0927132 3.59948
2.91561 0.0927804 3.54089
3.09037 0.0928861 3.60907
3.06215 0.0929635 3.57663
3.04277 0.0930827 3.54725
3.10051 0.0932374 3.55525
2.91175 0.0934406 3.43837
3.2091 0.0937263 3.5618
3.2854 0.0941646 3.56964
-0.049292 0.0656725 1.08165
0.0702068 0.0654808 1.14157
-0.0242014 0.0654014 1.08792
0.0107717 0.0652754 1.10176
0.017299 0.0651506 1.10136
-0.054196 0.0651043 1.05726
-0.093277 0.0649818 1.03398
-0.121451 0.0649216 1.01243
-0.0945233 0.0648468 1.01935
-0.14074 0.0647582 0.990544
0.0271438 0.0647145 1.06609
-0.216774 0.0646562 0.93664
-0.200766 0.0645983 0.93715
-0.278192 0.0645283 0.8917
-0.05548 0.0644717 0.995527
0.0257268 0.0644303 1.02767
-0.188193 0.0643745 0.913162
-0.140134 0.0643192 0.929632
-0.129147 0.0642793 0.926624
-0.356934 0.064225 0.805144
-0.0724453 0.0641862 0.938851
-0.187335 0.0641329 0.873786
-0.151217 0.0640952 0.883268
-0.330268 0.0640431 0.786085
-0.100843 0.0639915 0.893122
-0.207958 0.0639555 0.830919
-0.191906 0.0639052 0.831223
-0.110249 0.0638753 0.863043
-0.286673 0.0638406 0.766143
-0.269147 0.0637915 0.767149
-0.301481 0.0637581 0.742237
-0.255042 0.0637104 0.757645
-0.165752 0.0636804 0.793341
-0.209738 0.0636484 0.762551
-0.294053 0.063602 0.712536
-0.134492 0.0635713 0.783453
0.019974 0.0635414 0.851781
-0.325181 0.0634965 0.671295
-0.244167 0.0634672 0.702877
-0.354598 0.0634237 0.639685
-0.260317 0.0633938 0.677966
-0.354982 0.0633661 0.621642
-0.182 0.0633241 0.700096
-0.182631 0.0633061 0.690156
-0.0895219 0.063268 0.728446
-0.195063 0.063238 0.666869
-0.236411 0.063208 0.637404
-0.246744 0.063178 0.623461
-0.239842 0.063143 0.618476
-0.219997 0.063113 0.619638
-0.150904 0.0630892 0.645017
0.0945541 0.0630512 0.759551
-0.188293 0.0630292 0.608855
-0.42186 0.062999 0.483363
-0.192514 0.0629691 0.589325
-0.270847 0.0629391 0.541462
-0.15249 0.062909 0.591957
-0.360113 0.0628822 0.479246
-0.193632 0.0628522 0.553818
-0.155573 0.0628275 0.56382
-0.322748 0.0628025 0.471236
-0.149803 0.0627725 0.549071
-0.184401 0.0627424 0.523149
-0.342199 0.0627207 0.435052
-0.221324 0.0626907 0.486878
-0.0702504 0.0626607 0.553817
-0.215998 0.0626436 0.471443
-0.357469 0.0626136 0.392128
-0.266546 0.0625835 0.429022
-0.0437678 0.0625534 0.531857
-0.260345 0.0625369 0.414055
-0.204657 0.0625069 0.433356
-0.277923 0.0624771 0.38818
-0.0989395 0.0624469 0.469161
-0.354954 0.0624318 0.331574
-0.121158 0.0624016 0.439978
-0.250873 0.0623715 0.366639
-0.100902 0.0623572 0.431999
-0.277461 0.0623271 0.335254
-0.21487 0.0622969 0.358097
-0.132872 0.0622836 0.389424
-0.0769445 0.0622534 0.40895
-0.137165 0.0622232 0.370415
-0.219067 0.0621957 0.320852
-0.276169 0.0621807 0.282784
-0.221801 0.0621505 0.301571
-0.199084 0.0621203 0.304544
-0.13225 0.0620938 0.329313
-0.119276 0.0620787 0.326312
-0.095927 0.0620485 0.329629
-0.0679922 0.0620183 0.33525
-0.193366 0.0619928 0.263878
-0.28151 0.0619777 0.210346
-0.0897688 0.0619475 0.297896
-0.230196 0.0619172 0.219376
-0.286341 0.0618927 0.182577
-0.314048 0.0618776 0.159291
-0.148753 0.0618474 0.233656
-0.335795 0.0618172 0.131865
-0.286793 0.061787 0.148108
-0.328145 0.0617718 0.11803
-0.153089 0.0617484 0.1968
-0.092527 0.0617182 0.218847
-0.156615 0.061688 0.17858
-0.292818 0.0616728 0.101103
-0.237394 0.0616426 0.120613
-0.0977677 0.0616124 0.182235
-0.146946 0.0615821 0.149466
-0.340671 0.061567 0.0432579
-0.279269 0.0615367 0.0657988
-0.09497 0.0615145 0.149165
-0.297378 0.0614994 0.0386328
-0.0209893 0.0614692 0.168689
-0.0741182 0.0614389 0.133999
-0.368499 0.0614087 -0.0213074
-0.318363 0.0613936 -0.00553802
-0.252863 0.0613633 0.0191153
-0.0734225 0.0613331 0.10075
-0.405083 0.0613028 -0.0731556
-0.242309 0.0612877 -0.00103784
-0.364139 0.0612574 -0.0700092
3.04727 0.113671 3.934
3.02133 0.113113 3.91764
2.97482 0.112738 3.88691
3.10324 0.112481 3.94104
3.11005 0.112172 3.93565
3.03069 0.111988 3.88433
2.97267 0.111796 3.84391
2.94455 0.111672 3.81688
2.87441 0.1115 3.77001
2.80805 0.111384 3.72376
3.12997 0.111271 3.8716
2.82317 0.111162 3.70501
3.05854 0.11109 3.80863
2.93075 0.111033 3.73031
2.83797 0.111001 3.66891
2.97873 0.110941 3.72499
2.88597 0.110918 3.66338
2.89851 0.110906 3.65417
2.94972 0.110891 3.66435
2.96476 0.110887 3.65617
2.96528 0.110912 3.64002
2.9249 0.110944 3.60321
2.87758 0.11098 3.56282
2.8369 0.111055 3.52472
3.06733 0.111135 3.62203
3.00838 0.11122 3.57447
2.9334 0.111354 3.51762
2.97908 0.111496 3.52081
3.05344 0.111681 3.53716
3.29403 0.111875 3.63634
3.22203 0.11218 3.57615
3.12052 0.112736 3.49431
-0.109144 0.0788004 1.07449
-0.141165 0.0786094 1.05667
-0.0689744 0.0785142 1.08627
-0.0833321 0.0783634 1.07538
-0.175522 0.0782142 1.02554
-0.107098 0.078159 1.05137
-0.086865 0.0780128 1.05766
-0.276984 0.0779411 0.955094
-0.174681 0.0778518 0.999633
-0.0774858 0.0777812 1.04071
-0.158689 0.0777286 0.991686
-0.0631671 0.0776249 1.03364
0.0459348 0.077556 1.08064
-0.238177 0.0774729 0.931775
-0.0743784 0.0774055 1.00609
-0.180297 0.0773564 0.944623
-0.178236 0.0772902 0.938046
-0.126644 0.0772422 0.955307
-0.385845 0.0771771 0.818073
-0.287583 0.0771127 0.859556
-0.07767 0.0770666 0.955926
-0.23488 0.0770035 0.86964
-0.276142 0.0769588 0.84038
-0.102606 0.076897 0.919428
-0.236482 0.0768537 0.843816
0.140503 0.0767933 1.02454
-0.228895 0.0767337 0.832059
-0.207574 0.0767159 0.832736
-0.0560363 0.0766571 0.900707
-0.175634 0.076599 0.833085
-0.215882 0.0765596 0.804161
-0.190665 0.0765031 0.808891
-0.174622 0.0764675 0.807932
-0.300855 0.0764297 0.735963
-0.245075 0.0763749 0.755926
-0.225385 0.0763388 0.756852
-0.139903 0.0762857 0.791603
-0.102546 0.0762501 0.801357
-0.252586 0.0762157 0.717355
-0.0474628 0.0761644 0.81187
-0.13479 0.0761443 0.758462
-0.282263 0.0760962 0.676529
-0.218739 0.0760467 0.700183
-0.106116 0.0760247 0.746878
-0.266967 0.0759803 0.65809
-0.17147 0.0759446 0.697001
-0.20214 0.0759089 0.672843
-0.289023 0.0758682 0.620865
-0.316539 0.0758325 0.598301
-0.292819 0.0757967 0.601368
-0.159904 0.0757689 0.658598
-0.108597 0.0757242 0.675985
-0.10768 0.0756974 0.667179
-0.0985521 0.0756626 0.662935
-0.170573 0.0756198 0.618582
-0.23798 0.075591 0.575748
-0.105988 0.0755552 0.633029
-0.41215 0.0755245 0.470949
-0.257126 0.0754887 0.539759
-0.214905 0.0754658 0.551437
-0.216996 0.075426 0.541939
-0.211584 0.0753903 0.535971
-0.119361 0.0753584 0.573201
-0.222444 0.0753337 0.51236
-0.174335 0.0752979 0.527772
-0.15417 0.0752621 0.529225
-0.379304 0.0752414 0.407152
-0.343801 0.0752057 0.416286
-0.200116 0.0751699 0.479524
-0.148965 0.0751348 0.496469
-0.171893 0.0751162 0.475405
-0.244194 0.0750803 0.430686
-0.255922 0.0750448 0.41624
-0.154232 0.0750268 0.457467
-0.196118 0.0749909 0.427985
-0.277001 0.0749565 0.378924
-0.265977 0.0749205 0.375917
-0.199901 0.0749026 0.399368
-0.322601 0.0748692 0.329361
-0.114118 0.0748333 0.425112
-0.266817 0.0748153 0.339195
-0.191123 0.074783 0.368346
-0.181248 0.0747471 0.364821
-0.249174 0.0747159 0.322116
-0.258461 0.0746979 0.307931
-0.221405 0.074662 0.318024
-0.145661 0.074626 0.347473
-0.202092 0.074596 0.31048
-0.281351 0.074578 0.261337
-0.135137 0.074542 0.326048
-0.10677 0.074506 0.331848
-0.149218 0.0744771 0.301808
-0.156118 0.0744591 0.288873
-0.21308 0.0744232 0.252035
-0.232658 0.0743871 0.2339
-0.0448866 0.0743594 0.318931
-0.206752 0.0743414 0.22854
-0.324149 0.0743054 0.161522
-0.148098 0.0742694 0.241239
-0.2081 0.0742334 0.202942
-0.224279 0.0742069 0.18596
-0.330499 0.0741889 0.123427
-0.24403 0.0741529 0.15839
-0.312425 0.0741168 0.115932
-0.31343 0.0740808 0.107181
-0.0022883 0.0740628 0.253359
-0.149791 0.0740376 0.170681
-0.290077 0.0740016 0.0923126
-0.229241 0.0739656 0.114517
-0.0967801 0.0739475 0.17138
-0.178276 0.0739115 0.122438
-0.246687 0.0738754 0.0800492
-0.251532 0.0738394 0.0694548
-0.238022 0.0738213 0.066872
-0.221125 0.0737853 0.0671677
-0.108396 0.0737492 0.11539
-0.0247569 0.0737131 0.149079
-0.134033 0.073695 0.0851327
-0.136464 0.0736589 0.0758049
-0.265007 0.0736228 0.00343204
-0.312792 0.0735866 -0.0285513
-0.174817 0.0735686 0.031157
-0.238771 0.0735324 -0.00889231
3.24701 0.132457 4.03698
3.22805 0.131805 4.02414
2.99906 0.13133 3.90296
2.91188 0.130963 3.85063
3.00618 0.130704 3.88698
3.02708 0.13045 3.8866
2.94138 0.1302 3.83288
2.89937 0.130017 3.79972
2.80476 0.129855 3.73988
3.0234 0.12968 3.83695
3.02745 0.129548 3.82589
2.85679 0.129459 3.72661
2.93069 0.129389 3.74923
2.83831 0.129308 3.68897
3.00209 0.129231 3.75669
3.09365 0.129199 3.78739
3.03221 0.129133 3.74231
2.94045 0.129119 3.68099
3.00214 0.12914 3.69561
2.96076 0.129129 3.65941
2.82843 0.129162 3.57676
2.91967 0.1292 3.60576
3.00538 0.129242 3.63193
2.89552 0.12929 3.56016
2.95344 0.129383 3.57125
2.92012 0.129482 3.53656
2.95453 0.129637 3.53445
3.04548 0.129789 3.56062
3.05208 0.130002 3.54319
3.20317 0.130282 3.59641
3.13444 0.130577 3.53931
3.16094 0.131116 3.52407
0.0426479 0.0923285 1.16757
0.00959896 0.0919707 1.15475
0.194448 0.0917481 1.2453
-0.167149 0.0916373 1.05797
-0.0571146 0.0914619 1.10921
-0.224 0.0913324 1.02009
-0.148416 0.0912246 1.05131
-0.165749 0.0910975 1.03693
-0.0424489 0.0910139 1.09103
-0.19357 0.0909096 1.00882
-0.119999 0.0907866 1.0398
-0.0554592 0.0907259 1.06361
-0.0708246 0.0906059 1.05004
-0.266502 0.0905467 0.943701
-0.21436 0.0904676 0.962159
-0.134434 0.0903891 0.994502
-0.231113 0.0902957 0.939211
-0.346169 0.0902192 0.874016
-0.0653024 0.0901639 1.00587
-0.288884 0.0900888 0.886381
-0.181376 0.090035 0.931517
-0.105888 0.0899614 0.961533
