ply
format ascii 1.0
comment Created by Open3D
element vertex 1752
property double x
property double y
property double z
end_header
1.48463 -0.153959 4.44163
1.40278 -0.153934 4.3863
1.44037 -0.153871 4.39103
1.50012 -0.153807 4.40685
1.45158 -0.153742 4.36856
1.47333 -0.153654 4.36562
1.4896 -0.153586 4.35979
1.48265 -0.153518 4.34236
1.48587 -0.153448 4.33004
1.47353 -0.153353 4.31018
1.47618 -0.153281 4.29763
1.44112 -0.153208 4.26625
1.5279 -0.153133 4.29581
1.38603 -0.153032 4.21131
1.47842 -0.152955 4.24373
1.3647 -0.152877 4.17313
1.52294 -0.152772 4.23879
1.49592 -0.152654 4.21195
1.46746 -0.152546 4.18434
1.37484 -0.152463 4.12439
1.45285 -0.152315 4.15046
1.42513 -0.15223 4.12303
1.47034 -0.152144 4.13209
1.45351 -0.151992 4.11084
1.44085 -0.151904 4.09103
1.36774 -0.15175 4.04172
1.45459 -0.15166 4.07173
1.4001 -0.151504 4.03181
1.43104 -0.15138 4.03427
1.41557 -0.151253 4.01358
1.44389 -0.151095 4.01518
1.37493 -0.150999 3.96745
1.36538 -0.150838 3.95019
1.42175 -0.150676 3.96593
1.40589 -0.150577 3.94485
1.44916 -0.150413 3.95413
1.45135 -0.150248 3.9429
1.37793 -0.150117 3.89349
1.40723 -0.149979 3.89556
1.339 -0.149812 3.84924
1.3925 -0.149643 3.86383
1.42522 -0.14951 3.86763
1.34181 -0.149341 3.81384
1.42123 -0.14917 3.84151
1.36798 -0.149036 3.80242
1.36577 -0.148864 3.78935
1.33554 -0.148692 3.76231
1.20263 -0.148541 3.68369
1.26447 -0.148383 3.70257
1.24841 -0.148208 3.68274
1.30994 -0.148057 3.70143
1.29393 -0.147903 3.68142
1.35378 -0.147733 3.69958
1.2339 -0.147584 3.62763
1.27498 -0.147419 3.63639
1.26009 -0.147273 3.61696
1.23703 -0.147114 3.59363
1.19012 -0.146965 3.55828
1.20622 -0.146819 3.55442
1.19442 -0.146662 3.53678
1.2531 -0.146519 3.55423
1.19807 -0.146376 3.51483
1.26909 -0.146235 3.53847
1.23086 -0.146094 3.5075
1.24738 -0.145955 3.50392
1.19747 -0.145816 3.46714
1.20868 -0.145678 3.46093
1.21794 -0.145544 3.45372
1.25852 -0.145407 3.46224
1.17766 -0.145271 3.41005
1.2043 -0.145136 3.41162
1.22453 -0.145 3.41001
1.18136 -0.144866 3.37672
1.16019 -0.14473 3.35447
1.17036 -0.144596 3.34789
1.09803 -0.144463 3.30007
1.2217 -0.144331 3.35027
1.16137 -0.144199 3.30847
1.18601 -0.144063 3.30927
1.19917 -0.143932 3.30426
1.11451 -0.143802 3.25035
1.19775 -0.143673 3.28041
1.07989 -0.143535 3.21007
1.08915 -0.143407 3.20318
1.14005 -0.143325 3.21635
1.15417 -0.143187 3.21209
1.12943 -0.143013 3.18901
1.12686 -0.142933 3.17549
1.14253 -0.142808 3.17186
1.14155 -0.142669 3.16016
1.11499 -0.142544 3.13547
1.10007 -0.142419 3.1166
1.14981 -0.142326 3.12955
1.0527 -0.142156 3.07043
1.07845 -0.142079 3.07114
1.06781 -0.141957 3.05447
1.05718 -0.141816 3.03815
1.14852 -0.141694 3.07251
0.995518 -0.14162 2.98388
1.02976 -0.141479 2.99007
1.01425 -0.141358 2.97106
1.1019 -0.141238 3.00364
1.01263 -0.141096 2.94817
1.04924 -0.140976 2.95526
1 -0.140904 2.91858
1.03977 -0.140762 2.92771
1.03713 -0.140643 2.91523
1.00645 -0.140524 2.88875
1.08106 -0.140381 2.91539
1.13278 -0.140311 2.92925
1.00064 -0.140193 2.85208
0.981144 -0.140049 2.83176
0.987788 -0.139931 2.82403
1.01225 -0.139862 2.8243
1.0095 -0.139718 2.81243
0.953781 -0.139601 2.77357
0.970826 -0.139505 2.77072
1.01974 -0.13934 2.78517
1.01624 -0.139271 2.77152
0.870752 -0.139175 2.68747
0.977414 -0.13901 2.73086
0.962683 -0.138942 2.71165
1.01093 -0.138845 2.72453
0.992077 -0.13868 2.70524
1.00906 -0.138613 2.70192
0.988414 -0.138516 2.68042
0.914691 -0.138351 2.63377
1.00868 -0.138284 2.669
0.952806 -0.138186 2.62996
0.917475 -0.138022 2.60258
0.912174 -0.137955 2.58821
0.892968 -0.137857 2.56757
0.903754 -0.137692 2.56334
0.957568 -0.137626 2.57857
0.819521 -0.13756 2.49787
0.933176 -0.137411 2.5448
0.893565 -0.137296 2.51443
0.887554 -0.13723 2.4998
0.88859 -0.137164 2.48871
0.858253 -0.137048 2.46303
0.979568 -0.136948 2.51285
0.914263 -0.136882 2.46863
0.956705 -0.136816 2.47831
0.891612 -0.136785 2.43347
0.958714 -0.136769 2.45439
0.591377 -0.131788 2.0306
0.644156 -0.131466 2.05249
0.591028 -0.131227 2.01941
0.600527 -0.130854 2.02107
0.590778 -0.130615 2.00978
0.627139 -0.130376 2.02159
0.590809 -0.130138 1.99709
0.637583 -0.129899 2.0142
0.511419 -0.12966 1.94488
0.550481 -0.129417 1.95833
0.463634 -0.12916 1.90923
0.46116 -0.128904 1.90236
0.460388 -0.128704 1.89491
0.494351 -0.128448 1.90633
0.456615 -0.128336 1.87821
0.486316 -0.128081 1.88756
0.464786 -0.127882 1.86986
0.381201 -0.127714 1.82035
0.412984 -0.12746 1.83084
0.385273 -0.127263 1.81014
0.378888 -0.127096 1.79931
0.346527 -0.126899 1.77633
0.335663 -0.126789 1.76182
0.267941 -0.126538 1.7227
0.341981 -0.126428 1.75069
0.40068 -0.126263 1.7725
0.263517 -0.126068 1.69726
0.382949 -0.125958 1.74799
0.338504 -0.125764 1.71915
0.345292 -0.125601 1.7151
0.291067 -0.125407 1.68141
0.286408 -0.125299 1.67018
0.291328 -0.125137 1.66525
0.295134 -0.124945 1.66064
0.239627 -0.124837 1.62404
0.228047 -0.124676 1.61091
0.243882 -0.124539 1.61088
0.150053 -0.124379 1.55667
0.276299 -0.124272 1.61101
0.248908 -0.124082 1.59093
0.214026 -0.123976 1.56473
0.184802 -0.123818 1.5429
0.212434 -0.123712 1.54799
0.147093 -0.123524 1.50901
0.152035 -0.123419 1.50279
0.259813 -0.123315 1.548
0.156727 -0.123128 1.4902
0.102635 -0.123024 1.45451
0.141345 -0.122868 1.46675
0.0906059 -0.122764 1.43277
0.100849 -0.122631 1.43018
0.199856 -0.122476 1.47262
0.156565 -0.122374 1.4424
0.17394 -0.122271 1.44252
0.117221 -0.122088 1.40804
0.0638685 -0.121986 1.37283
0.186963 -0.121884 1.42586
0.16995 -0.121783 1.40884
0.100708 -0.121601 1.36816
0.0270239 -0.1215 1.32284
0.0871708 -0.1214 1.34444
0.0462059 -0.1213 1.3155
0.0919896 -0.1212 1.32994
0.0903143 -0.12102 1.32312
0.124716 -0.120921 1.3319
0.0434211 -0.120822 1.28284
0.125997 -0.120723 1.31573
0.00727572 -0.120624 1.24798
0.0334393 -0.120526 1.25269
0.118601 -0.120398 1.28783
0.0640387 -0.1203 1.2522
-0.0329091 -0.120202 1.19538
0.0992329 -0.120105 1.25312
0.00041679 -0.119959 1.19692
0.0101712 -0.119833 1.19442
0.0557093 -0.119737 1.20889
0.0530943 -0.119641 1.1993
0.00385129 -0.119545 1.1664
0.0466572 -0.119449 1.17953
-0.0103263 -0.119354 1.14278
0.0237256 -0.11923 1.15249
0.0477393 -0.119135 1.15626
-0.0737317 -0.11904 1.0873
-0.0149536 -0.118946 1.10847
-0.0369837 -0.118852 1.08924
0.0347154 -0.118758 1.11689
0.0476888 -0.118664 1.11518
0.0132035 -0.118543 1.0907
0.00803159 -0.11845 1.07995
-0.017792 -0.118357 1.05887
0.0531147 -0.118264 1.08617
-0.0647003 -0.118172 1.01911
-0.102727 -0.118081 0.991957
-0.0561347 -0.117989 1.00712
-0.0753642 -0.117869 0.990334
-0.0671768 -0.117778 0.986314
-0.159176 -0.117733 0.930673
-0.0228779 -0.117642 0.990724
-0.112295 -0.117552 0.937925
-0.0152747 -0.117462 0.978351
-0.00158799 -0.117373 0.977118
0.0308125 -0.117283 0.985248
-0.127446 -0.117194 0.898056
-0.145261 -0.117077 0.882057
-0.0683677 -0.116989 0.912458
-0.0762171 -0.116945 0.898963
0.0442939 -0.116857 0.951186
-0.042127 -0.116769 0.89995
-0.100633 -0.116681 0.862678
-0.0670902 -0.116594 0.871435
-0.0966887 -0.116507 0.848628
-0.107116 -0.116421 0.835413
-0.0434548 -0.116377 0.857721
-0.0454253 -0.116264 0.849724
-0.186278 -0.116178 0.771318
-0.0511837 -0.116092 0.83089
-0.100946 -0.116007 0.79804
-0.124323 -0.115922 0.778387
-0.153335 -0.11588 0.754401
-0.107343 -0.115795 0.769444
-0.080499 -0.115711 0.774918
-0.0791213 -0.115627 0.767664
-0.0708533 -0.115585 0.762342
-0.229798 -0.115475 0.675924
-0.0522281 -0.115392 0.756785
-0.134776 -0.115309 0.707591
-0.150405 -0.115227 0.691861
-0.132921 -0.115185 0.69118
-0.14473 -0.115103 0.677369
-0.12056 -0.115022 0.681553
-0.185012 -0.11494 0.641428
-0.161235 -0.1149 0.643916
-0.143666 -0.114819 0.644812
-0.156081 -0.114738 0.630718
-0.232602 -0.114658 0.584575
-0.147787 -0.114618 0.617603
-0.124756 -0.114512 0.622247
-0.142449 -0.114432 0.605534
-0.181882 -0.114353 0.577953
-0.139087 -0.114314 0.589995
-0.153723 -0.114235 0.57482
-0.134788 -0.114157 0.576434
-0.186649 -0.114118 0.541161
-0.160565 -0.11404 0.546357
-0.119668 -0.113962 0.558961
-0.121417 -0.113885 0.550244
-0.115938 -0.113846 0.54366
-0.143069 -0.11377 0.522259
-0.241884 -0.113693 0.465017
-0.151462 -0.113655 0.500918
-0.126043 -0.113579 0.5058
-0.322012 -0.113504 0.399988
-0.154222 -0.113402 0.477084
-0.182921 -0.113365 0.453444
-0.132676 -0.11329 0.470751
-0.122512 -0.113216 0.468018
-0.178576 -0.113179 0.430707
-0.12414 -0.113105 0.450115
-0.125348 -0.113031 0.441701
-0.132638 -0.112994 0.428789
-0.140639 -0.112921 0.416983
-0.236925 -0.112849 0.361035
-0.124658 -0.112812 0.407912
-0.170024 -0.11274 0.377428
-0.180682 -0.112704 0.36285
-0.188595 -0.112632 0.351095
-0.24974 -0.112561 0.312725
-0.174036 -0.112525 0.341337
-0.0729083 -0.112455 0.384106
-0.171217 -0.112384 0.327156
-0.244779 -0.112349 0.281145
-0.106121 -0.112279 0.342681
-0.273053 -0.112209 0.251421
-0.151127 -0.112174 0.303162
-0.172716 -0.11208 0.285639
-0.196512 -0.112011 0.265951
-0.18485 -0.111976 0.262572
-0.236631 -0.111908 0.228893
-0.209509 -0.111874 0.23325
-0.188064 -0.111806 0.236186
-0.115592 -0.111739 0.264632
-0.173157 -0.111705 0.226653
-0.183341 -0.111638 0.213772
-0.163948 -0.111605 0.214277
-0.252966 -0.111538 0.161979
-0.196314 -0.111472 0.182515
-0.181633 -0.11144 0.18067
-0.110744 -0.111374 0.208323
-0.282724 -0.111341 0.113152
-0.184148 -0.111276 0.154648
-0.213489 -0.111212 0.132183
-0.228438 -0.111179 0.115533
-0.136035 -0.111115 0.153939
-0.21766 -0.111083 0.103955
-0.16291 -0.11102 0.123532
-0.190087 -0.110957 0.102143
-0.226478 -0.110925 0.0747809
-0.196701 -0.110862 0.081866
-0.124344 -0.110831 0.108881
-0.207623 -0.110769 0.0594364
-0.250516 -0.110707 0.0301804
-0.201307 -0.110676 0.0456256
-0.183557 -0.110615 0.0466877
-0.192059 -0.110585 0.0332805
-0.229489 -0.110524 0.00674927
-0.259165 -0.110494 -0.0172424
-0.14302 -0.110433 0.03301
1.1683 -0.139495 5.52456
1.10065 -0.139012 5.4761
1.19437 -0.138819 5.50824
1.1603 -0.138681 5.47648
1.1394 -0.13856 5.45133
1.17975 -0.138444 5.45681
1.1615 -0.138333 5.43303
1.10126 -0.138269 5.38821
1.12451 -0.138197 5.38516
1.17476 -0.138138 5.39561
1.03688 -0.138093 5.31198
1.15851 -0.138039 5.35814
1.05801 -0.137989 5.29323
1.11256 -0.137974 5.3058
1.21435 -0.137928 5.34205
1.1854 -0.137914 5.31287
1.16923 -0.137881 5.29013
1.18057 -0.137869 5.2811
1.09407 -0.137839 5.2232
1.21175 -0.137822 5.26736
1.19396 -0.137813 5.24377
1.14726 -0.137796 5.20575
1.17107 -0.137788 5.20296
1.10941 -0.13778 5.15744
1.16327 -0.137774 5.16967
1.27302 -0.137762 5.20987
1.12639 -0.137757 5.12186
1.31978 -0.137753 5.20386
1.22601 -0.137749 5.14228
1.19018 -0.137749 5.10965
1.15846 -0.137745 5.0791
1.24635 -0.137746 5.10833
1.29762 -0.137745 5.11926
1.17194 -0.137747 5.0417
1.28125 -0.137747 5.08164
1.23485 -0.137749 5.04373
1.28688 -0.13775 5.05503
1.24469 -0.137752 5.01922
1.21099 -0.137751 4.98766
1.18411 -0.13775 4.95951
1.23523 -0.137749 4.97036
1.262 -0.137748 4.96904
1.26568 -0.137747 4.95618
1.22324 -0.137746 4.92026
1.31649 -0.137745 4.95217
1.35011 -0.137741 4.95429
1.32094 -0.13774 4.925
1.4014 -0.137739 4.95053
1.28524 -0.137743 4.87772
1.37398 -0.137739 4.90741
1.27816 -0.137733 4.84482
1.35313 -0.137732 4.8676
1.35246 -0.137725 4.8526
1.35428 -0.137724 4.83881
1.34729 -0.137718 4.82065
1.34058 -0.137716 4.80259
1.27965 -0.137708 4.75748
1.3577 -0.137699 4.78186
1.38629 -0.137704 4.78141
1.35826 -0.137688 4.75279
1.37477 -0.137677 4.74642
1.34179 -0.137675 4.71525
1.4021 -0.137656 4.73083
1.49954 -0.137643 4.76494
1.40025 -0.137639 4.70063
1.41255 -0.137619 4.69223
1.4262 -0.137604 4.68447
1.36731 -0.137599 4.64037
1.41376 -0.137576 4.64908
1.31399 -0.137558 4.58464
1.47497 -0.137534 4.65063
1.38462 -0.137515 4.59092
1.41578 -0.137502 4.59192
1.46261 -0.137468 4.60093
1.44365 -0.137454 4.57689
1.42128 -0.137403 4.55145
1.47707 -0.137407 4.56464
1.42898 -0.137348 4.52643
1.42637 -0.137333 4.51059
1.44158 -0.137291 4.50391
1.4917 -0.137243 4.51473
1.50537 -0.137229 4.50704
1.52154 -0.13718 4.50092
1.46314 -0.137129 4.45755
1.50414 -0.137113 4.46355
1.50088 -0.13706 4.44778
1.4268 -0.136988 4.3968
1.53451 -0.136932 4.43656
1.49135 -0.136913 4.40055
1.38021 -0.136855 4.33093
1.45629 -0.136797 4.35494
1.49397 -0.136738 4.35978
1.48958 -0.136657 4.3438
1.52821 -0.136595 4.34917
1.51176 -0.136533 4.32701
1.46815 -0.136469 4.2913
1.42972 -0.136382 4.25843
1.48542 -0.136317 4.27243
1.41625 -0.13625 4.22401
1.49325 -0.136159 4.24896
1.49963 -0.136053 4.23878
1.38226 -0.135984 4.16635
1.4857 -0.135889 4.20463
1.49628 -0.135817 4.19622
1.5093 -0.135684 4.18977
1.42168 -0.135609 4.13233
1.48036 -0.135509 4.14837
1.39546 -0.135398 4.09276
1.45032 -0.135295 4.10697
1.3983 -0.135183 4.06787
1.33734 -0.135077 4.02423
1.38692 -0.134963 4.03599
1.44 -0.134855 4.04946
1.4361 -0.134713 4.03489
1.38318 -0.134597 3.9955
1.39648 -0.134486 3.9892
1.42088 -0.134341 3.98889
1.43 -0.134224 3.98062
1.43719 -0.134108 3.97139
1.42194 -0.13396 3.95138
1.44946 -0.133812 3.9528
1.32535 -0.133693 3.87804
1.38308 -0.133544 3.89464
1.32533 -0.133394 3.85353
1.38038 -0.133243 3.86887
1.32546 -0.13315 3.82847
1.37416 -0.132997 3.84072
1.28951 -0.132844 3.78633
1.31336 -0.132666 3.78659
1.45588 -0.132512 3.84586
1.37689 -0.132414 3.79362
1.3462 -0.132235 3.76671
1.27533 -0.13208 3.71942
1.31711 -0.131923 3.72849
1.1985 -0.131783 3.65716
1.23055 -0.131625 3.66147
1.28978 -0.131488 3.67906
1.28343 -0.131352 3.66389
1.30281 -0.131197 3.66191
1.32685 -0.131046 3.66223
1.24729 -0.130912 3.61051
1.28769 -0.130766 3.61899
1.27492 -0.130638 3.60065
1.28485 -0.130491 3.59396
1.19558 -0.13036 3.53746
1.20593 -0.13023 3.53079
1.20749 -0.1301 3.51973
1.27267 -0.129963 3.54065
1.16801 -0.129836 3.4765
1.2051 -0.12971 3.48325
1.2075 -0.129584 3.47265
1.19139 -0.129431 3.4533
1.18573 -0.129305 3.43874
1.20049 -0.129185 3.43433
1.10963 -0.12906 3.37721
1.1286 -0.128936 3.37503
1.11912 -0.128812 3.35863
1.19054 -0.12869 3.38269
1.15979 -0.128568 3.35568
1.22503 -0.128446 3.37668
1.08669 -0.128325 3.29592
1.14665 -0.128205 3.31432
1.14899 -0.128083 3.30396
1.1345 -0.127963 3.28517
1.18618 -0.127844 3.29948
1.19852 -0.127725 3.29413
1.06607 -0.127603 3.2165
1.17881 -0.127485 3.26139
1.04575 -0.127368 3.1834
1.14258 -0.127286 3.21973
1.06992 -0.127128 3.17273
1.11854 -0.127012 3.18563
1.16386 -0.126939 3.19611
1.10913 -0.126815 3.15753
1.12602 -0.1267 3.15461
1.07574 -0.126587 3.11812
1.08177 -0.126462 3.11
1.14312 -0.126349 3.12937
1.13091 -0.126236 3.11196
1.02098 -0.126111 3.04596
1.02885 -0.125999 3.03863
0.985444 -0.125888 3.00567
1.02276 -0.125804 3.01255
1.04689 -0.125651 3.01423
1.10534 -0.125582 3.03141
1.09161 -0.125456 3.01368
1.07568 -0.125346 2.99455
1.00862 -0.125237 2.94987
1.02198 -0.12511 2.94577
1.08809 -0.125001 2.96771
0.989445 -0.124916 2.9068
0.997846 -0.124808 2.89992
1.10854 -0.1247 2.9442
1.01145 -0.124572 2.88503
0.978756 -0.124464 2.85766
0.97545 -0.124336 2.84543
0.944701 -0.124229 2.81908
0.89517 -0.124143 2.78288
1.00023 -0.124036 2.82446
0.909283 -0.123929 2.76806
0.941562 -0.1238 2.77378
0.99118 -0.123694 2.7877
0.968964 -0.123564 2.76622
0.906195 -0.123501 2.72304
1.05334 -0.123372 2.7863
0.954236 -0.123265 2.72594
0.989351 -0.12316 2.73271
0.957053 -0.123029 2.70634
0.898907 -0.122943 2.6661
0.979748 -0.122793 2.69679
0.916698 -0.122731 2.65356
0.909936 -0.122601 2.64008
0.895961 -0.122495 2.62243
0.84116 -0.122364 2.58499
0.919806 -0.122276 2.61329
0.870442 -0.122127 2.57904
0.815898 -0.122039 2.54079
0.842857 -0.121934 2.54372
0.909506 -0.121802 2.56716
0.881673 -0.121696 2.54274
0.811149 -0.121564 2.49765
0.853763 -0.121503 2.50745
0.810409 -0.121325 2.47707
0.87838 -0.121237 2.50025
0.847523 -0.121131 2.47444
0.824056 -0.120998 2.45303
0.823967 -0.120892 2.44266
0.848511 -0.120759 2.44532
0.801434 -0.120625 2.4122
0.831933 -0.120536 2.41679
0.856543 -0.120385 2.41999
0.817215 -0.12025 2.39084
0.839102 -0.120116 2.39233
0.826411 -0.120026 2.37543
0.851301 -0.119875 2.37891
0.837713 -0.11974 2.36276
0.748204 -0.119605 2.30868
0.760926 -0.11947 2.30575
0.79248 -0.119334 2.31226
0.738281 -0.119154 2.27711
0.781831 -0.119018 2.2897
0.717315 -0.118882 2.24828
0.684684 -0.118746 2.22284
0.722892 -0.11861 2.23286
0.709398 -0.118428 2.21825
0.641924 -0.118292 2.1755
0.660578 -0.118082 2.17779
0.618642 -0.117945 2.14788
0.746976 -0.117809 2.20313
0.622099 -0.117553 2.13502
0.724603 -0.117416 2.17744
0.664563 -0.117279 2.13862
0.536182 -0.117068 2.06765
0.627075 -0.116931 2.10437
0.562478 -0.11672 2.06539
0.6057 -0.116582 2.07834
0.542839 -0.116326 2.04158
0.653559 -0.116115 2.09039
0.520594 -0.115977 2.01537
0.580555 -0.115767 2.03888
0.578177 -0.115628 2.02923
0.548874 -0.115418 2.0082
0.547305 -0.115207 2.00107
0.544942 -0.115068 1.99154
0.573313 -0.114853 1.9996
0.467894 -0.114624 1.9412
0.529499 -0.114472 1.96414
0.435042 -0.114295 1.90982
0.441835 -0.114143 1.90541
0.483603 -0.113966 1.91926
0.433521 -0.113816 1.88646
0.427528 -0.113589 1.87796
0.377886 -0.113489 1.84395
0.497165 -0.113264 1.89814
0.393703 -0.113164 1.83727
0.37831 -0.112989 1.82271
0.355101 -0.112841 1.80348
0.313902 -0.112692 1.77528
0.341996 -0.112518 1.78253
0.345623 -0.11242 1.77531
0.312129 -0.112198 1.7533
0.21804 -0.1121 1.69726
0.293264 -0.111953 1.72737
0.240665 -0.111781 1.6944
0.218893 -0.111683 1.67456
0.375806 -0.111538 1.74559
0.237173 -0.111367 1.66966
0.32336 -0.11127 1.70386
0.250407 -0.111174 1.65851
0.249047 -0.111004 1.65127
0.213022 -0.11086 1.62593
0.217879 -0.110764 1.61953
0.248859 -0.110595 1.62853
0.276506 -0.1105 1.63356
0.248457 -0.110358 1.61227
0.219239 -0.110263 1.5889
0.194159 -0.110096 1.56994
0.177679 -0.110001 1.55298
0.226674 -0.109907 1.56876
0.215106 -0.109741 1.55661
0.232718 -0.109648 1.55674
0.240749 -0.109508 1.55361
0.192836 -0.109415 1.521
0.136993 -0.10925 1.48678
0.209417 -0.109158 1.51437
0.115893 -0.109065 1.459
0.127407 -0.108973 1.45616
0.127524 -0.108835 1.44916
0.157033 -0.108719 1.45618
0.124377 -0.108627 1.4313
0.0541919 -0.108536 1.38766
0.0834515 -0.1084 1.39529
0.0357682 -0.108284 1.36377
0.144631 -0.108194 1.4097
0.17322 -0.108103 1.4155
0.0784677 -0.107968 1.36118
0.161745 -0.107879 1.39436
0.0774246 -0.107765 1.34458
0.0721706 -0.107675 1.33352
0.0464691 -0.107586 1.31224
0.0682529 -0.107498 1.31472
0.0267918 -0.107365 1.28711
-0.00603832 -0.107277 1.26231
0.0802775 -0.107164 1.29793
0.118974 -0.107076 1.30891
0.0267287 -0.106989 1.25443
0.0843248 -0.106902 1.27488
-0.0327261 -0.106814 1.20802
-0.033358 -0.106728 1.19937
0.0214298 -0.106617 1.2193
-0.0132409 -0.106487 1.1952
-0.00179258 -0.106401 1.19263
-0.0471504 -0.106315 1.16167
0.0469565 -0.10623 1.20045
0.0350366 -0.106145 1.18623
-0.0233285 -0.106036 1.14965
-0.0744082 -0.105951 1.11586
0.0173101 -0.105866 1.15349
0.0359722 -0.105782 1.1546
-0.0701935 -0.105698 1.0933
-0.0190067 -0.105614 1.11069
-0.0358413 -0.10553 1.09408
-0.0804807 -0.105424 1.06443
-0.0121253 -0.10534 1.09043
-0.0476523 -0.105258 1.0645
-0.0673334 -0.105175 1.0465
-0.04088 -0.105134 1.05003
-0.00578187 -0.105051 1.05944
-0.0583067 -0.104969 1.02504
-0.0430813 -0.104888 1.02453
-0.10695 -0.104783 0.985338
-0.0174897 -0.104702 1.02196
-0.00483949 -0.104621 1.02019
-0.128625 -0.10454 0.950201
-0.00239795 -0.10446 1.00523
-0.0312587 -0.104379 0.98272
-0.0618461 -0.104299 0.959355
-0.0588938 -0.10422 0.952766
0.0187762 -0.10418 0.982009
-0.0699094 -0.104078 0.930486
-0.0397893 -0.103999 0.937506
-0.121168 -0.10392 0.888784
-0.00265994 -0.103841 0.940012
-0.0689419 -0.103763 0.89885
-0.138102 -0.103685 0.856256
-0.0183771 -0.103646 0.90658
-0.113613 -0.103569 0.850961
-0.108907 -0.103491 0.845319
-0.162638 -0.103414 0.810464
-0.152285 -0.103315 0.808532
-0.196833 -0.103239 0.778284
-0.126654 -0.103201 0.803878
-0.0943605 -0.103124 0.812063
-0.12885 -0.103048 0.786861
-0.0596592 -0.102973 0.813505
-0.0955601 -0.102898 0.787607
-0.109901 -0.10286 0.770973
-0.0962094 -0.102785 0.769883
-0.0772594 -0.10271 0.771427
-0.111196 -0.102636 0.746533
-0.171557 -0.10254 0.709312
-0.116505 -0.102503 0.727407
-0.1422 -0.10243 0.706652
-0.14333 -0.102356 0.698183
-0.132996 -0.102283 0.695451
-0.0772293 -0.102247 0.713926
-0.17826 -0.102174 0.65552
-0.145302 -0.102102 0.664113
-0.134146 -0.102029 0.661808
-0.0814195 -0.101993 0.678785
-0.148579 -0.101922 0.637332
-0.155054 -0.10185 0.626224
-0.147214 -0.101779 0.622276
-0.111635 -0.101744 0.630701
-0.192608 -0.101652 0.583248
-0.155434 -0.101581 0.593982
-0.256295 -0.101511 0.535702
-0.130969 -0.101476 0.589023
-0.122531 -0.101406 0.585399
-0.101967 -0.101337 0.587841
-0.153515 -0.101302 0.552739
-0.104926 -0.101233 0.5692
-0.148773 -0.101165 0.539446
-0.133445 -0.101096 0.539281
-0.192072 -0.101062 0.500657
-0.177888 -0.100994 0.499927
-0.182166 -0.100926 0.489967
-0.137659 -0.100893 0.502923
-0.153179 -0.100825 0.487348
-0.156408 -0.100758 0.47792
-0.217846 -0.100725 0.437917
-0.199593 -0.100659 0.439235
-0.188766 -0.100572 0.437752
-0.160626 -0.100539 0.442553
-0.1689 -0.100473 0.430616
-0.251733 -0.100407 0.381401
-0.149491 -0.100375 0.423263
-0.155155 -0.10031 0.412637
-0.21814 -0.100245 0.37335
-0.102808 -0.100213 0.421769
-0.25611 -0.100148 0.337327
-0.224505 -0.100084 0.34534
-0.124372 -0.100053 0.386169
-0.100581 -0.099989 0.390277
-0.279836 -0.0999258 0.292862
-0.133478 -0.0998943 0.356814
-0.207385 -0.0998315 0.312075
-0.167375 -0.0998002 0.322859
-0.248218 -0.0997379 0.274655
-0.244969 -0.0996759 0.268496
-0.183712 -0.099645 0.289912
-0.0540488 -0.0995834 0.346963
-0.145651 -0.0995222 0.293379
-0.212424 -0.0994917 0.250788
-0.230948 -0.0994309 0.233745
-0.169536 -0.0994006 0.255252
-0.160886 -0.0993403 0.251797
-0.184429 -0.0992803 0.232244
-0.191254 -0.0992504 0.21964
-0.252131 -0.0991908 0.18142
-0.20151 -0.0991114 0.199901
-0.192452 -0.0990819 0.195248
-0.145767 -0.0990231 0.21081
-0.151078 -0.0989938 0.198978
-0.230548 -0.0989355 0.151462
-0.252632 -0.0988775 0.132636
-0.189161 -0.0988486 0.155201
-0.226673 -0.0987911 0.128661
-0.280745 -0.0987624 0.0924582
-0.190029 -0.0987053 0.13003
-0.0884766 -0.0986486 0.173018
-0.225581 -0.0986203 0.0953042
-0.201843 -0.098564 0.0993824
-0.149151 -0.098536 0.11657
-0.209648 -0.0984802 0.0785291
-0.168809 -0.0984524 0.0897935
-0.199067 -0.0983971 0.0668694
-0.170187 -0.0983421 0.07351
-0.13796 -0.0983147 0.0804729
-0.13602 -0.0982601 0.07364
-0.205166 -0.098233 0.0299196
-0.149215 -0.0981789 0.0500892
-0.245532 -0.098152 -0.00721509
-0.241909 -0.0980984 -0.013213
1.147 -0.121987 5.54372
1.10986 -0.121518 5.51044
1.09785 -0.121393 5.48966
1.06948 -0.121239 5.46076
1.05935 -0.121133 5.44097
1.05495 -0.121063 5.42405
1.05718 -0.120967 5.41048
1.07355 -0.120914 5.40396
1.11539 -0.120862 5.41019
1.05936 -0.120813 5.36749
1.04389 -0.120766 5.34508
1.13209 -0.120722 5.37451
1.10634 -0.12068 5.34697
1.0999 -0.120668 5.32905
1.07616 -0.12063 5.30252
1.09428 -0.120603 5.29691
1.09867 -0.120594 5.28441
1.12565 -0.120578 5.28322
1.15866 -0.120556 5.28507
1.16238 -0.120549 5.27223
1.12095 -0.12053 5.23685
1.10893 -0.120525 5.21614
1.07437 -0.12052 5.18417
1.13492 -0.120512 5.19976
1.18637 -0.120504 5.21081
1.15976 -0.120499 5.18281
1.25621 -0.120502 5.21631
1.1473 -0.120501 5.14716
1.18194 -0.1205 5.14977
1.24604 -0.1205 5.16711
1.13489 -0.120501 5.09683
1.16466 -0.120505 5.097
1.15701 -0.120509 5.07845
1.17624 -0.120511 5.07334
1.21119 -0.120516 5.07609
1.13207 -0.12052 5.0218
1.25509 -0.120525 5.06858
1.21884 -0.120528 5.03573
1.20262 -0.120531 5.0129
1.11453 -0.120533 4.95413
1.16986 -0.120536 4.96707
1.19874 -0.120539 4.96679
1.21004 -0.120542 4.95771
1.27638 -0.120545 4.97615
1.22479 -0.120548 4.93563
1.2209 -0.120551 4.91895
1.37538 -0.120555 4.98146
1.32507 -0.120558 4.94157
1.34073 -0.120562 4.93466
1.29935 -0.120562 4.89926
1.31062 -0.120565 4.89016
1.34949 -0.120568 4.89486
1.33387 -0.120572 4.87231
1.40547 -0.120568 4.89342
1.35708 -0.120571 4.85449
1.40457 -0.120569 4.86354
1.30808 -0.120572 4.80055
1.38333 -0.120569 4.82349
1.39432 -0.120577 4.8142
1.38121 -0.120571 4.79298
1.36577 -0.120567 4.77057
1.46461 -0.120562 4.80531
1.44807 -0.120564 4.78232
1.35919 -0.120557 4.72322
1.38074 -0.12055 4.71933
1.41432 -0.120543 4.72147
1.34299 -0.120544 4.67109
1.42655 -0.120526 4.69831
1.40101 -0.120517 4.6709
1.39329 -0.120517 4.65234
1.31871 -0.120497 4.60051
1.39712 -0.120486 4.62511
1.36064 -0.120484 4.59218
1.36539 -0.120463 4.58005
1.40746 -0.120449 4.58651
1.51026 -0.120438 4.62332
1.49083 -0.120411 4.59916
1.42447 -0.120399 4.5514
1.45964 -0.120369 4.55457
1.46845 -0.120357 4.54441
1.52328 -0.120325 4.55746
1.46914 -0.120312 4.51584
1.4988 -0.120277 4.51633
1.46798 -0.120249 4.48654
1.4892 -0.120227 4.48271
1.51861 -0.120168 4.48336
1.52696 -0.120153 4.47303
1.51109 -0.120112 4.45088
1.42308 -0.120065 4.39274
1.55854 -0.120033 4.44617
1.49707 -0.120004 4.40111
1.51023 -0.119954 4.39361
1.52093 -0.119886 4.3851
1.52354 -0.119834 4.37237
1.62272 -0.119782 4.40795
1.40485 -0.119728 4.28503
1.46252 -0.119674 4.29991
1.56241 -0.1196 4.33614
1.45451 -0.119543 4.26828
1.52372 -0.119486 4.289
1.51402 -0.119409 4.27054
1.39855 -0.119349 4.19897
1.54883 -0.119289 4.26031
1.47592 -0.119173 4.21078
1.47526 -0.119111 4.19671
1.5186 -0.119048 4.20466
1.4813 -0.118964 4.17259
1.55129 -0.118865 4.19439
1.50347 -0.118778 4.15714
1.47802 -0.118656 4.13157
1.50754 -0.118588 4.13277
1.48748 -0.118465 4.10998
1.422 -0.118396 4.06374
1.48828 -0.11827 4.08419
1.51583 -0.118144 4.08532
1.43164 -0.118073 4.02982
1.46221 -0.117945 4.03253
1.44076 -0.117817 4.00928
1.4323 -0.117688 3.99256
1.43759 -0.117613 3.98194
1.43576 -0.117482 3.96862
1.38419 -0.117351 3.93046
1.43006 -0.11722 3.94107
1.37513 -0.117087 3.90131
1.37119 -0.116981 3.88669
1.32382 -0.116875 3.85038
1.34604 -0.116714 3.84973
1.40858 -0.11658 3.86887
1.36613 -0.116445 3.83556
1.36686 -0.116309 3.82387
1.38459 -0.116173 3.82074
1.33886 -0.116037 3.78591
1.34174 -0.1159 3.77543
1.34461 -0.115791 3.76452
1.26317 -0.115653 3.71196
1.30694 -0.115514 3.72205
1.31929 -0.11535 3.71689
1.17202 -0.115227 3.63125
1.34678 -0.115091 3.7069
1.26107 -0.114951 3.65241
1.2898 -0.114831 3.65483
1.30862 -0.114693 3.65262
1.27329 -0.114558 3.62334
1.22602 -0.114439 3.58782
1.20931 -0.114321 3.5676
1.22264 -0.114197 3.56254
1.2842 -0.114066 3.58175
1.27745 -0.113949 3.56658
1.20677 -0.113823 3.51965
1.17027 -0.113708 3.48962
1.2881 -0.113579 3.53706
1.24985 -0.113464 3.50621
1.1866 -0.11335 3.46288
1.17805 -0.113237 3.44691
1.12458 -0.113124 3.4085
1.12642 -0.113012 3.39776
1.16334 -0.112901 3.40457
1.12602 -0.112791 3.37428
1.19037 -0.112681 3.39483
1.20849 -0.112572 3.39228
1.16607 -0.112433 3.36008
1.10514 -0.112324 3.31806
1.13695 -0.112215 3.32244
1.18958 -0.112142 3.33652
1.14684 -0.112035 3.30363
1.08303 -0.111892 3.26096
1.07039 -0.111786 3.24318
1.13744 -0.111714 3.26454
1.08618 -0.111572 3.22823
1.11726 -0.111466 3.23235
1.15192 -0.111361 3.23828
1.02592 -0.111289 3.16321
1.04845 -0.111149 3.16388
1.02613 -0.111045 3.14137
1.03132 -0.110972 3.13197
1.12433 -0.110833 3.16794
1.10151 -0.110767 3.14444
1.04856 -0.110658 3.10683
0.958332 -0.110519 3.05126
1.02043 -0.110454 3.07026
1.06198 -0.110344 3.07998
1.00015 -0.110244 3.03786
1.06994 -0.110143 3.06155
1.0445 -0.110033 3.03788
1.0047 -0.109933 3.00681
1.00262 -0.109834 2.99462
1.0275 -0.109723 2.9962
0.97549 -0.109624 2.95908
0.978361 -0.109513 2.94971
0.940756 -0.109415 2.91984
0.977772 -0.109341 2.92673
0.985153 -0.109205 2.92027
0.93878 -0.109145 2.88518
0.968064 -0.108996 2.89005
1.08482 -0.108936 2.93656
0.980366 -0.108824 2.87373
0.888604 -0.108727 2.81691
0.980218 -0.108615 2.85217
0.990591 -0.108518 2.84646
0.961617 -0.108443 2.82057
0.895826 -0.108309 2.77774
0.968689 -0.108234 2.80282
0.980789 -0.1081 2.79899
0.976658 -0.108025 2.78562
0.88522 -0.107929 2.72912
0.943074 -0.107815 2.74774
0.848321 -0.10772 2.68963
0.9901 -0.107606 2.75028
0.880345 -0.107511 2.68471
0.910584 -0.107397 2.68965
0.849372 -0.107302 2.64839
0.895062 -0.107187 2.66112
0.939105 -0.107131 2.67153
0.859483 -0.106978 2.62266
0.926778 -0.106901 2.64527
0.928726 -0.106807 2.63571
0.885769 -0.106653 2.60528
0.901642 -0.106597 2.6017
0.784953 -0.106481 2.53345
0.878056 -0.106327 2.57117
0.816919 -0.106271 2.52914
0.840153 -0.106155 2.53094
0.842794 -0.106039 2.52248
0.827557 -0.105944 2.50452
0.957318 -0.105828 2.55968
0.844232 -0.105711 2.49345
0.728414 -0.105617 2.42527
0.824665 -0.1055 2.46377
0.782629 -0.105383 2.43317
0.801908 -0.105266 2.43325
0.751571 -0.105109 2.39966
0.784907 -0.105053 2.40509
0.87245 -0.104936 2.43939
0.837889 -0.104818 2.41268
0.695283 -0.104661 2.33311
0.693709 -0.104543 2.32296
0.725462 -0.104425 2.32951
0.775242 -0.104307 2.34511
0.602875 -0.104149 2.25082
0.652559 -0.10403 2.26644
0.659082 -0.103912 2.26051
0.728648 -0.103793 2.28613
0.66251 -0.103674 2.24394
0.701946 -0.103515 2.25575
0.66809 -0.103396 2.22977
0.647398 -0.103277 2.2104
0.651072 -0.103157 2.20324
0.632547 -0.103038 2.18502
0.636076 -0.102855 2.17977
0.531518 -0.102696 2.11983
0.591051 -0.102576 2.14075
0.616181 -0.102456 2.14451
0.605918 -0.102273 2.13253
0.631712 -0.102153 2.13669
0.597772 -0.102033 2.11101
0.545576 -0.10185 2.0782
0.596232 -0.101689 2.09616
0.530063 -0.101568 2.05448
0.563457 -0.101385 2.06459
0.592668 -0.101264 2.07067
0.511764 -0.101081 2.02372
0.479005 -0.10096 1.99889
0.565909 -0.100777 2.03593
0.414691 -0.100655 1.95195
0.477701 -0.100472 1.97712
0.533679 -0.100342 1.99708
0.555138 -0.100142 2.0021
0.452898 -0.100053 1.94168
0.391426 -0.0998539 1.90529
0.461296 -0.0997209 1.93244
0.355232 -0.0995669 1.87235
0.432444 -0.0994344 1.90322
0.347956 -0.0993463 1.85179
0.376448 -0.0991492 1.86052
0.445537 -0.0990615 1.88592
0.422677 -0.0988652 1.86904
0.380107 -0.0987779 1.83865
0.290879 -0.0986472 1.78643
0.254526 -0.0984956 1.76139
0.33575 -0.0983656 1.79444
0.33148 -0.0982791 1.78328
0.387096 -0.0981284 1.8043
0.349156 -0.0979993 1.77783
0.283931 -0.0979134 1.73624
0.273792 -0.0977637 1.72445
0.202793 -0.0976355 1.68151
0.225172 -0.0975502 1.68378
0.283082 -0.0974016 1.70607
0.288942 -0.0973167 1.70012
0.307627 -0.0971897 1.70209
0.205379 -0.0970421 1.64437
0.21933 -0.0969579 1.64251
0.180567 -0.0968318 1.61582
0.254974 -0.096748 1.64422
0.219836 -0.0966018 1.62013
0.208934 -0.0965184 1.60591
0.146528 -0.0964352 1.56595
0.236394 -0.0963107 1.60366
0.222653 -0.0962073 1.58882
0.196025 -0.0960834 1.56832
0.187873 -0.096001 1.55555
0.174889 -0.0959188 1.54038
0.180641 -0.0957755 1.53687
0.23112 -0.0956937 1.55346
0.207583 -0.0956121 1.53306
-0.0256183 -0.0954901 1.40936
0.167783 -0.095409 1.49746
0.147796 -0.0953079 1.47963
0.139563 -0.0951868 1.46847
0.197995 -0.0951064 1.48912
0.142545 -0.0950261 1.45285
0.111071 -0.094946 1.42857
0.150682 -0.0948063 1.44214
0.103557 -0.0947266 1.41007
0.145247 -0.0946472 1.42242
0.104411 -0.0945679 1.39352
0.122116 -0.0944889 1.3939
0.124013 -0.094351 1.38868
0.0618347 -0.0942724 1.34914
0.0166099 -0.094194 1.3181
0.0809571 -0.0941158 1.34185
0.109115 -0.0940379 1.34751
0.0649348 -0.0939601 1.31702
0.0183319 -0.0938244 1.28763
0.0781822 -0.0937471 1.30918
0.00881172 -0.09367 1.26613
0.0779758 -0.0935931 1.29236
0.072015 -0.0935165 1.28104
-0.0180895 -0.09344 1.22765
0.0213885 -0.0933447 1.23984
0.00447448 -0.0932686 1.22307
-0.0107182 -0.0931927 1.20718
0.0269237 -0.0931171 1.21771
0.0618318 -0.0930416 1.22688
0.0643709 -0.0929664 1.21988
-0.00928598 -0.0928914 1.17479
-0.042395 -0.0927979 1.15076
0.0094807 -0.0927232 1.16846
-0.0660826 -0.0926488 1.12245
-0.0301972 -0.0925746 1.13217
-0.0471306 -0.0925007 1.11549
-0.0248288 -0.0924269 1.11844
-0.0135806 -0.0923534 1.11587
-0.0427715 -0.0922801 1.09309
0.017844 -0.0921887 1.116
-0.0878505 -0.0921158 1.05499
0.0697502 -0.0920431 1.12563
-0.0730622 -0.0919706 1.04608
-0.0700615 -0.0918984 1.03944
-0.0280073 -0.0918264 1.05233
0.0155207 -0.0917546 1.06598
-0.0383403 -0.0916831 1.03093
-0.0406013 -0.0915938 1.02247
-0.000938562 -0.0915227 1.0342
-0.104505 -0.0914518 0.974327
-0.0315774 -0.0914164 1.00117
-0.00996618 -0.0913458 1.0039
-0.10633 -0.0912755 0.947654
-0.0581577 -0.0912054 0.96368
-0.0656028 -0.0911355 0.951905
-0.056961 -0.0910659 0.948179
-0.0793594 -0.090979 0.929715
-0.120534 -0.0909098 0.901099
-0.0312461 -0.0908753 0.936185
-0.00344574 -0.0908064 0.94207
-0.0785646 -0.0907378 0.896501
0.00333107 -0.0906694 0.929446
-0.0953174 -0.0906013 0.872125
-0.0795686 -0.0905334 0.872008
-0.0260423 -0.0904995 0.889255
-0.143242 -0.090432 0.822677
-0.0763659 -0.0903647 0.848143
-0.0753915 -0.0902806 0.84144
-0.153755 -0.0902137 0.7943
-0.16149 -0.0901471 0.782479
-0.0272862 -0.0901139 0.840107
-0.0992207 -0.0900476 0.796199
-0.103189 -0.0899816 0.786278
-0.123509 -0.0899158 0.768187
-0.10191 -0.0898503 0.77106
-0.187765 -0.0898176 0.71869
-0.115904 -0.0897525 0.746705
-0.090456 -0.0896875 0.751517
-0.214061 -0.0896229 0.681808
-0.0621507 -0.0895906 0.748344
-0.077542 -0.0895098 0.733533
-0.198032 -0.0894457 0.665398
-0.149851 -0.0893818 0.681603
-0.11367 -0.08935 0.6903
-0.0653139 -0.0892866 0.706601
-0.101017 -0.0892233 0.680877
-0.136296 -0.0891604 0.655368
-0.212048 -0.089129 0.60812
-0.18159 -0.0890664 0.615489
-0.0640175 -0.089004 0.666418
-0.123433 -0.088942 0.628856
-0.135952 -0.088911 0.613244
-0.0803083 -0.0888493 0.63322
-0.11037 -0.0887878 0.610346
-0.12766 -0.0887572 0.592364
-0.171653 -0.0886801 0.563318
-0.103607 -0.0886193 0.58951
-0.156477 -0.0885587 0.555247
-0.162905 -0.0885285 0.542718
-0.213328 -0.0884683 0.509685
-0.0607437 -0.0884083 0.578158
-0.154092 -0.0883784 0.522181
-0.112841 -0.0883189 0.534994
-0.158477 -0.0882596 0.504364
-0.178283 -0.08823 0.485173
-0.213831 -0.0881711 0.459593
-0.140049 -0.0881124 0.48868
-0.170371 -0.0880832 0.464242
-0.18101 -0.0880249 0.451124
-0.179378 -0.0879669 0.444142
-0.171369 -0.087938 0.438881
-0.167214 -0.0878804 0.433166
-0.148067 -0.087823 0.434947
-0.220854 -0.0877945 0.3893
-0.280332 -0.0877375 0.351773
-0.179775 -0.0876653 0.395062
-0.236969 -0.087637 0.357225
-0.179977 -0.0875807 0.37794
-0.227164 -0.0875247 0.346565
-0.168523 -0.0874967 0.366655
-0.143443 -0.0874411 0.371417
-0.159937 -0.0873857 0.355392
-0.183821 -0.0873581 0.33423
-0.14098 -0.0873031 0.347875
-0.219629 -0.0872484 0.300774
-0.178813 -0.0872211 0.311971
-0.138816 -0.0871668 0.324196
-0.23542 -0.0871397 0.266689
-0.171581 -0.0870858 0.290836
-0.257352 -0.0870321 0.240177
-0.204684 -0.0870054 0.257314
-0.167369 -0.0869522 0.2682
-0.173851 -0.0868992 0.257185
-0.230377 -0.0868728 0.219733
-0.235573 -0.0868202 0.209362
-0.193513 -0.086794 0.221209
-0.122409 -0.0867419 0.248989
-0.0935465 -0.08669 0.255645
-0.26976 -0.0866641 0.158362
-0.178376 -0.0866127 0.196279
-0.239642 -0.086587 0.156474
-0.233619 -0.0865359 0.151711
-0.246517 -0.0864851 0.137484
-0.236206 -0.0864599 0.133473
-0.175527 -0.0864095 0.156034
-0.161259 -0.0863844 0.154006
-0.129607 -0.0863344 0.162053
-0.176939 -0.0862847 0.130604
-0.155107 -0.08626 0.132363
-0.231996 -0.0862107 0.0861336
-0.29586 -0.0861861 0.0450485
-0.238927 -0.0861373 0.0657279
-0.188251 -0.0861129 0.0819164
-0.153888 -0.0860645 0.0913083
-0.255786 -0.0860163 0.0325658
-0.216919 -0.0859923 0.0428532
-0.273341 -0.0859446 0.00684554
-0.23118 -0.0859057 0.0196401
-0.246959 -0.0858583 0.00395322
-0.159835 -0.0858348 0.0383769
-0.144564 -0.0857878 0.0382111
1.10359 -0.10433 5.5518
1.09881 -0.104099 5.53458
1.07365 -0.103991 5.50721
1.0772 -0.103858 5.49423
1.10814 -0.103767 5.49497
1.05307 -0.10368 5.45272
1.12159 -0.103631 5.47226
1.06365 -0.103576 5.42859
1.04695 -0.103532 5.40554
1.06852 -0.103491 5.40164
1.10221 -0.103453 5.4038
1.03193 -0.103417 5.35399
0.989744 -0.103383 5.31823
1.11769 -0.103359 5.36753
1.08756 -0.103344 5.33777
1.1649 -0.103323 5.36177
1.138 -0.10331 5.33364
1.06173 -0.103292 5.28084
1.08068 -0.103277 5.27565
1.14695 -0.103273 5.29409
1.07979 -0.103261 5.24584
1.1404 -0.103259 5.26145
1.09616 -0.103257 5.22463
1.1659 -0.103255 5.2448
1.12647 -0.103249 5.21041
1.14913 -0.103249 5.20703
1.12398 -0.103249 5.17976
1.10474 -0.10325 5.15543
1.16795 -0.103256 5.17231
1.18848 -0.10326 5.16786
1.16716 -0.103262 5.14248
1.15678 -0.103266 5.12258
1.26055 -0.103272 5.15973
1.22522 -0.103276 5.12734
1.17898 -0.103283 5.08948
1.16268 -0.10329 5.06659
1.18857 -0.103296 5.06479
1.18907 -0.103302 5.05031
1.14234 -0.103307 5.01221
1.24727 -0.103312 5.04994
1.23122 -0.10332 5.02715
1.27693 -0.103327 5.03526
1.26129 -0.103328 5.01272
1.26553 -0.10334 5.00006
1.22816 -0.103346 4.96662
1.21114 -0.103352 4.94335
1.29033 -0.103358 4.96819
1.25509 -0.103366 4.9358
1.22568 -0.103364 4.90639
1.27325 -0.103371 4.91541
1.28386 -0.103377 4.90595
1.36488 -0.103383 4.9317
1.25924 -0.10339 4.86411
1.36622 -0.103396 4.90283
1.32791 -0.103399 4.86893
1.37866 -0.103406 4.87953
1.26523 -0.103412 4.80805
1.39932 -0.103418 4.86031
1.28554 -0.103414 4.78874
1.3443 -0.10342 4.80334
1.26679 -0.103426 4.74981
1.30328 -0.103426 4.75332
1.35622 -0.103426 4.76507
1.30916 -0.103431 4.72677
1.37312 -0.103436 4.74397
1.34594 -0.10343 4.71571
1.42294 -0.103428 4.7395
1.46718 -0.103433 4.74685
1.29289 -0.10343 4.64501
1.4427 -0.103433 4.70515
1.25713 -0.103426 4.59771
1.4368 -0.103421 4.67287
1.40488 -0.103416 4.64224
1.48461 -0.103407 4.66747
1.53587 -0.1034 4.67845
1.49624 -0.103393 4.64399
1.498 -0.103394 4.63013
1.42959 -0.103375 4.58142
1.41562 -0.103365 4.55982
1.54558 -0.103355 4.6102
1.54235 -0.103333 4.59412
1.47117 -0.103332 4.54382
1.49725 -0.10331 4.54241
1.53127 -0.103296 4.54487
1.46796 -0.103273 4.49879
1.4624 -0.103257 4.48149
1.5073 -0.103233 4.48954
1.54382 -0.103216 4.49331
1.47836 -0.103177 4.44636
1.48793 -0.103171 4.43654
1.49515 -0.103131 4.42597
1.52484 -0.103104 4.42648
1.44714 -0.103083 4.37323
1.57946 -0.10304 4.42528
1.46582 -0.102997 4.35436
1.46392 -0.102938 4.33954
1.45177 -0.102927 4.31896
1.45858 -0.102881 4.30835
1.52809 -0.102835 4.3291
1.55258 -0.102788 4.32737
1.53241 -0.10274 4.30333
1.51007 -0.102674 4.27847
1.55903 -0.102625 4.28905
1.47745 -0.102524 4.23512
1.50097 -0.102473 4.23304
1.49269 -0.102421 4.21509
1.45619 -0.102368 4.18305
1.54643 -0.102264 4.21518
1.4897 -0.10221 4.17309
1.45055 -0.102105 4.14059
1.51701 -0.10203 4.16045
1.49156 -0.101942 4.13459
1.53216 -0.101866 4.14159
1.5914 -0.101777 4.15814
1.52436 -0.101668 4.1119
1.45527 -0.101588 4.06418
1.43287 -0.101478 4.04034
1.53848 -0.101387 4.0802
1.48165 -0.101276 4.03922
1.49192 -0.101193 4.03135
1.49201 -0.10108 4.01891
1.51902 -0.100967 4.01998
1.39337 -0.100874 3.94438
1.33663 -0.10076 3.90365
1.30822 -0.100645 3.87712
1.39951 -0.10053 3.91048
1.41142 -0.100414 3.9042
1.42441 -0.100298 3.8985
1.465 -0.100182 3.90664
1.46463 -0.100065 3.89434
1.45833 -0.099947 3.87912
1.41283 -0.0998289 3.84434
1.34738 -0.0996876 3.80006
1.39643 -0.099569 3.81264
1.36797 -0.09945 3.7865
1.31765 -0.0993305 3.74948
1.29576 -0.0992106 3.72671
1.2977 -0.0990698 3.7163
1.30258 -0.0989453 3.70708
1.2786 -0.0988087 3.6837
1.38915 -0.0986838 3.7274
1.3293 -0.0985782 3.68554
1.2904 -0.0984436 3.65478
1.2287 -0.0983389 3.61204
1.24443 -0.0982348 3.60804
1.32698 -0.0981163 3.63777
1.25084 -0.0979986 3.58818
1.30133 -0.0978961 3.60162
1.24676 -0.0977901 3.56263
1.30247 -0.0976749 3.579
1.19605 -0.0975623 3.51429
1.2599 -0.0974621 3.53448
1.29781 -0.0973624 3.54171
1.19945 -0.0972519 3.48108
1.27222 -0.097152 3.5058
1.1892 -0.0970527 3.45265
1.15947 -0.0969466 3.42633
1.23128 -0.0968492 3.45061
1.22364 -0.0967524 3.43517
1.20291 -0.0966562 3.41321
1.12182 -0.0965399 3.36155
1.1245 -0.0964434 3.35136
1.17179 -0.0963475 3.36348
1.14701 -0.0962523 3.33959
1.16351 -0.0961605 3.33627
1.18628 -0.0960657 3.33619
1.12877 -0.0959715 3.29599
1.09842 -0.0958779 3.26937
1.08388 -0.095785 3.25067
1.14821 -0.0956925 3.27143
1.18376 -0.0955999 3.27782
1.12157 -0.0955073 3.23536
1.10764 -0.0954152 3.21705
1.14294 -0.0953221 3.22341
1.12756 -0.0952306 3.20442
1.06921 -0.0951396 3.16395
0.982613 -0.0950461 3.10945
1.03392 -0.0949556 3.12385
1.08739 -0.0948656 3.13935
1.0847 -0.0947717 3.12688
1.07002 -0.0946822 3.10834
1.08426 -0.0945932 3.10428
0.940321 -0.0944674 3.0221
1.03719 -0.0944103 3.05857
1.08483 -0.0943157 3.07142
1.10945 -0.0942276 3.07262
1.02996 -0.09414 3.02178
1.01396 -0.094045 3.00291
0.999252 -0.0939578 2.9845
1.04607 -0.0938626 2.99709
0.96309 -0.0937758 2.94459
0.999928 -0.0936895 2.952
0.907547 -0.0935938 2.89508
0.972371 -0.0935079 2.91653
0.975733 -0.0934119 2.90755
0.992823 -0.0933263 2.90517
0.942276 -0.0932301 2.86929
1.00909 -0.0931449 2.89181
1.00623 -0.0930484 2.87984
0.952381 -0.0929635 2.84208
0.965989 -0.0928667 2.8384
0.963725 -0.0927822 2.82646
0.90909 -0.0926851 2.78873
0.86383 -0.0926333 2.7544
0.955349 -0.0925036 2.79073
1.00873 -0.0924386 2.80615
0.968093 -0.092322 2.77609
0.918788 -0.0922569 2.74021
0.884223 -0.0921732 2.71227
0.886803 -0.0920426 2.70432
0.818572 -0.0919918 2.65862
0.832762 -0.0918936 2.65557
0.830829 -0.0917953 2.64449
0.826014 -0.0917119 2.63154
0.910355 -0.0915805 2.66465
0.894486 -0.0915302 2.64522
0.789138 -0.0914314 2.58255
0.886173 -0.0912994 2.62213
0.860323 -0.0912495 2.59775
0.866957 -0.0911503 2.59117
0.814884 -0.0910178 2.5563
0.843468 -0.090968 2.5592
0.841437 -0.0908685 2.54838
0.807215 -0.0907355 2.52255
0.783178 -0.0906689 2.49974
0.872584 -0.090586 2.53419
0.759079 -0.090486 2.46776
0.858269 -0.0903524 2.50879
0.7536 -0.090252 2.44684
0.677772 -0.0902025 2.39769
0.791847 -0.0900685 2.44628
0.731001 -0.0899678 2.40634
0.835363 -0.089867 2.44904
0.775929 -0.0897661 2.40988
0.683581 -0.089665 2.35429
0.748215 -0.0895302 2.37835
0.745112 -0.0894289 2.36746
0.794963 -0.0893792 2.38132
0.684296 -0.0892439 2.31785
0.652509 -0.0891423 2.2927
0.667585 -0.0890406 2.29102
0.667207 -0.0889388 2.28165
0.64635 -0.0888369 2.26207
0.663808 -0.0887009 2.26286
0.667609 -0.0885466 2.25749
0.715133 -0.0884443 2.27221
0.583479 -0.0883419 2.19738
0.654765 -0.0882394 2.22405
0.695561 -0.0881368 2.2355
0.622333 -0.0879999 2.19119
0.612415 -0.0878971 2.17737
0.548411 -0.0877419 2.13839
0.573569 -0.0876389 2.14218
0.471202 -0.0875358 2.08223
0.617493 -0.0874326 2.14664
0.602344 -0.087277 2.13227
0.54615 -0.0871736 2.09551
0.546966 -0.0870356 2.08856
0.484715 -0.0868798 2.05076
0.587674 -0.0867761 2.0937
0.497418 -0.0866723 2.04006
0.534872 -0.0865162 2.05224
0.420415 -0.0864122 1.98657
0.491179 -0.0863081 2.01355
0.476998 -0.0861519 2.00004
0.464525 -0.0860476 1.98547
0.472262 -0.0858802 1.98343
0.404134 -0.0858034 1.94006
0.490141 -0.0856329 1.97735
0.412022 -0.0855182 1.93049
0.355113 -0.0854419 1.8928
0.438602 -0.0852724 1.92891
0.349874 -0.0851964 1.87535
0.359263 -0.0850278 1.87447
0.349139 -0.0849521 1.86025
0.393863 -0.0848389 1.87495
0.401878 -0.084709 1.87199
0.31075 -0.0845963 1.81881
0.404688 -0.0845213 1.8567
0.350476 -0.0844092 1.82201
0.326997 -0.0842803 1.80339
0.295332 -0.0841687 1.78002
0.279103 -0.0840405 1.76507
0.287536 -0.0839665 1.7603
0.290393 -0.0838556 1.75426
0.342304 -0.0837819 1.77127
0.323187 -0.0836549 1.75495
0.160932 -0.0835815 1.66491
0.245699 -0.0834717 1.6999
0.208702 -0.0833987 1.67252
0.237725 -0.0832728 1.68035
0.269989 -0.0831638 1.68914
0.21404 -0.0830913 1.65234
0.231763 -0.083019 1.65239
0.183765 -0.0828944 1.62179
0.225924 -0.0828224 1.63408
0.266535 -0.0827148 1.64714
0.174903 -0.0826432 1.59257
0.250308 -0.0825198 1.62374
0.207306 -0.0824486 1.59352
0.142214 -0.0823775 1.55227
0.192569 -0.0822712 1.57027
0.158984 -0.0821845 1.5455
0.143969 -0.0820787 1.53085
0.152666 -0.0820084 1.52656
0.215708 -0.0819382 1.54945
0.110302 -0.0818683 1.48813
0.140726 -0.0817477 1.49695
0.0947514 -0.0816781 1.46537
0.184142 -0.0816087 1.5015
0.211198 -0.0815394 1.50646
0.100133 -0.0814358 1.44391
0.11668 -0.0813514 1.44434
0.128239 -0.0812826 1.44159
0.156123 -0.0812141 1.44703
0.0619048 -0.0811116 1.39295
0.0670542 -0.0810434 1.38705
0.13317 -0.0809755 1.41163
0.0726583 -0.0808924 1.37361
0.149119 -0.0808247 1.40339
-0.0117404 -0.0807572 1.31453
0.0313919 -0.0806563 1.32921
0.0228739 -0.0805893 1.31654
0.0630642 -0.0805224 1.32823
0.0230156 -0.0804408 1.30051
0.0674168 -0.0803742 1.31434
0.118053 -0.0803078 1.33129
0.0412185 -0.0802417 1.28452
0.0731277 -0.0801756 1.29214
0.0644923 -0.0801098 1.27949
0.0788237 -0.0799968 1.28056
0.0601948 -0.0799313 1.26294
-0.0645394 -0.0798661 1.19227
-0.0227561 -0.0798011 1.20487
0.0124915 -0.0797362 1.21422
0.011797 -0.0796715 1.2056
0.00137257 -0.0796071 1.19213
0.0578516 -0.0795428 1.21212
-0.0297365 -0.0794643 1.16078
0.0892103 -0.0794003 1.21202
0.0306758 -0.0793366 1.17454
-0.0354397 -0.079273 1.13327
-0.0162185 -0.0792096 1.13468
-0.105863 -0.0791464 1.08167
-0.0445665 -0.0790834 1.10413
-0.0549845 -0.0790205 1.09075
-0.00557238 -0.0789439 1.10798
-0.0139015 -0.0788815 1.09566
-0.0808222 -0.0788192 1.05406
-0.0507384 -0.0787881 1.05942
-0.026832 -0.0787261 1.06324
-0.0184549 -0.0786643 1.05931
-0.136622 -0.0786027 0.992114
-0.0870193 -0.0785413 1.00881
-0.0430207 -0.0784801 1.02271
-0.137006 -0.0784055 0.968314
-0.112959 -0.0783447 0.972258
-0.0137549 -0.078284 1.01379
-0.0996743 -0.0782235 0.962763
0.00606508 -0.0781633 1.00758
0.00680016 -0.0781332 0.998354
-0.0647297 -0.0780733 0.954546
-0.0293996 -0.0780135 0.964175
-0.0549308 -0.0779539 0.94338
-0.0867821 -0.0778946 0.919431
-0.0559175 -0.0778223 0.927528
-0.109608 -0.0777633 0.892676
-0.0882362 -0.0777339 0.893827
-0.12819 -0.0776752 0.865856
-0.15428 -0.0776168 0.844824
-0.103002 -0.0775585 0.862481
-0.108376 -0.0775004 0.851818
-0.1598 -0.0774426 0.818136
-0.0313057 -0.0774137 0.872889
-0.103317 -0.0773561 0.828925
-0.124937 -0.0772988 0.810163
-0.136219 -0.077229 0.797251
-0.125304 -0.0771721 0.79477
-0.196371 -0.0771437 0.749777
-0.176258 -0.077087 0.751906
-0.0717881 -0.0770306 0.796218
-0.0984528 -0.0769744 0.774968
-0.125296 -0.0769183 0.753634
-0.134428 -0.0768904 0.739638
-0.0977682 -0.0768347 0.750066
-0.167431 -0.0767792 0.707336
-0.178816 -0.0767239 0.69375
-0.169468 -0.0766964 0.689018
-0.0715128 -0.0766414 0.730112
-0.204716 -0.0765866 0.655631
-0.181719 -0.07652 0.659927
-0.235883 -0.0764928 0.623464
-0.148467 -0.0764385 0.659308
-0.19893 -0.0763845 0.626215
-0.0336092 -0.0763307 0.701018
-0.106566 -0.0763039 0.65518
-0.195429 -0.0762504 0.6029
-0.0516018 -0.0761971 0.666967
-0.175003 -0.0761706 0.595922
-0.168932 -0.0761176 0.59112
-0.245875 -0.0760649 0.544813
-0.115349 -0.0760124 0.602244
-0.191235 -0.0759862 0.554976
-0.184314 -0.075934 0.550612
-0.0727786 -0.0758821 0.598556
-0.142417 -0.0758562 0.554426
-0.161989 -0.0758045 0.536824
-0.162197 -0.0757415 0.52958
-0.125538 -0.0756903 0.5401
-0.176288 -0.0756647 0.505434
-0.227454 -0.0756139 0.472047
-0.209294 -0.0755632 0.473325
-0.154315 -0.075538 0.491537
-0.248403 -0.0754876 0.436696
-0.230824 -0.0754375 0.437691
-0.0731519 -0.0754126 0.507261
-0.170494 -0.0753628 0.4508
-0.292844 -0.0753133 0.381836
-0.181257 -0.0752886 0.428375
-0.142572 -0.0752394 0.439932
-0.142916 -0.0751904 0.431976
-0.19291 -0.075166 0.397736
-0.1048 -0.0751174 0.434011
-0.152729 -0.0750931 0.400811
-0.202195 -0.0750448 0.368302
-0.156099 -0.0749967 0.383573
-0.246841 -0.0749728 0.328977
-0.176963 -0.0749251 0.356143
-0.187267 -0.0748776 0.343217
-0.289926 -0.0748539 0.282672
-0.223178 -0.0748067 0.308275
-0.242387 -0.0747598 0.2909
-0.206218 -0.0747364 0.299777
-0.265057 -0.0746787 0.263274
-0.265162 -0.0746555 0.254023
-0.211074 -0.0746092 0.273302
-0.236869 -0.0745632 0.252639
-0.219478 -0.0745403 0.252143
-0.247771 -0.0744946 0.230232
-0.145843 -0.0744492 0.27343
-0.137743 -0.0744265 0.268297
-0.205613 -0.0743814 0.226597
-0.148091 -0.074359 0.24618
-0.185865 -0.0743142 0.219528
-0.172669 -0.0742697 0.218359
-0.160956 -0.0742476 0.215045
-0.21551 -0.0742034 0.180001
-0.171565 -0.0741814 0.192807
-0.247923 -0.0741376 0.14686
-0.219633 -0.074094 0.153235
-0.186709 -0.0740723 0.160537
-0.246802 -0.0740291 0.122719
-0.178198 -0.0740076 0.147866
-0.284166 -0.0739647 0.0871095
-0.145258 -0.0739221 0.148788
-0.194698 -0.0739008 0.114917
-0.293109 -0.0738586 0.0579341
-0.236152 -0.0738375 0.0772653
-0.214105 -0.0737956 0.0805093
-0.300267 -0.0737747 0.0282848
-0.168339 -0.0737332 0.0864663
-0.213006 -0.0736919 0.0563463
-0.220061 -0.0736713 0.0436792
-0.151348 -0.0736303 0.0702467
-0.224795 -0.0736099 0.024386
-0.0981001 -0.0735693 0.0799409
-0.222267 -0.0735491 0.00872334
-0.217767 -0.0735089 0.0031768
1.16978 -0.0868939 5.61458
1.01105 -0.0867006 5.52034
