ply
format ascii 1.0
comment Created by Open3D
element vertex 1847
property double x
property double y
property double z
end_header
-0.0838043 0.201371 0.28088
-0.0853237 0.201253 0.272119
-0.0868193 0.201136 0.263368
-0.0854108 0.201077 0.254702
-0.0868716 0.20096 0.24597
-0.0883082 0.200844 0.237249
-0.0868732 0.200787 0.228604
-0.0882747 0.200671 0.219901
-0.0896518 0.200557 0.211208
-0.0881901 0.2005 0.202583
-0.0895317 0.200386 0.193909
-0.0908487 0.200273 0.185244
-0.0921409 0.20016 0.17659
-0.0906409 0.200104 0.167993
-0.0918972 0.199993 0.159357
-0.0931285 0.199882 0.15073
-0.0916009 0.199826 0.142153
-0.0927958 0.199716 0.133543
-0.0939656 0.199607 0.124943
-0.0924101 0.199552 0.116385
-0.0935431 0.199444 0.107802
-0.0946508 0.199336 0.0992293
-0.093067 0.199282 0.09069
-0.0941376 0.199175 0.0821333
-0.0951825 0.199068 0.073586
-0.0935701 0.199015 0.0650653
-0.0945776 0.19891 0.0565341
-0.0955593 0.198805 0.0480121
-0.093918 0.198752 0.0395096
-0.0948619 0.198648 0.0310035
-0.0957797 0.198545 0.0225063
-0.0941091 0.198493 0.0140216
-0.0949888 0.198391 0.00553991
0.181111 0.291146 7.00725
0.185869 0.291115 6.9948
0.193231 0.291158 6.98413
0.198026 0.291127 6.9717
0.205001 0.29116 6.96076
0.210346 0.291145 6.94871
0.217465 0.291181 6.93786
0.222828 0.291167 6.92582
0.230088 0.291207 6.91507
0.235003 0.29118 6.90273
0.242418 0.291225 6.89207
0.247378 0.291199 6.87977
0.255375 0.29126 6.86949
0.259952 0.291224 6.85693
0.265387 0.291212 6.84494
0.273122 0.291266 6.83449
0.277787 0.291232 6.82199
0.283251 0.291221 6.81002
0.291168 0.291279 6.79967
0.295922 0.291248 6.78724
0.300709 0.291218 6.77483
0.309513 0.291301 6.76506
0.314357 0.291273 6.75268
0.319234 0.291245 6.74033
0.324143 0.291218 6.72801
0.329085 0.291193 6.71571
0.334349 0.291176 6.70362
0.339627 0.29116 6.69154
0.34809 0.291233 6.68152
0.353155 0.291211 6.6693
0.358502 0.291197 6.65727
0.363622 0.291176 6.64509
0.368776 0.291157 6.63294
0.37023 0.291033 6.61843
0.375447 0.291015 6.60632
0.380894 0.291004 6.59437
0.386166 0.290988 6.5823
0.391472 0.290973 6.57026
0.396812 0.290958 6.55824
0.40234 0.290949 6.54634
0.40403 0.290833 6.53203
0.409456 0.290822 6.52008
0.414917 0.290811 6.50814
0.41686 0.290702 6.49402
0.422375 0.290693 6.48213
0.427924 0.290684 6.47026
0.429885 0.290576 6.45617
0.4355 0.29057 6.44435
0.44121 0.290566 6.43258
0.443306 0.290462 6.4186
0.449012 0.290459 6.40684
0.451225 0.290358 6.39295
0.457015 0.290357 6.38124
0.459337 0.290259 6.36743
0.465164 0.290259 6.35576
0.467587 0.290164 6.34202
0.473444 0.290165 6.33037
0.475978 0.290074 6.31672
0.478693 0.289987 6.30318
0.484572 0.289989 6.29155
0.487395 0.289906 6.27809
0.493292 0.289907 6.26648
0.496257 0.289828 6.25312
0.502172 0.289831 6.24152
0.505174 0.289753 6.22819
0.508397 0.289681 6.215
0.514341 0.289685 6.20343
0.517574 0.289613 6.19026
0.523675 0.289621 6.17878
0.527038 0.289553 6.1657
0.53068 0.289493 6.15278
0.534275 0.289432 6.13985
0.54028 0.289437 6.12832
0.543999 0.28938 6.11547
0.548049 0.289331 6.10281
0.554085 0.289337 6.0913
0.558059 0.289287 6.07861
0.562151 0.28924 6.06599
0.568215 0.289247 6.05451
0.572439 0.289203 6.04197
0.576785 0.289163 6.02951
0.583161 0.289178 6.0182
0.587358 0.289134 6.00566
0.591964 0.289101 5.99335
0.597019 0.289081 5.9813
0.603157 0.28909 5.96986
0.607702 0.289055 5.95753
0.612704 0.289033 5.94546
0.617837 0.289015 5.93346
0.623101 0.289 5.92153
0.62929 0.28901 5.91013
0.634701 0.288999 5.89829
0.640247 0.288992 5.88652
0.645928 0.288989 5.87483
0.652161 0.289 5.86345
0.657554 0.288989 5.8516
0.66351 0.288993 5.84006
0.669604 0.289001 5.8286
0.675364 0.288999 5.81695
0.681726 0.289014 5.80564
0.688228 0.289033 5.79439
0.69454 0.289046 5.78304
0.700683 0.289055 5.7716
0.707471 0.289082 5.76051
0.713864 0.289098 5.7492
0.720925 0.289131 5.73824
0.727569 0.289154 5.72706
0.73451 0.289184 5.71604
0.741295 0.28921 5.70493
0.748792 0.289256 5.69419
0.755801 0.289288 5.6832
0.762992 0.289325 5.67229
0.770527 0.289371 5.66156
0.777976 0.289415 5.65078
0.785717 0.289466 5.64016
0.793183 0.28951 5.62938
0.801316 0.289572 5.61894
0.809161 0.289627 5.60835
0.817004 0.289681 5.59775
0.825673 0.289757 5.58757
0.83377 0.289818 5.57709
0.841989 0.289882 5.56667
0.851066 0.289969 5.55668
0.859537 0.290039 5.54637
0.868128 0.290113 5.53612
0.878288 0.290228 5.52666
0.887997 0.290332 5.51695
0.897052 0.290417 5.5069
0.908055 0.290555 5.49783
0.918253 0.290671 5.48834
0.927759 0.290769 5.47849
0.937379 0.290869 5.46869
0.950248 0.291056 5.4605
0.960188 0.291164 5.45083
0.970238 0.291276 5.44121
0.983908 0.291483 5.43336
0.997056 0.291676 5.42524
1.00759 0.2918 5.41581
1.02218 0.292031 5.40836
1.03617 0.292246 5.40059
1.05047 0.292469 5.39295
1.06601 0.292725 5.3859
1.08089 0.292963 5.3785
1.10075 0.293332 5.37348
1.12015 0.293688 5.36821
1.13696 0.293977 5.36165
1.16226 0.294488 5.35914
1.19243 0.295128 5.35891
1.08193 0.266118 2.85288
1.06483 0.265579 2.83643
1.03658 0.264774 2.81718
1.02242 0.264307 2.80158
1.00547 0.263773 2.78532
0.991329 0.263307 2.76982
0.977189 0.262842 2.75436
0.967237 0.262477 2.73998
0.953111 0.262013 2.7246
0.938993 0.26155 2.70927
0.924886 0.261087 2.69398
0.914999 0.260725 2.67977
0.903392 0.260323 2.66517
0.893507 0.259962 2.65102
0.879426 0.259502 2.63589
0.871954 0.259199 2.6224
0.857869 0.258739 2.60734
0.850343 0.258436 2.5939
0.840507 0.258078 2.57993
0.828678 0.257674 2.56553
0.818857 0.257317 2.55163
0.811234 0.257013 2.53828
0.803583 0.256708 2.52495
0.789489 0.256251 2.51015
0.781787 0.255946 2.49687
0.774057 0.25564 2.48361
0.759953 0.255184 2.46892
0.752174 0.254878 2.45571
0.744368 0.254571 2.44253
0.736535 0.254265 2.42936
0.726727 0.253912 2.41578
0.718854 0.253605 2.40266
0.710954 0.253297 2.38957
0.703027 0.252989 2.37649
0.695074 0.252681 2.36344
0.680909 0.252227 2.34905
0.672911 0.251919 2.33605
0.664888 0.25161 2.32307
0.656838 0.251301 2.31011
0.648764 0.250991 2.29718
0.640663 0.250682 2.28427
0.632538 0.250372 2.27138
0.624387 0.250061 2.25851
0.616212 0.249751 2.24566
0.608011 0.24944 2.23284
0.599786 0.249129 2.22004
0.591537 0.248817 2.20726
0.583263 0.248506 2.1945
0.574965 0.248194 2.18177
0.566644 0.247881 2.16906
0.558298 0.247569 2.15637
0.549929 0.247256 2.14371
0.541536 0.246943 2.13106
0.53312 0.24663 2.11845
0.524681 0.246316 2.10585
0.522237 0.246143 2.09447
0.513743 0.245829 2.08192
0.505225 0.245514 2.06938
0.496686 0.2452 2.05687
0.488124 0.244885 2.04438
0.479539 0.244569 2.03192
0.476951 0.244394 2.02064
0.468312 0.244078 2.00822
0.459653 0.243762 1.99581
0.450971 0.243446 1.98344
0.446801 0.243235 1.97194
0.439471 0.24295 1.95987
0.43045 0.242627 1.9475
0.426073 0.242412 1.93603
0.421702 0.242197 1.92458
0.414329 0.241913 1.91259
0.405395 0.241592 1.90035
0.396484 0.241273 1.88813
0.392171 0.24106 1.87678
0.385006 0.240782 1.86493
0.380727 0.24057 1.85362
0.371907 0.240254 1.84152
0.367649 0.240044 1.83026
0.360683 0.239771 1.81854
0.35646 0.239562 1.80732
0.347736 0.239249 1.79534
0.339037 0.238936 1.78339
0.341258 0.238877 1.77335
0.332608 0.238566 1.76145
0.323983 0.238256 1.74958
0.319843 0.23805 1.7385
0.317733 0.237891 1.72778
0.309184 0.237584 1.71599
0.305091 0.23738 1.70497
0.296586 0.237074 1.69325
0.292519 0.236871 1.68227
0.290599 0.236717 1.67166
0.282174 0.236414 1.66002
0.278155 0.236213 1.64911
0.269775 0.235911 1.63752
0.270148 0.235811 1.62734
0.26406 0.235562 1.61615
0.260102 0.235363 1.60532
0.251823 0.235064 1.59384
0.247893 0.234866 1.58305
0.246332 0.234722 1.57264
0.242437 0.234525 1.56189
0.234261 0.23423 1.55051
0.230395 0.234034 1.53981
0.226541 0.233838 1.52912
0.225169 0.233699 1.51881
0.217099 0.233408 1.50753
0.2133 0.233214 1.49691
0.209512 0.23302 1.4863
0.205736 0.232827 1.47571
0.204556 0.232694 1.4655
0.196615 0.232406 1.45435
0.192896 0.232215 1.44382
0.189189 0.232024 1.4333
0.185494 0.231834 1.42281
0.184508 0.231705 1.4127
0.180851 0.231516 1.40224
0.173066 0.231234 1.39123
0.169442 0.231046 1.38081
0.165832 0.230858 1.37041
0.165043 0.230735 1.3604
0.161472 0.230549 1.35004
0.157914 0.230363 1.33969
0.154369 0.230178 1.32936
0.146766 0.229901 1.31851
0.143257 0.229716 1.30822
0.142693 0.229599 1.29832
0.139224 0.229416 1.28807
0.135769 0.229234 1.27783
0.132328 0.229052 1.2676
0.128901 0.22887 1.2574
0.125488 0.228689 1.24721
0.125139 0.228578 1.23741
0.121767 0.228398 1.22725
0.11841 0.228219 1.21712
0.115067 0.22804 1.20699
0.107792 0.227773 1.19642
0.11158 0.227755 1.18717
0.108294 0.227578 1.1771
0.105024 0.227401 1.16705
0.101768 0.227225 1.15701
0.0946323 0.226962 1.14654
0.0914167 0.226787 1.13654
0.0920932 0.2267 1.12699
0.0921801 0.2266 1.11738
0.0890141 0.226426 1.10742
0.0858637 0.226254 1.09748
0.0788964 0.225995 1.08714
0.0757874 0.225824 1.07724
0.0765077 0.225738 1.06776
0.076816 0.225644 1.05824
0.073758 0.225474 1.04838
0.0707163 0.225304 1.03853
0.0676909 0.225135 1.0287
0.064682 0.224967 1.01889
0.0616897 0.224799 1.00909
0.0622212 0.22471 0.999654
0.0592747 0.224543 0.989886
0.0563451 0.224377 0.980133
0.0534324 0.224212 0.970396
0.0505367 0.224047 0.960674
0.0476582 0.223882 0.950968
0.0447969 0.223718 0.941277
0.045583 0.223636 0.931939
0.0427688 0.223473 0.922277
0.0436135 0.223392 0.912961
0.040824 0.22323 0.903325
0.0380522 0.223069 0.893704
0.0352982 0.222908 0.884098
0.032562 0.222748 0.874507
0.0334386 0.222668 0.865242
0.0309013 0.222512 0.855691
0.0282315 0.222354 0.846143
0.0255799 0.222196 0.836609
0.0229467 0.222039 0.82709
0.020332 0.221882 0.817586
0.0177357 0.221726 0.808097
0.0186723 0.221648 0.798902
0.0199733 0.221578 0.789742
0.0174344 0.221424 0.780289
0.0149143 0.22127 0.770851
0.0124131 0.221116 0.761427
0.00993104 0.220963 0.752017
0.0074681 0.220811 0.742621
0.00846241 0.220735 0.733491
0.00602686 0.220583 0.724119
0.00703264 0.220508 0.715006
0.00521945 0.22037 0.705701
0.00285427 0.220221 0.696368
0.00050874 0.220072 0.687049
0.00155453 0.219997 0.677972
-0.000762804 0.219849 0.668677
-0.00306023 0.219701 0.659395
-0.00533765 0.219554 0.650127
-0.00759497 0.219408 0.640873
-0.00983209 0.219262 0.631631
-0.00460825 0.21928 0.622867
-0.00680467 0.219135 0.613646
-0.00898068 0.218991 0.604438
-0.0111362 0.218847 0.595243
-0.0132711 0.218704 0.586061
-0.0153853 0.218562 0.576892
-0.0142386 0.218491 0.567921
-0.016323 0.218349 0.558774
-0.0183864 0.218208 0.549641
-0.0204288 0.218067 0.54052
-0.0224501 0.217928 0.531412
-0.0212632 0.217858 0.522483
-0.023254 0.217719 0.513397
-0.0209228 0.217674 0.50454
-0.0228595 0.217537 0.495475
-0.021634 0.217468 0.486576
-0.0235396 0.217331 0.477533
-0.0254236 0.217195 0.468502
-0.0272858 0.217059 0.459483
-0.0291262 0.216925 0.450476
-0.0278586 0.216857 0.441618
-0.0296673 0.216723 0.432632
-0.0314539 0.21659 0.423658
-0.0332184 0.216457 0.414696
-0.0349605 0.216325 0.405745
-0.0336497 0.216259 0.396928
-0.0353595 0.216127 0.387997
-0.0370469 0.215997 0.379079
-0.0387116 0.215866 0.370172
-0.0373665 0.215801 0.361385
-0.0389985 0.215672 0.352497
-0.0406075 0.215544 0.343622
-0.0421937 0.215416 0.334757
-0.0437568 0.215288 0.325904
-0.0423665 0.215225 0.317155
-0.0438962 0.215098 0.308321
-0.0454026 0.214972 0.299498
-0.0468856 0.214847 0.290686
-0.0454596 0.214784 0.281966
-0.0469087 0.21466 0.273173
-0.0483342 0.214536 0.26439
-0.049736 0.214413 0.255618
-0.0482736 0.214352 0.246928
-0.049641 0.21423 0.238174
-0.0509844 0.214108 0.229431
-0.0494958 0.214048 0.220761
-0.0508044 0.213927 0.212036
-0.0520889 0.213807 0.203321
-0.0533492 0.213687 0.194617
-0.0518231 0.213628 0.185974
-0.053048 0.21351 0.177287
-0.0542485 0.213392 0.16861
-0.0526954 0.213333 0.159987
-0.0538602 0.213216 0.151327
-0.0550003 0.2131 0.142678
-0.0561156 0.212984 0.134038
-0.0545239 0.212927 0.125441
-0.0556031 0.212812 0.116818
-0.0566572 0.212698 0.108204
-0.0550377 0.212641 0.0996261
-0.0560554 0.212528 0.0910288
-0.0570478 0.212415 0.0824408
-0.0580149 0.212304 0.0738621
-0.0563557 0.212248 0.0653097
-0.0572858 0.212137 0.056747
-0.0581903 0.212027 0.0481933
-0.0613038 0.21187 0.0396397
-0.0621807 0.21176 0.0311058
-0.0630319 0.211651 0.0225807
-0.061321 0.211597 0.014068
-0.0621344 0.211489 0.00555828
0.161203 0.307846 7.00926
0.165934 0.307812 6.99681
0.172932 0.307847 6.98591
0.177169 0.307799 6.97312
0.184833 0.307854 6.96268
0.189127 0.307807 6.94993
0.196402 0.30785 6.93922
0.201255 0.30782 6.92686
0.206121 0.307791 6.91451
0.21308 0.307824 6.90357
0.217991 0.307796 6.89126
0.225563 0.307848 6.88073
0.230071 0.307808 6.86815
0.235042 0.307782 6.85587
0.242778 0.307839 6.84545
0.247375 0.307801 6.83293
0.252005 0.307765 6.82044
0.260305 0.307839 6.81038
0.264992 0.307804 6.79793
0.269712 0.30777 6.7855
0.274824 0.307748 6.77333
0.280307 0.307738 6.76141
0.287731 0.307785 6.75076
0.292904 0.307765 6.73864
0.297769 0.307736 6.72631
0.302667 0.307707 6.71401
0.307598 0.30768 6.70174
0.312851 0.307663 6.68967
0.317837 0.307637 6.67744
0.326264 0.307714 6.66743
0.331578 0.307699 6.6554
0.336656 0.307676 6.64323
0.341768 0.307654 6.63108
0.343492 0.307532 6.61676
0.348667 0.307512 6.60466
0.354082 0.307499 6.59272
0.359313 0.307481 6.58066
0.364579 0.307464 6.56862
0.370054 0.307454 6.55672
0.375376 0.307438 6.54472
0.380732 0.307424 6.53274
0.382736 0.307311 6.51866
0.388291 0.307303 6.50682
0.393736 0.307291 6.49491
0.399215 0.307281 6.48302
0.401392 0.307173 6.46908
0.407029 0.307167 6.45729
0.412598 0.307159 6.44547
0.41492 0.307056 6.43164
0.420617 0.307052 6.4199
0.426276 0.307047 6.40813
0.428746 0.306948 6.39442
0.434473 0.306945 6.3827
0.440254 0.306944 6.37102
0.442875 0.306849 6.35741
0.448693 0.306849 6.34575
0.451424 0.306758 6.33223
0.457272 0.306759 6.3206
0.460154 0.306673 6.30717
0.466048 0.306675 6.29557
0.469038 0.306592 6.28223
0.47497 0.306595 6.27065
0.478088 0.306516 6.2574
0.484058 0.30652 6.24585
0.487306 0.306445 6.23268
0.493316 0.306451 6.22116
0.496696 0.30638 6.20808
0.500314 0.306316 6.19515
0.50626 0.306319 6.1836
0.510035 0.30626 6.17077
0.516156 0.306269 6.15932
0.519767 0.306205 6.14641
0.523831 0.306154 6.13376
0.529828 0.306159 6.12224
0.533854 0.306107 6.10958
0.538214 0.306065 6.09712
0.544243 0.306072 6.08562
0.548535 0.306028 6.07313
0.55482 0.306041 6.06178
0.559009 0.305994 6.04923
0.563828 0.305966 6.03705
0.570179 0.305981 6.02574
0.574612 0.305941 6.01334
0.579446 0.305913 6.00117
0.584722 0.305898 5.98925
0.590846 0.305907 5.97782
0.595637 0.305878 5.96563
0.600877 0.305861 5.9537
0.607374 0.305881 5.94247
0.612413 0.305859 5.93043
0.617934 0.305851 5.91865
0.623592 0.305847 5.90696
0.629386 0.305846 5.89534
0.635593 0.305858 5.88395
0.641538 0.305862 5.87241
0.647623 0.30587 5.86095
0.653847 0.305882 5.84957
0.6601 0.305895 5.8382
0.66602 0.305898 5.82664
0.672527 0.305918 5.81541
0.678693 0.305928 5.80399
0.685471 0.305956 5.7929
0.692277 0.305984 5.78182
0.698712 0.306002 5.77054
0.705268 0.306024 5.75932
0.712478 0.306064 5.74845
0.719286 0.306092 5.73737
0.726752 0.306139 5.72663
0.733689 0.306171 5.7156
0.740792 0.306208 5.70466
0.74823 0.306255 5.6939
0.75559 0.306299 5.68308
0.763224 0.30635 5.67241
0.77061 0.306395 5.66161
0.778653 0.306458 5.65114
0.786391 0.306513 5.64051
0.794153 0.306568 5.62988
0.802704 0.306646 5.61966
0.810719 0.306708 5.60916
0.818856 0.306773 5.59871
0.827815 0.306862 5.58868
0.836203 0.306935 5.57835
0.844711 0.307011 5.56807
0.854778 0.307131 5.55858
0.864368 0.307237 5.54884
0.873339 0.307326 5.53877
0.882428 0.307418 5.52876
0.892412 0.307535 5.51919
0.903749 0.30769 5.51029
0.913284 0.307794 5.50047
0.923746 0.307924 5.4911
0.93588 0.308101 5.48256
0.945845 0.308217 5.47292
0.958537 0.30841 5.46463
0.969657 0.308558 5.45554
0.980031 0.308685 5.44606
0.994331 0.308922 5.43852
1.00808 0.309144 5.43068
1.01892 0.309283 5.42138
1.03744 0.309638 5.41585
1.0521 0.309884 5.40839
1.06797 0.310164 5.4015
1.08317 0.310425 5.39425
1.10346 0.310828 5.38945
1.12325 0.311216 5.38437
1.1486 0.31176 5.38194
1.17882 0.312439 5.3818
1.05298 0.280225 2.77337
1.0244 0.279366 2.75426
1.00717 0.278795 2.73805
0.985773 0.278119 2.72085
0.971401 0.277622 2.70545
0.957026 0.277125 2.69008
0.946884 0.276736 2.6758
0.932516 0.27624 2.66051
0.918152 0.275745 2.64527
0.903795 0.27525 2.63008
0.889447 0.274756 2.61493
0.881878 0.274434 2.60144
0.871787 0.274048 2.58738
0.857447 0.273556 2.57234
0.849806 0.273232 2.55893
0.835459 0.272741 2.54397
0.827766 0.272417 2.5306
0.813416 0.271926 2.51572
0.805671 0.271602 2.5024
0.797897 0.271277 2.48911
0.787842 0.270895 2.47532
0.780026 0.27057 2.46207
0.765664 0.27008 2.44737
0.757798 0.269755 2.43417
0.749905 0.269428 2.421
0.741984 0.269102 2.40785
0.727589 0.268614 2.39328
0.719621 0.268287 2.38018
0.711627 0.267959 2.3671
0.703606 0.267631 2.35404
0.695558 0.267303 2.34101
0.687485 0.266975 2.32799
0.677414 0.266597 2.31457
0.669302 0.266268 2.30161
0.661165 0.265939 2.28867
0.653002 0.26561 2.27575
0.644814 0.26528 2.26285
0.6366 0.26495 2.24997
0.628361 0.264619 2.23712
0.620098 0.264289 2.22429
0.61181 0.263958 2.21148
0.603497 0.263627 2.1987
0.59516 0.263295 2.18594
0.586798 0.262963 2.1732
0.578413 0.262631 2.16048
0.570003 0.262299 2.14779
0.56157 0.261966 2.13511
0.553113 0.261633 2.12247
0.544633 0.2613 2.10984
0.542358 0.261121 2.09848
0.533823 0.260786 2.08589
0.525265 0.260452 2.07333
0.516684 0.260118 2.06079
0.50808 0.259783 2.04827
0.499453 0.259448 2.03578
0.497033 0.259266 2.02451
0.488353 0.258931 2.01206
0.479651 0.258595 1.99963
0.470927 0.258258 1.98722
0.466732 0.258034 1.9757
0.459649 0.257739 1.96365
0.455416 0.257514 1.95216
0.44645 0.257173 1.93981
0.44211 0.256946 1.92834
0.434939 0.25665 1.91638
0.426047 0.256311 1.90412
0.417177 0.255974 1.89189
0.414748 0.255795 1.88085
0.405933 0.255459 1.86869
0.401684 0.255236 1.85736
0.392905 0.254902 1.84525
0.390635 0.254727 1.83432
0.381913 0.254395 1.82227
0.377721 0.254174 1.81103
0.373536 0.253954 1.79982
0.366929 0.253674 1.78821
0.358304 0.253345 1.77627
0.35417 0.253127 1.76512
0.352192 0.252961 1.75436
0.343642 0.252635 1.74251
0.339554 0.252418 1.73143
0.331045 0.252093 1.71963
0.329234 0.251932 1.70897
0.325193 0.251717 1.69795
0.316762 0.251395 1.68623
0.312747 0.251181 1.67526
0.311091 0.251025 1.66469
0.30274 0.250706 1.65305
0.298774 0.250493 1.64214
0.290468 0.250176 1.63056
0.288983 0.250024 1.62008
0.285067 0.249814 1.60923
0.281162 0.249604 1.5984
0.272957 0.24929 1.58692
0.271632 0.249143 1.57653
0.267778 0.248935 1.56576
0.259658 0.248624 1.55436
0.255834 0.248417 1.54363
0.25467 0.248274 1.53332
0.250881 0.248069 1.52263
0.247104 0.247863 1.51196
0.239109 0.247556 1.50069
0.238107 0.247418 1.49046
0.234384 0.247215 1.47985
0.230674 0.247012 1.46925
0.222788 0.246709 1.45808
0.223288 0.246608 1.44812
0.218296 0.246374 1.4374
0.214655 0.246174 1.42688
0.211025 0.245974 1.41638
0.207409 0.245774 1.4059
0.206746 0.245646 1.39584
0.203168 0.245448 1.38539
0.195496 0.245151 1.37441
0.191951 0.244954 1.36401
0.191455 0.244831 1.35402
0.187949 0.244635 1.34365
0.184456 0.24444 1.3333
0.180977 0.244245 1.32296
0.180633 0.244125 1.31304
0.177193 0.243932 1.30274
0.169746 0.243642 1.29194
0.166342 0.24345 1.28168
0.170162 0.243431 1.27234
0.162801 0.243144 1.26161
0.159452 0.242954 1.25139
0.156117 0.242764 1.2412
0.156092 0.242653 1.23142
0.152798 0.242464 1.22125
0.149519 0.242276 1.21111
0.146254 0.242089 1.20098
0.146382 0.241982 1.19126
0.143159 0.241796 1.18116
0.139951 0.24161 1.17108
0.136758 0.241425 1.16101
0.137038 0.241322 1.15136
0.133888 0.241138 1.14132
0.130752 0.240955 1.13131
0.127632 0.240772 1.12131
0.128065 0.240674 1.11171
0.124989 0.240492 1.10174
0.121928 0.240311 1.09179
0.122483 0.240216 1.08223
0.119467 0.240036 1.07231
0.116466 0.239857 1.0624
0.113481 0.239678 1.05251
0.117938 0.239676 1.0434
0.111247 0.23941 1.03315
0.108323 0.239233 1.0233
0.109137 0.239145 1.01385
0.109978 0.239057 1.0044
0.107106 0.238882 0.994592
0.104251 0.238708 0.984802
0.105212 0.238623 0.975393
0.102402 0.23845 0.965631
0.103266 0.238364 0.956231
0.100689 0.238196 0.946515
0.0979427 0.238025 0.936796
0.102725 0.238031 0.927783
0.100016 0.237861 0.918088
0.100924 0.237776 0.908732
0.0985896 0.237615 0.899093
0.0999098 0.23754 0.88979
0.100854 0.237456 0.88046
0.10579 0.237466 0.871481
0.14307 0.324556 7.01245
0.150202 0.324597 7.00167
0.154374 0.324544 6.98885
0.159663 0.324526 6.9768
0.165857 0.324538 6.96537
0.170639 0.324504 6.95298
0.177517 0.324537 6.94201
0.181835 0.324489 6.9293
0.188863 0.324527 6.91844
0.193729 0.324496 6.90611
0.198609 0.324465 6.89379
0.205338 0.324494 6.88272
0.210263 0.324465 6.87044
0.215203 0.324436 6.85816
0.222565 0.324485 6.84752
0.22712 0.324444 6.83499
0.231708 0.324405 6.82249
0.237134 0.324392 6.81054
0.244298 0.324434 6.79976
0.248977 0.324397 6.78732
0.253688 0.324362 6.77491
0.258791 0.324339 6.76276
0.266567 0.3244 6.75237
0.27137 0.324367 6.74003
0.276534 0.324346 6.72792
0.281392 0.324315 6.71562
0.286283 0.324286 6.70334
0.291506 0.324267 6.69127
0.296452 0.324239 6.67903
0.301432 0.324212 6.66682
0.306446 0.324186 6.65463
0.31175 0.32417 6.64263
0.31682 0.324146 6.63048
0.321923 0.324123 6.61835
0.327287 0.324108 6.6064
0.332447 0.324087 6.59431
0.337641 0.324067 6.58225
0.343065 0.324055 6.57033
0.348316 0.324037 6.55831
0.353601 0.32402 6.54631
0.35892 0.324004 6.53434
0.364428 0.323994 6.52248
0.366734 0.323884 6.50862
0.372143 0.323871 6.4967
0.377709 0.323863 6.48489
0.383176 0.323851 6.47302
0.385665 0.323747 6.4593
0.391291 0.323741 6.44753
0.396849 0.323733 6.43572
0.402441 0.323726 6.42393
0.405179 0.32363 6.41039
0.410828 0.323625 6.39864
0.416513 0.32362 6.38691
0.419377 0.323529 6.37347
0.425119 0.323526 6.36178
0.428081 0.323438 6.3484
0.433891 0.323437 6.33676
0.43971 0.323437 6.32513
0.44283 0.323354 6.31187
0.448694 0.323355 6.30026
0.451982 0.323277 6.28711
0.457842 0.323279 6.27551
0.461284 0.323205 6.26246
0.467164 0.323207 6.25088
0.4732 0.323214 6.23938
0.476661 0.323142 6.22636
0.480526 0.323082 6.21358
0.486448 0.323085 6.20202
0.490384 0.323027 6.1893
0.496326 0.323031 6.17775
0.500276 0.322974 6.16504
0.506386 0.322984 6.1536
0.510481 0.322931 6.14098
0.514881 0.322888 6.12854
0.520874 0.322893 6.11704
0.525443 0.322855 6.1047
0.531457 0.322862 6.09321
0.535974 0.322822 6.08085
0.542232 0.322836 6.0695
0.54666 0.322794 6.05709
0.551698 0.32277 6.04504
0.557761 0.322778 6.03358
0.562701 0.322752 6.02148
0.567772 0.322729 6.00945
0.574158 0.322747 5.99817
0.579082 0.32272 5.98606
0.584751 0.322716 5.97438
0.590249 0.322707 5.9626
0.59639 0.322717 5.95118
0.602037 0.322712 5.93948
0.607822 0.322712 5.92786
0.613994 0.322723 5.91646
0.619549 0.322715 5.90471
0.625611 0.322723 5.89324
0.632209 0.322747 5.88208
0.638438 0.32276 5.8707
0.644381 0.322764 5.85917
0.650879 0.322785 5.84794
0.657519 0.322811 5.83678
0.663778 0.322824 5.82542
0.670574 0.322854 5.81434
0.677034 0.322874 5.80309
0.683807 0.322903 5.79199
0.690813 0.322939 5.78103
0.697634 0.32297 5.76996
0.704485 0.323001 5.7589
0.71186 0.323049 5.74812
0.718876 0.323085 5.73715
0.726216 0.323131 5.72634
0.733488 0.323175 5.7155
0.741016 0.323227 5.70478
0.748321 0.323271 5.69394
0.756275 0.323336 5.68345
0.763906 0.32339 5.67277
0.771587 0.323446 5.66212
0.780022 0.323525 5.65186
0.787955 0.323588 5.64133
0.79601 0.323655 5.63085
0.804852 0.323746 5.62078
0.813157 0.32382 5.61042
0.821583 0.323898 5.60012
0.831556 0.324022 5.59061
0.841028 0.324131 5.58083
0.849917 0.324222 5.57074
0.858921 0.324317 5.5607
0.868787 0.324438 5.5511
0.878032 0.324539 5.54116
0.887392 0.324644 5.53128
0.899045 0.324818 5.52255
0.909508 0.324955 5.5132
0.919302 0.325073 5.5035
0.931733 0.325269 5.49512
0.94265 0.325419 5.48596
0.955633 0.325631 5.47782
0.968957 0.325853 5.46983
0.980383 0.326018 5.46087
0.994214 0.326255 5.4531
1.00923 0.326526 5.44589
1.02025 0.326679 5.43668
1.0384 0.327042 5.43097
1.0543 0.327339 5.42412
1.06954 0.327616 5.41692
1.08988 0.328043 5.41219
1.11478 0.328605 5.40964
1.14032 0.329185 5.40734
1.17507 0.330036 5.40946
1.00404 0.293494 2.67792
0.979478 0.292699 2.66013
0.957794 0.291981 2.6431
0.943174 0.291451 2.62783
0.932832 0.291036 2.61362
0.918208 0.290508 2.59842
0.903582 0.28998 2.58327
0.888957 0.289453 2.56816
0.874337 0.288926 2.55309
0.864034 0.288514 2.53908
0.856278 0.288171 2.52569
0.841655 0.287645 2.51074
0.827043 0.287121 2.49583
0.819209 0.286776 2.48252
0.804589 0.286252 2.46768
0.796704 0.285907 2.45442
0.78879 0.285561 2.44119
0.778501 0.285153 2.42744
0.770545 0.284807 2.41425
0.762561 0.284461 2.40108
0.747896 0.283938 2.38646
0.739863 0.283591 2.37334
0.731804 0.283244 2.36024
0.723718 0.282896 2.34717
0.709016 0.282374 2.33268
0.700883 0.282026 2.31966
0.692724 0.281678 2.30666
0.684539 0.281329 2.29369
0.676328 0.28098 2.28073
0.668092 0.28063 2.2678
0.65983 0.28028 2.25489
0.651543 0.27993 2.242
0.647681 0.279696 2.23007
0.639349 0.279345 2.21722
0.630993 0.278994 2.2044
0.622612 0.278643 2.1916
0.614206 0.278291 2.17882
0.605776 0.277939 2.16607
0.597322 0.277586 2.15334
0.588843 0.277234 2.14063
0.580341 0.276881 2.12794
0.571815 0.276527 2.11528
0.563265 0.276174 2.10264
0.554691 0.27582 2.09003
0.546095 0.275466 2.07743
0.537475 0.275111 2.06486
0.535271 0.274925 2.05357
0.526597 0.27457 2.04104
0.517901 0.274214 2.02854
0.513734 0.273977 2.01693
0.504998 0.273621 2.00447
0.502689 0.273433 1.99325
0.493901 0.273076 1.98083
0.485091 0.272719 1.96843
0.476259 0.272362 1.95605
0.473869 0.272173 1.9449
0.464986 0.271815 1.93257
0.456119 0.271458 1.92027
0.453803 0.271271 1.90919
0.444989 0.270916 1.89694
0.436197 0.270562 1.88473
0.434016 0.270379 1.87373
0.429809 0.270144 1.86238
0.421086 0.269792 1.85026
0.419029 0.269614 1.83933
0.410363 0.269264 1.82726
0.406211 0.269031 1.81601
0.402067 0.268799 1.80477
0.395685 0.26851 1.79317
0.387114 0.268164 1.78121
0.383021 0.267934 1.77004
0.381251 0.267764 1.75929
0.372754 0.26742 1.74741
0.364284 0.267078 1.73557
0.367064 0.267026 1.72563
0.358644 0.266686 1.71383
0.35025 0.266346 1.70207
0.353128 0.266297 1.69218
0.344786 0.265959 1.68047
0.336471 0.265623 1.66878
0.339448 0.265577 1.65894
0.331185 0.265242 1.64731
0.327282 0.265019 1.63639
0.323388 0.264797 1.6255
0.317845 0.264533 1.61436
0.313991 0.264312 1.6035
0.310148 0.264092 1.59267
0.304767 0.263833 1.58161
0.300965 0.263614 1.57082
0.299968 0.263467 1.56047
0.296201 0.26325 1.54971
0.288207 0.262924 1.53834
0.2887 0.262816 1.52825
0.283626 0.262566 1.51735
0.279925 0.262351 1.50667
0.279173 0.262211 1.49644
0.275507 0.261998 1.48579
0.267676 0.261678 1.47457
0.271216 0.261648 1.46499
0.263444 0.261331 1.45381
0.262911 0.261197 1.44367
0.259338 0.260987 1.43312
0.255777 0.260777 1.42259
0.255358 0.260647 1.4125
0.251835 0.260439 1.40201
0.251503 0.260311 1.39196
0.248018 0.260104 1.38149
0.244546 0.259897 1.37104
0.244326 0.259773 1.36105
0.240892 0.259568 1.35063
0.240757 0.259446 1.34067
0.240679 0.259326 1.33072
0.237311 0.259123 1.32035
0.237315 0.259005 1.31044
0.237372 0.258888 1.30053
0.241452 0.258874 1.29115
0.245558 0.25886 1.28177
0.134159 0.341337 7.00629
0.1404 0.341351 6.99491
0.144564 0.341295 6.9821
0.151503 0.341332 6.9712
0.155724 0.341278 6.95843
0.160499 0.341243 6.94604
0.167067 0.341267 6.93488
0.171378 0.341216 6.92219
0.176708 0.3412 6.91019
0.18296 0.341214 6.89881
0.187361 0.341166 6.88619
0.192721 0.34115 6.87421
0.199182 0.341171 6.86298
0.203674 0.341127 6.85042
0.208629 0.341097 6.83818
0.215733 0.34114 6.82738
0.220316 0.341098 6.81489
0.225332 0.341071 6.80269
0.229968 0.341032 6.79025
0.237287 0.341081 6.77958
0.242364 0.341056 6.76743
0.247093 0.34102 6.75505
0.251855 0.340984 6.7427
0.25699 0.340961 6.73059
0.261807 0.340928 6.71828
0.267304 0.340917 6.70641
0.274598 0.340966 6.69572
0.279508 0.340935 6.68347
0.284452 0.340906 6.67125
0.289708 0.340887 6.65923
0.294708 0.34086 6.64705
0.299743 0.340834 6.63489
0.305059 0.340817 6.62292
0.31015 0.340793 6.6108
0.315275 0.34077 6.59871
0.320651 0.340755 6.58678
0.325833 0.340734 6.57473
0.33105 0.340714 6.5627
0.333521 0.340603 6.54894
0.338979 0.340592 6.53707
0.344285 0.340575 6.5251
0.349625 0.340559 6.51317
0.355145 0.340549 6.50134
0.360544 0.340535 6.48944
0.363257 0.340433 6.47586
0.368837 0.340425 6.46408
0.374327 0.340415 6.45224
0.379945 0.340408 6.44049
0.385494 0.3404 6.42869
0.388424 0.340305 6.41527
0.394103 0.340301 6.40356
0.399745 0.340295 6.39183
0.402839 0.340206 6.37853
0.40858 0.340204 6.36686
0.414315 0.340201 6.35519
0.417577 0.340118 6.34201
0.423381 0.340117 6.33038
0.429194 0.340118 6.31876
0.432603 0.340039 6.30568
0.438453 0.340041 6.29409
0.442038 0.339968 6.28113
0.447936 0.339971 6.26957
0.451698 0.339904 6.25672
0.457573 0.339907 6.24515
0.463527 0.339911 6.23362
0.467392 0.339848 6.22085
0.473486 0.339858 6.20941
0.477396 0.339796 6.19667
0.48355 0.339807 6.18526
0.487586 0.33975 6.17261
0.493803 0.339763 6.16124
0.497966 0.33971 6.14867
0.504245 0.339726 6.13734
0.508538 0.339677 6.12485
0.513308 0.339643 6.11264
0.519303 0.339649 6.10114
0.524247 0.339622 6.08904
0.53048 0.339636 6.07768
0.535155 0.339599 6.06542
0.54042 0.339582 6.05351
0.54647 0.33959 6.04205
0.551651 0.33957 6.03009
0.557986 0.339587 6.01879
0.563045 0.339563 6.00676
0.568803 0.339562 5.99513
0.574416 0.339556 5.98342
0.58053 0.339566 5.97199
0.586293 0.339564 5.96037
0.592193 0.339568 5.94882
0.598339 0.339579 5.93741
0.604392 0.339587 5.92594
0.610585 0.339599 5.91456
0.616762 0.339611 5.90316
0.62311 0.339629 5.89186
0.629598 0.33965 5.88063
0.636218 0.339677 5.86947
0.642452 0.33969 5.8581
0.648806 0.339708 5.8468
0.655723 0.339743 5.8358
0.662427 0.339772 5.82468
0.669515 0.339813 5.81377
0.676265 0.339843 5.80267
0.683142 0.339877 5.79163
0.690314 0.33992 5.78076
0.697244 0.339956 5.76975
0.704597 0.340005 5.75896
0.711671 0.340045 5.74802
0.719281 0.340102 5.73736
0.726735 0.340154 5.72662
0.734183 0.340206 5.71587
0.742329 0.34028 5.70548
0.749307 0.340317 5.69447
0.757851 0.340403 5.68428
0.766403 0.34049 5.67409
0.773452 0.340529 5.6631
0.782668 0.340636 5.65325
0.790981 0.340715 5.64291
0.798743 0.340776 5.63228
0.807206 0.340859 5.62201
0.817303 0.340994 5.61257
0.826784 0.341109 5.60281
0.835706 0.341207 5.59275
0.845453 0.34133 5.58311
0.854615 0.341435 5.57315
0.863891 0.341543 5.56325
0.87545 0.341723 5.5545
0.885794 0.341864 5.54512
0.895504 0.341986 5.5354
0.907841 0.342189 5.52701
0.918639 0.342344 5.51781
0.928763 0.342478 5.50827
0.941837 0.342705 5.5002
0.956066 0.342967 5.49268
0.966658 0.343115 5.48333
0.980565 0.343366 5.47562
0.995627 0.343654 5.46845
1.00665 0.343815 5.45926
1.02579 0.344229 5.45408
1.04083 0.344515 5.44683
1.06089 0.344957 5.44203
1.0765 0.34526 5.43501
1.10147 0.345853 5.43255
1.12704 0.346466 5.43032
1.18921 0.348216 5.44586
0.957178 0.30645 2.57254
0.935152 0.305687 2.5557
0.917486 0.305048 2.53993
0.89552 0.304289 2.52321
0.880627 0.303728 2.50818
0.86573 0.303168 2.49319
0.855193 0.302729 2.47924
0.84727 0.302364 2.46592
0.832353 0.301805 2.45104
0.817442 0.301246 2.43621
0.80944 0.30088 2.42297
0.794512 0.300321 2.40821
0.786458 0.299955 2.39502
0.775919 0.299519 2.38131
0.767822 0.299152 2.36817
0.759698 0.298785 2.35505
0.744731 0.298228 2.34046
0.736558 0.297859 2.3274
0.728358 0.297491 2.31435
0.720132 0.297122 2.30133
0.711879 0.296753 2.28833
0.696846 0.296196 2.27391
0.688547 0.295826 2.26096
0.680222 0.295456 2.24804
0.671872 0.295086 2.23514
0.66797 0.294839 2.22319
0.659576 0.294468 2.21033
0.651156 0.294096 2.19749
0.642711 0.293724 2.18467
0.634242 0.293352 2.17188
0.625747 0.29298 2.15911
0.617229 0.292607 2.14637
0.608686 0.292234 2.13364
0.600119 0.291861 2.12094
0.591528 0.291487 2.10827
0.582913 0.291113 2.09561
0.574274 0.290739 2.08298
0.572274 0.290547 2.07168
0.563582 0.290172 2.05909
0.559426 0.289922 2.04741
0.550693 0.289546 2.03486
0.541937 0.28917 2.02234
0.539831 0.288977 2.01111
0.531023 0.288601 1.99863
0.522192 0.288224 1.98617
0.513339 0.287846 1.97373
0.511149 0.287652 1.96257
0.502246 0.287274 1.95017
0.497932 0.287022 1.93865
0.491077 0.2867 1.92669
0.482303 0.286327 1.91439
0.482644 0.286203 1.90378
0.476062 0.28589 1.89193
0.467355 0.285519 1.87972
0.46542 0.285333 1.86874
0.456768 0.284964 1.85659
0.454932 0.284782 1.84567
0.446337 0.284415 1.83358
0.442238 0.284171 1.82229
0.440522 0.283993 1.81144
0.431997 0.283629 1.79943
0.430379 0.283453 1.78863
0.421914 0.283092 1.77667
0.420394 0.282919 1.76592
0.416397 0.28268 1.75477
0.408006 0.282321 1.74289
0.406606 0.282152 1.73221
0.402655 0.281915 1.72112
0.40134 0.281748 1.71047
0.393061 0.281394 1.6987
0.391843 0.281231 1.68811
0.387962 0.280996 1.6771
0.386826 0.280835 1.66654
0.382978 0.280602 1.65557
0.377621 0.280327 1.64437
0.380929 0.280287 1.63456
0.372854 0.27994 1.62297
0.371951 0.279787 1.61251
0.371103 0.279635 1.60208
0.374552 0.279599 1.59232
0.373796 0.27945 1.58193
0.37309 0.279303 1.57155
0.380854 0.279383 1.56245
0.126545 0.358135 7.00103
0.131873 0.358117 6.98903
0.136583 0.358078 6.97661
0.142636 0.358086 6.96511
0.146851 0.358029 6.95235
0.153065 0.358043 6.94096
0.157859 0.358006 6.9286
0.162163 0.357953 6.91592
0.169053 0.35799 6.90499
0.173416 0.357939 6.89235
0.177811 0.357888 6.87973
0.184854 0.357931 6.86891
0.189307 0.357883 6.85634
0.193794 0.357836 6.84379
0.198744 0.357805 6.83156
0.205534 0.357839 6.82056
0.210112 0.357796 6.80809
0.215123 0.357767 6.7959
0.219756 0.357726 6.78347
0.225188 0.357712 6.77157
0.231838 0.357741 6.76047
0.236563 0.357703 6.74811
0.241672 0.357678 6.736
0.246453 0.357642 6.72368
0.251268 0.357607 6.71138
0.256437 0.357584 6.69931
0.261308 0.357551 6.68706
0.266818 0.35754 6.67522
0.273891 0.357584 6.6644
0.278856 0.357554 6.65221
0.283855 0.357526 6.64004
0.289146 0.357507 6.62807
0.294202 0.357481 6.61594
0.299531 0.357464 6.604
0.304645 0.357439 6.59191
0.309792 0.357416 6.57985
0.312711 0.357316 6.56638
0.317914 0.357295 6.55436
0.323152 0.357275 6.54236
0.328601 0.357262 6.53051
0.333897 0.357244 6.51855
0.339228 0.357228 6.50662
0.344739 0.357217 6.49481
0.350129 0.357203 6.48292
0.353143 0.357106 6.46954
0.358715 0.357098 6.45777
0.364197 0.357086 6.44594
0.369808 0.35708 6.4342
0.373012 0.35699 6.42096
0.378587 0.356982 6.4092
0.38426 0.356977 6.3975
0.389894 0.356971 6.38577
0.393303 0.356889 6.37268
0.399039 0.356886 6.36102
0.404768 0.356884 6.34936
0.408361 0.356808 6.3364
0.41415 0.356807 6.32478
0.419958 0.356807 6.31316
0.423694 0.356736 6.3003
0.42954 0.356738 6.28871
0.435437 0.356741 6.27716
0.439306 0.356675 6.26439
0.445263 0.35668 6.25287
0.449324 0.35662 6.24022
0.455275 0.356625 6.2287
0.459577 0.356574 6.2162
0.465476 0.356578 6.20466
0.469948 0.356532 6.19227
0.475867 0.356536 6.18073
0.480512 0.356497 6.16845
0.486452 0.356502 6.15692
0.491271 0.356468 6.14475
0.497231 0.356474 6.13324
0.502227 0.356446 6.12117
0.508207 0.356452 6.10967
0.513381 0.356431 6.09771
0.519383 0.356438 6.08622
0.524517 0.356415 6.07424
0.530016 0.356405 6.06247
0.536052 0.356413 6.051
0.541734 0.356409 6.03934
0.547792 0.356418 6.02788
0.553383 0.356411 6.01616
0.559111 0.356409 6.00452
0.565199 0.356418 5.99309
0.571078 0.356421 5.98153
0.577494 0.356442 5.97028
0.583216 0.356439 5.95864
0.589387 0.356452 5.94724
0.595866 0.356474 5.93602
0.602205 0.356492 5.92472
0.608317 0.356503 5.91329
0.615236 0.35654 5.90231
0.621495 0.356556 5.89096
0.627874 0.356575 5.87968
0.634781 0.356612 5.86868
0.641416 0.35664 5.85753
0.648063 0.356668 5.84639
0.655174 0.356712 5.8355
0.661971 0.356745 5.82443
0.669051 0.356788 5.81351
0.676097 0.356829 5.80258
0.683347 0.356878 5.79175
0.690137 0.35691 5.78066
0.697661 0.356968 5.76997
0.705009 0.357019 5.75918
0.712377 0.357071 5.7484
0.720408 0.357145 5.73797
0.728028 0.357205 5.72731
0.735769 0.357269 5.71671
0.744204 0.357356 5.70647
0.752196 0.357429 5.696
0.760307 0.357505 5.68558
0.769146 0.357605 5.67553
0.777505 0.35769 5.66523
0.785983 0.357778 5.65498
0.795219 0.357891 5.64512
0.803942 0.357987 5.63499
0.812781 0.358087 5.62491
0.822409 0.358213 5.61522
0.831488 0.35832 5.60525
0.840681 0.358431 5.59532
0.852147 0.358618 5.58656
0.862372 0.358762 5.57714
0.871999 0.358888 5.5674
0.881733 0.359016 5.55771
0.894921 0.359258 5.54977
0.904962 0.359397 5.54021
0.915106 0.359538 5.53069
0.929053 0.359805 5.52308
0.939486 0.359955 5.51367
0.953156 0.360212 5.50589
0.967954 0.360506 5.49864
0.978823 0.36067 5.48941
0.997643 0.361095 5.48413
1.01248 0.361389 5.47684
1.02843 0.36172 5.47007
1.04768 0.362158 5.46491
1.06826 0.362639 5.46037
1.09344 0.36327 5.45805
1.11393 0.363748 5.45338
0.877163 0.317752 2.42665
0.859225 0.317077 2.41118
0.843995 0.316482 2.39635
0.828755 0.315887 2.38157
0.813509 0.315293 2.36682
0.798257 0.314699 2.35212
0.794486 0.31444 2.33995
0.779213 0.313846 2.32532
0.770948 0.313457 2.31224
0.755654 0.312864 2.29768
0.747339 0.312474 2.28464
0.738997 0.312084 2.27164
0.730629 0.311693 2.25865
0.715272 0.3111 2.24422
0.706856 0.310709 2.23129
0.702915 0.310448 2.21931
0.694453 0.310056 2.20642
0.685967 0.309664 2.19355
0.677455 0.309272 2.18071
0.668917 0.308879 2.16788
0.660355 0.308486 2.15508
0.651768 0.308092 2.14231
0.643157 0.307698 2.12955
0.63452 0.307304 2.11683
0.62586 0.306909 2.10412
0.621736 0.306646 2.09233
0.613034 0.306251 2.07967
0.604307 0.305855 2.06703
0.602459 0.305659 2.05575
0.59368 0.305262 2.04315
0.584878 0.304866 2.03058
0.576053 0.304469 2.01802
0.574118 0.304271 2.00681
0.565242 0.303873 1.9943
0.556342 0.303475 1.98181
0.55435 0.303276 1.97064
0.55003 0.30301 1.95905
0.545697 0.302744 1.94747
0.539023 0.302411 1.93549
0.536981 0.302211 1.92438
0.527939 0.301811 1.91201
0.525867 0.301611 1.90092
0.521764 0.301353 1.88949
0.515562 0.301035 1.8777
0.513917 0.300848 1.86674
0.512327 0.300662 1.8558
0.508299 0.300407 1.84445
0.506784 0.300224 1.83356
0.505322 0.300043 1.82268
0.503911 0.299863 1.81183
0.506958 0.299811 1.80176
0.512652 0.299834 1.79214
0.115899 0.37501 7.00935
0.119996 0.374946 6.9965
0.125252 0.374925 6.98446
0.130369 0.374899 6.97233
0.135097 0.374859 6.95993
0.140378 0.374839 6.94791
0.145176 0.374801 6.93557
0.149964 0.374763 6.92322
0.155986 0.37477 6.91171
0.160813 0.374733 6.8994
0.165171 0.374679 6.88676
0.171852 0.374711 6.87571
0.176268 0.374659 6.86312
0.180717 0.374609 6.85056
0.18564 0.374576 6.83832
0.192062 0.374598 6.82708
0.196603 0.374551 6.81459
0.201587 0.374521 6.8024
0.206184 0.374476 6.78995
0.211601 0.374461 6.77806
0.217875 0.374478 6.76673
0.222564 0.374437 6.75435
0.227648 0.37441 6.74223
0.232393 0.374371 6.7299
0.237172 0.374333 6.71759
0.242315 0.374308 6.70552
0.247151 0.374273 6.69325
0.252646 0.374261 6.68141
0.259349 0.374293 6.67037
0.264279 0.374261 6.65817
0.269523 0.37424 6.64617
0.27451 0.37421 6.63401
0.279531 0.374181 6.62187
0.284836 0.374163 6.60992
0.289915 0.374136 6.59783
0.295258 0.374119 6.58591
0.300395 0.374095 6.57386
0.303419 0.373994 6.56046
0.308821 0.373979 6.54858
0.314049 0.373958 6.5366
0.319312 0.373938 6.52463
0.324777 0.373926 6.5128
0.330099 0.373908 6.50088
0.335602 0.373897 6.48907
0.340983 0.373882 6.47719
0.344319 0.373792 6.46403
0.349884 0.373784 6.45226
0.355358 0.373772 6.44045
0.360963 0.373764 6.42871
0.366497 0.373755 6.41693
0.370063 0.373674 6.40394
0.37573 0.373669 6.39224
0.381359 0.373663 6.38053
0.387066 0.373659 6.36886
0.390832 0.373586 6.356
0.396556 0.373583 6.34435
0.402327 0.373582 6.33272
0.406274 0.373515 6.31999
0.412078 0.373515 6.30839
0.417896 0.373516 6.2968
0.422002 0.373455 6.28417
0.42786 0.373457 6.2726
0.433778 0.373461 6.26107
0.438013 0.373405 6.24853
0.443993 0.373412 6.23704
0.448435 0.373363 6.22463
0.454399 0.373369 6.21313
0.459095 0.37333 6.20087
0.465 0.373333 6.18934
0.469871 0.3733 6.17719
0.475796 0.373305 6.16567
0.480845 0.373278 6.15363
0.486791 0.373283 6.14212
0.492019 0.373263 6.13019
0.497986 0.373269 6.1187
0.503394 0.373255 6.10687
0.509382 0.373262 6.09539
0.514972 0.373255 6.08367
0.520981 0.373262 6.0722
0.526526 0.373253 6.06046
0.532786 0.37327 6.04913
0.538247 0.373258 6.03734
0.544339 0.373268 6.02591
0.550401 0.373277 6.01446
0.556398 0.373284 6.00298
0.562764 0.373305 5.99171
0.568928 0.373317 5.98032
0.575232 0.373335 5.969
0.581669 0.373358 5.95777
0.587806 0.37337 5.94636
0.594406 0.373398 5.93521
0.600907 0.373423 5.924
0.60731 0.373444 5.91273
0.614209 0.373482 5.90174
0.620774 0.373509 5.89056
0.627445 0.37354 5.87944
0.634363 0.373579 5.86845
0.641274 0.373618 5.85746
0.648157 0.373656 5.84644
0.655025 0.373693 5.83542
0.66241 0.373749 5.82467
0.669187 0.373783 5.81359
0.6768 0.373846 5.80296
0.684069 0.373897 5.79214
0.691459 0.373952 5.78138
0.699476 0.37403 5.77095
0.707117 0.374094 5.76032
0.713974 0.37413 5.74926
0.722294 0.374218 5.73898
0.730205 0.374291 5.72847
0.738235 0.374368 5.71802
0.746957 0.374469 5.70794
0.755235 0.374555 5.69761
0.763631 0.374645 5.68733
0.77275 0.37476 5.67743
0.78139 0.374858 5.66727
0.790147 0.37496 5.65717
0.799657 0.375088 5.64745
0.808653 0.375198 5.63745
0.817763 0.375311 5.6275
0.829137 0.375504 5.61871
0.839243 0.375652 5.60926
0.848786 0.37578 5.5995
0.858438 0.375912 5.58979
0.871497 0.376162 5.58182
0.881454 0.376304 5.57224
0.891515 0.37645 5.56271
0.905334 0.376726 5.55507
0.915683 0.376881 5.54565
0.929261 0.377147 5.53786
0.940659 0.377338 5.52894
0.954717 0.377621 5.52135
0.96987 0.377941 5.51429
0.984498 0.378242 5.50694
1.00315 0.378682 5.50157
1.01535 0.3789 5.49296
1.03954 0.379529 5.49029
1.05529 0.379867 5.48339
1.08051 0.380531 5.48114
1.11931 0.38166 5.48555
0.11012 0.391832 7.00534
0.115954 0.391833 6.99371
0.12007 0.391767 6.98089
0.124773 0.391723 6.96848
0.130214 0.391709 6.95658
0.134421 0.391646 6.94383
0.13971 0.391626 6.93183
0.144815 0.391598 6.91971
0.149616 0.391559 6.90738
0.153936 0.391501 6.89473
0.159758 0.391502 6.8831
0.16462 0.391465 6.87082
0.169032 0.391411 6.85824
0.174387 0.391393 6.8463
0.179967 0.391384 6.83451
0.184472 0.391334 6.822
0.189431 0.391301 6.8098
0.194405 0.391269 6.79761
0.200657 0.391285 6.78628
0.205277 0.39124 6.77386
0.20993 0.391195 6.76146
0.214988 0.391166 6.74934
0.219698 0.391124 6.73699
0.224794 0.391097 6.7249
0.229904 0.39107 6.71282
0.236139 0.391086 6.70147
0.241297 0.391061 6.68943
0.246158 0.391025 6.67719
0.251354 0.391002 6.66517
0.256272 0.390968 6.65297
0.261225 0.390935 6.6408
0.266482 0.390914 6.62883
0.271493 0.390884 6.6167
0.276789 0.390864 6.60475
0.281858 0.390836 6.59266
0.286961 0.39081 6.5806
0.292319 0.390793 6.5687
0.297481 0.390768 6.55668
0.302878 0.390753 6.54481
0.308099 0.39073 6.53282
0.311542 0.390641 6.51972
0.317 0.390628 6.50789
0.322313 0.390609 6.49598
0.32781 0.390598 6.48418
0.333183 0.390581 6.4723
0.338593 0.390566 6.46045
0.344153 0.390557 6.44869
0.347885 0.390479 6.4358
0.353484 0.390472 6.42407
0.359011 0.390461 6.4123
0.364575 0.390452 6.40055
0.368585 0.390385 6.38784
0.374209 0.390378 6.37613
0.379911 0.390374 6.36447
0.385595 0.39037 6.3528
0.389771 0.390309 6.34021
0.395515 0.390307 6.32858
0.401298 0.390306 6.31697
0.405619 0.390251 6.30448
0.411434 0.390252 6.29289
0.417288 0.390254 6.28133
0.421792 0.390205 6.26895
0.427672 0.390208 6.25741
0.432389 0.390168 6.24516
0.43825 0.39017 6.23361
0.444188 0.390176 6.2221
0.449025 0.39014 6.20993
0.455005 0.390147 6.19845
0.460109 0.390121 6.18645
0.46602 0.390125 6.17492
0.472186 0.390139 6.16355
0.477237 0.390111 6.15151
0.483466 0.390127 6.14018
0.488655 0.390105 6.12823
0.494948 0.390123 6.11693
0.500277 0.390106 6.10506
0.506109 0.390107 6.09349
0.512105 0.390114 6.08201
0.518122 0.390123 6.07055
0.52414 0.390131 6.05908
0.530104 0.390137 6.04759
0.536384 0.390155 6.03627
0.542257 0.390158 6.02472
0.548783 0.390185 6.01354
0.554855 0.390195 6.0021
0.561278 0.390218 5.99086
0.567665 0.39024 5.9796
0.573947 0.390258 5.96828
0.580688 0.390292 5.95721
0.587117 0.390316 5.94597
0.593665 0.390343 5.93479
0.60042 0.390378 5.92373
0.607198 0.390414 5.91267
0.613833 0.390445 5.90153
0.620662 0.390483 5.8905
0.627633 0.390526 5.87954
0.634525 0.390566 5.86854
0.641565 0.390611 5.85762
0.648606 0.390657 5.84669
0.656208 0.390723 5.83606
0.663499 0.390777 5.82526
0.670217 0.39081 5.81415
0.67812 0.390887 5.80368
0.685681 0.390951 5.79301
0.693362 0.39102 5.78241
0.701667 0.391111 5.77213
0.709597 0.391188 5.76165
0.717645 0.39127 5.75123
0.72635 0.391375 5.74115
0.734644 0.391466 5.73084
0.741568 0.391506 5.7198
0.751583 0.391659 5.71039
0.759129 0.391722 5.69967
0.767803 0.391826 5.68954
0.77846 0.392002 5.68044
0.78807 0.392139 5.67078
0.797189 0.392259 5.66086
0.806419 0.392383 5.65098
0.816407 0.392533 5.64149
0.825867 0.392665 5.63171
0.837926 0.392891 5.62327
0.848367 0.393057 5.61398
0.858241 0.393204 5.60438
0.868218 0.393353 5.59483
0.881909 0.393637 5.58717
0.892175 0.393797 5.57773
0.905662 0.394073 5.56993
0.916941 0.394269 5.56098
0.930907 0.394561 5.55339
0.945933 0.394892 5.54631
0.956885 0.395075 5.53714
0.975268 0.395526 5.53171
0.991112 0.395885 5.52497
1.00639 0.396223 5.51791
1.02674 0.396744 5.51337
1.05169 0.397429 5.51108
1.08151 0.398288 5.51116
0.106581 0.408725 7.00289
0.111245 0.408679 6.99045
0.116259 0.408646 6.97826
0.12096 0.408601 6.96585
0.125131 0.408534 6.95309
0.13087 0.408531 6.9414
0.135099 0.408467 6.92868
0.139361 0.408405 6.91599
0.145262 0.408408 6.90441
0.149582 0.408348 6.89177
0.154419 0.408309 6.87948
0.15927 0.40827 6.8672
0.164874 0.408262 6.85543
0.169309 0.408206 6.84288
0.173777 0.408152 6.83035
0.179148 0.408135 6.81843
0.184545 0.408118 6.80653
0.189519 0.408085 6.79435
0.194103 0.408036 6.78192
0.199115 0.408004 6.76977
0.203755 0.407957 6.75737
0.209182 0.407942 6.7455
0.214917 0.407939 6.73384
0.219652 0.407896 6.72152
0.224763 0.407868 6.70944
0.229555 0.407828 6.69716
0.234381 0.407788 6.68491
0.239554 0.407763 6.67288
0.244438 0.407727 6.66067
0.249649 0.407703 6.64867
0.254591 0.407669 6.63651
0.25984 0.407647 6.62454
0.26484 0.407615 6.61241
0.269876 0.407584 6.60031
0.275187 0.407565 6.58839
0.280282 0.407536 6.57633
0.285632 0.407519 6.56443
0.290785 0.407493 6.55241
0.295974 0.407469 6.54042
0.301387 0.407453 6.52857
0.306635 0.407431 6.51662
0.312088 0.407418 6.5048
0.317396 0.407398 6.49288
0.321428 0.407328 6.48017
0.326794 0.407311 6.4683
0.332196 0.407295 6.45645
0.337751 0.407286 6.4447
0.343214 0.407273 6.43289
0.348808 0.407265 6.42117
0.352954 0.4072 6.40855
0.358589 0.407193 6.39685
0.364172 0.407185 6.38512
0.369846 0.40718 6.37345
0.374201 0.407123 6.36097
0.379881 0.407119 6.34931
0.385621 0.407116 6.33768
0.390164 0.407067 6.32532
0.395944 0.407067 6.31372
0.401738 0.407067 6.30213
0.407553 0.407067 6.29054
0.412276 0.407025 6.27831
0.418153 0.407029 6.26676
0.423103 0.406996 6.25466
0.42895 0.406998 6.24311
0.434862 0.407002 6.23159
0.439947 0.406974 6.21957
0.445901 0.406981 6.20808
0.451243 0.406963 6.19622
0.45714 0.406967 6.18469
0.463268 0.40698 6.1733
0.468582 0.406961 6.16142
0.474774 0.406977 6.15007
0.480229 0.406963 6.13828
0.486485 0.406981 6.12696
0.492081 0.406974 6.11525
0.498223 0.406987 6.10387
0.504141 0.406992 6.09235
0.510326 0.407007 6.08098
0.516409 0.407018 6.06956
0.522638 0.407035 6.05822
0.528887 0.407052 6.04689
0.53516 0.407071 6.03557
0.541577 0.407095 6.02433
0.547866 0.407114 6.01302
0.554202 0.407135 6.00173
0.56084 0.407167 5.99062
0.56722 0.40719 5.97935
0.573924 0.407224 5.96827
0.580425 0.407251 5.95706
0.587196 0.407289 5.94601
0.593845 0.407322 5.93489
0.600683 0.407361 5.92387
0.60748 0.4074 5.91283
0.614396 0.407443 5.90185
0.621332 0.407486 5.89087
0.628396 0.407534 5.87997
0.635986 0.407603 5.86935
0.6433 0.407661 5.85857
0.649947 0.407693 5.84742
0.657837 0.407773 5.83696
0.665419 0.407841 5.82631
0.67312 0.407913 5.81573
0.68141 0.408008 5.80546
0.689358 0.40809 5.795
0.696142 0.408127 5.78391
0.70473 0.408233 5.77378
0.712944 0.408324 5.76345
0.721274 0.40842 5.75317
0.730256 0.408541 5.74324
0.738829 0.408645 5.73307
0.747516 0.408754 5.72296
0.756885 0.408889 5.71321
0.76581 0.409007 5.70321
0.774846 0.409129 5.69326
0.784596 0.409278 5.68368
0.793864 0.409409 5.67383
0.803241 0.409543 5.66403
0.815209 0.409776 5.65558
0.825531 0.409946 5.64625
0.835322 0.410095 5.63663
0.848026 0.410355 5.62851
0.85878 0.410541 5.61937
0.868963 0.410705 5.60992
0.882357 0.41099 5.60211
0.893518 0.41119 5.59313
0.904068 0.411367 5.58382
0.922293 0.411833 5.57843
